
# .PCD v.6 - Point Cloud Data file format
FIELDS x y z 
SIZE 4 4 4 
TYPE F F F 
COUNT 1 1 1 
WIDTH 1647
HEIGHT 1
VIEWPOINT 0.000000 0.000000 0.000000 1.000000 0.000000 0.000000 0.00000
POINTS 1647
DATA ascii
-0.022555 -0.013551 0.040953 
0.002933 -0.020257 0.001000 
0.013249 0.025664 0.044629 
-0.025130 0.015450 0.053130 
0.019455 0.020237 0.035231 
-0.005977 -0.022874 0.010657 
-0.016562 0.018257 0.000000 
-0.004292 0.025042 0.037118 
0.015295 0.002182 0.000000 
-0.011015 -0.023511 0.040334 
0.022431 0.007863 0.015121 
0.016401 0.019939 0.010040 
-0.007248 -0.022620 0.004871 
-0.025767 0.002576 0.006133 
0.022412 -0.006471 0.008826 
0.023187 -0.005323 0.000000 
-0.004337 -0.022645 0.007871 
-0.025398 -0.000256 0.003181 
0.024434 -0.012623 0.059661 
0.027342 -0.003177 0.023606 
-0.007022 -0.007135 0.000000 
-0.025552 -0.001678 0.026244 
-0.011778 0.019942 0.010860 
0.013622 0.021972 0.044620 
0.007841 0.002399 0.001000 
-0.019660 -0.012318 0.000000 
0.029562 -0.001225 0.050937 
-0.018351 0.000470 0.000000 
0.018828 -0.017441 0.009615 
0.015220 -0.017439 0.008852 
-0.010075 0.020303 0.003400 
-0.007267 -0.027012 0.027810 
-0.027653 -0.010886 0.058946 
-0.011767 0.024424 0.054758 
-0.026694 0.003994 0.050190 
-0.021630 0.016171 0.024364 
-0.023913 0.012103 0.051168 
-0.029161 0.004058 0.049812 
-0.027870 -0.008569 0.046353 
0.007538 -0.025555 0.011892 
0.013399 0.021009 0.033971 
-0.018194 -0.020934 0.030158 
0.024645 0.007683 0.041186 
-0.018838 0.004838 0.001000 
0.023552 0.011939 0.046111 
0.001666 0.029154 0.041536 
0.005965 0.026603 0.056153 
0.028718 -0.008373 0.055349 
0.003120 0.026878 0.059509 
-0.008051 0.024245 0.005402 
-0.021137 -0.016413 0.041024 
-0.023719 -0.010688 0.005691 
-0.014657 0.025969 0.057893 
0.022816 0.003833 0.002262 
0.016523 0.016648 0.010731 
-0.022505 -0.016543 0.029432 
0.010786 -0.006573 0.000000 
-0.018619 0.011333 0.001000 
0.005107 -0.025443 0.005773 
-0.027422 -0.010454 0.048426 
-0.020345 -0.014475 0.018239 
0.007056 0.028461 0.048609 
0.023075 -0.008398 0.025293 
0.024687 -0.008981 0.008168 
-0.012398 0.025422 0.031987 
0.013591 0.021988 0.044558 
-0.015616 0.017900 0.015837 
0.008887 0.005506 0.001000 
0.022145 0.018183 0.041779 
0.000966 -0.029720 0.054551 
-0.015877 -0.020943 0.049076 
0.015436 0.019126 0.029602 
0.019823 0.013970 0.009790 
0.001998 -0.002329 0.000000 
-0.001376 -0.011088 0.001000 
-0.001406 0.028202 0.030816 
0.026928 -0.000000 0.033078 
-0.005064 -0.022557 0.001000 
0.002341 0.029905 0.058811 
-0.020185 0.002832 0.001000 
0.012825 -0.024815 0.025719 
-0.009234 0.023832 0.003458 
0.002059 -0.023621 0.019776 
0.012397 0.023214 0.007720 
-0.015448 0.025684 0.060761 
0.025103 0.006859 0.006890 
-0.025577 -0.008261 0.015964 
0.024594 -0.015526 0.046439 
-0.015315 0.023629 0.029110 
-0.006787 0.026278 0.052190 
0.021317 0.018742 0.038678 
-0.024405 0.009797 0.047283 
0.009000 0.027773 0.054037 
-0.013413 -0.025128 0.035018 
0.024889 -0.007177 0.004917 
0.023440 -0.011624 0.007208 
-0.011846 -0.021907 0.030220 
0.023194 0.014219 0.016479 
0.028992 0.008371 0.060902 
0.028434 -0.002575 0.032907 
0.029865 -0.000571 0.057886 
-0.013428 0.022890 0.051136 
-0.027374 -0.006815 0.033214 
0.003931 -0.026237 0.051688 
0.016335 -0.023841 0.043492 
-0.010719 -0.026063 0.033084 
-0.004430 0.026877 0.018524 
0.012797 -0.024259 0.018295 
0.025655 0.012855 0.039264 
-0.005981 -0.028383 0.046671 
0.029182 -0.000929 0.042176 
-0.022540 0.012692 0.037125 
0.006650 -0.025543 0.043222 
0.021519 -0.019545 0.050234 
-0.020981 -0.012949 0.019408 
0.001367 0.022252 0.003071 
-0.007278 -0.025278 0.008333 
-0.021845 0.012955 0.029852 
0.014818 -0.021577 0.010368 
-0.013319 0.020500 0.000000 
-0.014939 -0.021359 0.009788 
-0.016567 -0.008436 0.000000 
-0.006089 -0.026412 0.053830 
-0.006329 -0.027174 0.025108 
0.000416 0.025207 0.039124 
-0.015760 -0.019750 0.004081 
0.019991 -0.021622 0.056552 
0.021584 -0.017843 0.059246 
0.002897 -0.029905 0.058823 
0.019367 0.017877 0.044366 
0.022100 0.016100 0.028178 
-0.024309 -0.012570 0.017988 
-0.029110 0.001704 0.040533 
-0.011591 -0.024165 0.050750 
-0.025111 0.013269 0.033408 
0.023019 -0.014682 0.051363 
-0.008159 -0.024899 0.022532 
-0.027256 0.011605 0.060833 
0.016549 0.021857 0.023658 
-0.018677 -0.019448 0.054339 
-0.017674 0.009946 0.001000 
0.007942 0.028784 0.056043 
-0.027010 -0.000000 0.027495 
0.020450 -0.016282 0.012394 
-0.015737 0.020824 0.046802 
0.019873 0.021809 0.057335 
0.017061 -0.024398 0.057850 
0.002055 0.026290 0.011482 
-0.027380 0.010393 0.047715 
0.012421 -0.008577 0.000000 
0.004144 -0.026018 0.049024 
0.028220 -0.000000 0.033671 
-0.021282 0.015282 0.013522 
-0.025947 -0.004569 0.007576 
-0.009458 0.023978 0.034832 
-0.022229 0.016468 0.046446 
0.008477 0.026404 0.038673 
0.005784 0.004553 0.001000 
0.022102 -0.008824 0.000000 
0.003926 0.029347 0.053091 
-0.013026 -0.025581 0.040169 
0.017704 -0.018745 0.039779 
0.022860 0.010348 0.031009 
0.020589 -0.016133 0.034038 
-0.023627 0.007647 0.028760 
0.029284 -0.004799 0.058318 
0.024412 0.014371 0.034097 
-0.007648 -0.015011 0.000000 
0.013147 0.003131 0.001000 
0.023668 0.003636 0.011788 
0.024462 0.017130 0.059364 
-0.005122 -0.010240 0.000000 
-0.022372 -0.005120 0.002441 
-0.003450 -0.014085 0.000000 
0.005123 0.027758 0.028371 
0.007489 0.013583 0.000000 
-0.023879 -0.009651 0.040320 
0.026076 0.002917 0.008917 
-0.019171 0.015834 0.020368 
0.016322 -0.021822 0.021299 
-0.024761 0.005411 0.032864 
0.025820 0.004853 0.043308 
0.017605 0.018342 0.036722 
-0.028862 -0.004980 0.050012 
0.011526 0.024255 0.052077 
0.007158 -0.028854 0.057643 
-0.023267 0.002384 0.001442 
-0.008225 0.024851 0.024435 
-0.007364 -0.026376 0.053392 
0.007579 0.022139 0.005239 
0.008198 -0.026163 0.023086 
-0.027995 0.003770 0.031265 
0.022583 -0.005677 0.007451 
-0.024112 0.008210 0.001734 
0.013536 -0.023039 0.053490 
-0.018628 0.019647 0.056040 
0.001910 -0.025381 0.041254 
-0.016132 -0.021470 0.017613 
-0.011650 -0.027009 0.055839 
-0.019431 -0.019642 0.029655 
-0.013044 0.026383 0.054805 
0.020142 0.010816 0.000062 
-0.002390 -0.007920 0.000000 
0.025741 0.015007 0.057487 
0.004800 -0.026855 0.059233 
0.022476 0.013868 0.041353 
0.017066 -0.018838 0.007239 
-0.026620 0.008361 0.029987 
-0.021530 -0.017072 0.050813 
-0.004141 0.021043 0.001000 
0.013899 -0.010596 0.000000 
0.024311 -0.016943 0.055567 
0.005716 -0.024272 0.027715 
0.004863 0.025863 0.047129 
-0.011282 -0.025984 0.034557 
0.005226 -0.026768 0.017219 
0.002550 0.004647 0.001000 
-0.006903 0.006831 0.001000 
0.007926 0.024135 0.017276 
0.024419 0.006600 0.003354 
-0.017250 0.019689 0.046236 
0.009051 0.023085 0.001000 
0.006965 0.014615 0.000000 
-0.022729 -0.016729 0.046227 
0.020055 -0.014968 0.005317 
-0.016934 0.018142 0.027774 
0.013241 -0.019947 0.020301 
-0.011794 -0.023260 0.042920 
-0.001003 0.022759 0.009263 
0.023303 -0.016071 0.034580 
0.023539 -0.012481 0.048270 
-0.014791 0.023755 0.025089 
-0.024020 0.013355 0.017661 
0.023889 -0.012778 0.053757 
0.018620 0.019242 0.019169 
-0.017810 -0.016005 0.012022 
-0.025536 -0.003021 0.004289 
-0.025486 -0.000000 0.015995 
-0.013520 -0.025301 0.039417 
-0.026830 -0.004303 0.017957 
0.028098 -0.009962 0.055020 
-0.020966 0.020610 0.056129 
-0.026693 0.009125 0.034424 
-0.029490 0.000812 0.049275 
0.026087 0.002797 0.037656 
0.029545 -0.000000 0.054569 
0.015732 0.016728 0.005910 
-0.000598 0.026802 0.058588 
0.020100 0.015361 0.022549 
0.012658 0.012586 0.001000 
0.029332 -0.003232 0.047405 
-0.014517 0.021995 0.049913 
-0.019843 0.014657 0.000000 
-0.001372 0.024825 0.034465 
-0.019244 0.014598 0.008048 
-0.006707 0.025566 0.043506 
0.008799 0.026450 0.051987 
0.016595 0.021080 0.056300 
0.025854 -0.004445 0.041989 
-0.022776 0.011901 0.004472 
-0.002190 0.023844 0.022503 
0.020706 -0.019533 0.040747 
-0.029306 0.000703 0.045028 
-0.027229 -0.005137 0.024116 
0.011498 0.019802 0.008620 
-0.007759 0.025925 0.017657 
-0.021021 -0.015507 0.013064 
0.026906 0.010999 0.051173 
0.024567 0.001916 0.000000 
0.010530 0.027221 0.046411 
0.014482 0.012462 0.000000 
-0.014108 -0.024778 0.035304 
0.003903 -0.008615 0.001000 
0.004006 -0.023639 0.019990 
0.029353 -0.000845 0.046124 
0.017735 0.018561 0.040020 
-0.008485 0.025575 0.022999 
-0.015879 0.023470 0.033004 
0.019927 0.018409 0.023026 
-0.023254 0.012515 0.044969 
0.003518 0.026896 0.059733 
-0.000382 0.003311 0.000000 
-0.019240 -0.015902 0.021589 
-0.019092 0.019185 0.022488 
0.013618 -0.019946 0.022710 
-0.019466 -0.020918 0.042417 
0.023172 0.004216 0.008265 
0.017654 0.020547 0.058423 
0.011030 -0.026053 0.061000 
0.027637 0.009777 0.051283 
-0.002587 -0.023131 0.000000 
0.025276 0.004731 0.036177 
-0.016119 0.024138 0.045609 
0.004139 0.024388 0.029129 
-0.028982 0.005450 0.056367 
0.013567 -0.025155 0.036895 
-0.006195 -0.028609 0.052003 
-0.019694 -0.016560 0.009524 
-0.001752 -0.001384 0.000000 
0.019425 0.021500 0.048635 
-0.014659 0.020742 0.037928 
0.000458 -0.022287 0.003501 
-0.004897 0.024052 0.000802 
-0.004320 0.022157 0.001912 
0.022925 -0.013752 0.012067 
0.023981 0.012042 0.012018 
-0.016284 -0.017332 0.014650 
-0.029726 0.002294 0.054707 
0.005565 -0.027608 0.028331 
0.011410 -0.015248 0.001000 
-0.008457 0.026365 0.053258 
-0.008101 0.016828 0.000000 
-0.021410 -0.014536 0.031335 
0.006769 -0.027316 0.032231 
0.013599 0.017979 0.004074 
-0.000309 -0.001641 0.001000 
-0.011746 -0.022851 0.038671 
0.021259 -0.001070 0.001000 
0.020686 -0.021240 0.060146 
-0.018930 -0.014742 0.007209 
-0.024527 0.011258 0.015351 
-0.006468 0.024398 0.003180 
-0.015908 -0.006223 0.001000 
0.019217 0.019965 0.030636 
0.025180 0.005128 0.036746 
-0.002634 0.001705 0.001000 
-0.019995 -0.017738 0.018402 
-0.007788 0.023658 0.005039 
0.017059 -0.022307 0.032292 
-0.014555 0.018944 0.019077 
0.022267 0.012733 0.005182 
0.022615 -0.010816 0.030042 
0.021651 0.017256 0.054071 
0.013828 -0.024470 0.026907 
0.006353 0.027610 0.034155 
-0.008344 -0.025478 0.042428 
0.008190 -0.025138 0.010409 
-0.013281 -0.024385 0.021959 
-0.020161 0.016772 0.037513 
0.004924 0.028285 0.036671 
-0.017588 -0.023736 0.061000 
-0.021333 -0.008199 0.003190 
-0.010115 -0.001298 0.001000 
-0.024041 -0.005552 0.024688 
0.024047 0.010424 0.045641 
0.026217 0.005403 0.011157 
-0.003186 0.010749 0.000000 
-0.013193 0.008704 0.001000 
0.004315 -0.004829 0.000000 
-0.013153 0.019203 0.012572 
-0.025777 0.000424 0.006216 
0.024847 -0.014365 0.039252 
0.006312 -0.004501 0.000000 
0.021463 0.012299 0.022461 
-0.015260 -0.020238 0.003981 
-0.022252 0.016252 0.025605 
0.009693 -0.020510 0.002941 
0.007830 -0.024077 0.025297 
-0.008167 -0.026021 0.027851 
0.022179 0.007883 0.001000 
0.023098 0.016118 0.058435 
-0.023820 0.016937 0.048735 
0.025571 0.008562 0.056090 
0.009768 0.022536 0.023852 
0.024542 -0.007905 0.040883 
-0.010647 0.025853 0.029934 
-0.022889 -0.016922 0.058984 
0.004751 -0.020079 0.000000 
-0.015241 0.017934 0.013758 
0.026481 -0.000144 0.013770 
-0.021264 0.006312 0.001000 
-0.002399 -0.017243 0.000000 
0.008372 -0.024484 0.005362 
0.025567 0.011726 0.030923 
0.020399 -0.014781 0.009256 
0.016318 -0.018794 0.000903 
0.023654 -0.007380 0.027939 
-0.015060 0.022102 0.055069 
-0.023789 -0.002349 0.007656 
0.018776 0.014726 0.006201 
-0.020307 -0.014317 0.000635 
0.004289 0.012522 0.001000 
0.024393 0.004613 0.024898 
-0.021525 0.013701 0.029168 
0.027210 0.009362 0.043192 
-0.027482 0.003871 0.059172 
-0.020719 0.011893 0.001000 
0.004498 -0.024411 0.029414 
-0.001755 0.025601 0.004811 
0.013217 0.026211 0.054383 
0.009906 0.021698 0.001000 
-0.008614 -0.003260 0.000000 
-0.027742 -0.000000 0.044990 
0.025256 0.009725 0.057250 
-0.020413 0.017389 0.018812 
0.015518 -0.014690 0.001000 
-0.000042 0.026289 0.052328 
0.018812 0.006133 0.000000 
0.028702 -0.004775 0.044755 
-0.019802 -0.019233 0.060462 
-0.025012 -0.009128 0.051758 
0.008134 -0.026094 0.025763 
0.015742 -0.021408 0.014899 
-0.026397 0.013416 0.057978 
0.014890 -0.023217 0.020964 
0.021632 0.015974 0.028596 
0.023205 0.005931 0.016139 
-0.012828 0.019099 0.001000 
0.005166 -0.024763 0.033704 
-0.009930 0.007938 0.001000 
-0.015140 -0.018499 0.018549 
0.024768 -0.000000 0.002052 
-0.022061 -0.016123 0.038923 
-0.024191 0.000343 0.000000 
-0.003768 -0.024156 0.026299 
-0.001725 -0.028132 0.030190 
-0.004045 -0.024767 0.033757 
-0.013708 0.025979 0.050770 
-0.016144 0.021583 0.057732 
0.019470 0.017499 0.041039 
0.027259 -0.006553 0.029646 
-0.006217 0.025635 0.008367 
-0.025948 0.007217 0.054907 
-0.008279 0.026196 0.024026 
0.025749 -0.002521 0.032320 
0.010481 -0.024831 0.015891 
-0.019219 0.018786 0.020047 
0.009929 -0.010855 0.001000 
0.028263 -0.009446 0.054238 
-0.014190 -0.019640 0.023441 
-0.022991 -0.015364 0.026128 
-0.015421 0.020431 0.040351 
-0.008208 -0.025110 0.036221 
0.026637 0.013047 0.060668 
-0.005515 0.024351 0.028688 
-0.026750 0.002976 0.017001 
0.013893 -0.019588 0.001000 
0.024280 -0.001918 0.011773 
-0.012912 0.020080 0.000000 
0.011690 -0.020090 0.011715 
-0.012932 0.011870 0.000000 
0.027124 -0.007574 0.061000 
-0.024701 0.009196 0.048295 
-0.024708 -0.014664 0.040084 
0.000099 -0.029471 0.048838 
-0.026277 0.007544 0.060274 
0.026138 0.000660 0.028961 
-0.007619 -0.024043 0.015387 
-0.023070 0.010988 0.036262 
0.029407 0.001527 0.047367 
0.004089 0.008408 0.000000 
0.020151 -0.017322 0.043161 
0.000939 0.023301 0.000000 
0.008602 0.026699 0.057332 
-0.024297 0.004616 0.000844 
-0.022017 0.003269 0.000000 
-0.009000 -0.027523 0.049403 
0.011349 0.025136 0.059229 
-0.022702 -0.016702 0.042361 
-0.012537 0.024151 0.057635 
0.005166 0.026901 0.059794 
-0.027414 -0.003115 0.055130 
0.020406 0.015054 0.018829 
0.014253 0.022403 0.052986 
0.021141 0.008138 0.001000 
-0.008310 0.024850 0.035863 
-0.001836 -0.026356 0.012269 
0.015024 -0.019631 0.029065 
0.024287 0.014180 0.028407 
-0.027320 0.001377 0.022882 
-0.000565 -0.022707 0.008626 
-0.025591 -0.012061 0.032752 
-0.012357 -0.022496 0.039171 
0.015776 -0.007284 0.001000 
0.007247 -0.000724 0.001000 
-0.004971 -0.025442 0.041998 
-0.019330 0.015884 0.022075 
0.008322 -0.012085 0.001000 
-0.015372 -0.018437 0.019434 
-0.010146 -0.028085 0.057520 
-0.016649 0.018738 0.031851 
0.024587 0.009698 0.009837 
0.008482 -0.025624 0.017423 
0.008715 0.016686 0.001000 
0.024059 0.010533 0.007230 
0.025847 -0.014233 0.053960 
0.029582 0.002128 0.051391 
-0.008168 0.026865 0.059348 
0.012941 -0.023233 0.009632 
-0.009988 0.023841 0.036915 
0.005416 -0.023175 0.014338 
-0.022320 -0.015582 0.046773 
0.006960 0.007728 0.001000 
0.021572 0.018473 0.038522 
-0.025505 -0.015467 0.058472 
0.004159 0.022174 0.002121 
-0.027012 -0.003842 0.053381 
0.022574 0.016681 0.042761 
-0.023347 -0.010813 0.038861 
0.023877 0.017534 0.055012 
0.017542 -0.007129 0.000000 
-0.021919 -0.010582 0.020644 
-0.007155 -0.013823 0.000000 
0.014057 -0.022877 0.055681 
-0.002260 0.026553 0.014642 
0.021896 0.015312 0.040501 
-0.001080 0.025099 0.000790 
0.000313 0.023712 0.020886 
-0.010315 0.026583 0.038492 
-0.008035 0.024587 0.020226 
0.027886 0.007275 0.045150 
-0.009540 0.003556 0.000000 
0.023395 -0.011240 0.041252 
-0.001481 0.002529 0.000000 
-0.000579 0.027108 0.020970 
-0.004743 -0.014499 0.000000 
0.020114 -0.010899 0.000079 
-0.000301 -0.001651 0.000000 
0.029690 -0.003843 0.060325 
-0.009000 0.028245 0.057931 
-0.020432 0.017244 0.018055 
0.005554 0.025884 0.008827 
-0.013659 -0.008377 0.001000 
-0.013532 0.018711 0.010263 
-0.010727 -0.027189 0.046791 
0.003532 -0.026053 0.049451 
0.001093 -0.025409 0.003270 
-0.018280 0.016772 0.000420 
-0.012919 0.013295 0.000000 
-0.009182 0.004638 0.000000 
-0.023507 -0.011540 0.043878 
-0.008979 -0.028040 0.049884 
-0.014337 -0.020611 0.034161 
0.008537 -0.026334 0.052872 
0.010035 0.024056 0.006407 
-0.018108 -0.019578 0.018113 
-0.023755 -0.006378 0.024807 
-0.026987 -0.006329 0.022718 
0.007937 0.024273 0.024278 
0.028446 -0.009238 0.055539 
0.010841 -0.006890 0.000000 
0.027975 -0.002627 0.028778 
-0.021515 0.007089 0.000568 
0.027161 0.001058 0.021450 
0.005915 -0.026513 0.015361 
0.027970 -0.009274 0.050203 
0.000948 0.023826 0.022279 
0.014987 0.004118 0.001000 
0.006304 0.027758 0.036102 
0.024408 0.010738 0.011842 
-0.016180 0.021179 0.053789 
-0.003293 0.001318 0.001000 
-0.010317 0.027452 0.053295 
-0.005838 -0.027212 0.022851 
0.020895 -0.014149 0.023479 
0.028749 -0.005032 0.047798 
0.026752 0.001596 0.040536 
-0.007859 0.027640 0.040986 
-0.016619 -0.012560 0.001000 
0.014532 -0.021715 0.047108 
0.007977 -0.025283 0.011260 
-0.005672 0.023676 0.020447 
0.013992 0.020336 0.000403 
-0.010133 0.020552 0.006164 
-0.011527 0.007603 0.000000 
0.002062 -0.005123 0.000000 
-0.004292 0.026809 0.058675 
0.014401 -0.017106 0.000385 
0.026453 -0.001376 0.013440 
-0.029328 -0.000000 0.056244 
0.002171 0.023738 0.021205 
-0.025558 0.013731 0.044492 
0.024105 -0.006384 0.029105 
-0.017156 -0.023521 0.046624 
0.012132 -0.020684 0.020276 
0.024635 0.002428 0.018325 
0.003189 -0.029480 0.050487 
-0.010981 0.020676 0.000000 
-0.012511 0.018757 0.004151 
0.021038 0.018668 0.035352 
-0.024842 -0.011963 0.022200 
0.021879 0.018755 0.045295 
0.021982 -0.011145 0.000509 
0.010267 0.027088 0.043864 
0.008687 -0.026132 0.050627 
-0.025214 -0.009887 0.018111 
0.024932 -0.015727 0.052946 
-0.024240 -0.012924 0.018575 
-0.004716 -0.026689 0.057209 
-0.016782 0.020673 0.052998 
-0.026281 0.011882 0.042662 
-0.017505 -0.013059 0.001000 
0.004863 0.022115 0.001404 
-0.002698 0.026790 0.017484 
-0.024809 0.005462 0.033663 
-0.009000 0.027581 0.058556 
-0.021267 0.010051 0.001000 
0.028773 0.001846 0.035955 
0.025508 -0.002631 0.029863 
-0.023232 -0.017232 0.045188 
0.012864 -0.021707 0.034830 
-0.024152 0.012584 0.056103 
-0.022049 0.006777 0.005721 
-0.014936 -0.025909 0.059155 
0.020306 -0.015005 0.018358 
0.020661 0.008635 0.001000 
-0.009159 0.026358 0.030047 
-0.024039 0.007696 0.033930 
0.025666 0.007889 0.015329 
-0.018867 0.014268 0.001795 
-0.014827 0.023959 0.029180 
0.028853 -0.005432 0.053262 
-0.020907 0.009580 0.004011 
-0.012710 -0.009423 0.001000 
0.009413 -0.025513 0.019801 
0.002259 -0.011247 0.001000 
-0.006595 0.027385 0.030503 
-0.014205 0.021276 0.040104 
-0.015439 0.023609 0.030229 
0.025674 0.009178 0.020897 
-0.007883 -0.024208 0.026521 
-0.000474 -0.003426 0.001000 
-0.024684 0.010255 0.052600 
0.008241 -0.001783 0.000000 
-0.028708 -0.000000 0.055131 
0.024830 -0.000000 0.006460 
-0.023884 -0.015472 0.036548 
0.023938 0.013232 0.016432 
0.005557 -0.026083 0.010420 
-0.017112 0.023059 0.039966 
0.003058 -0.021913 0.000000 
0.020088 -0.018116 0.050963 
-0.023478 0.015112 0.025307 
-0.023792 -0.011674 0.047879 
0.004949 0.022451 0.005503 
-0.024649 -0.013307 0.025649 
-0.003010 0.029539 0.050468 
-0.011591 -0.027261 0.061000 
-0.017595 -0.016555 0.016164 
0.012972 -0.024329 0.019834 
0.014268 0.016246 0.001000 
0.002319 0.028914 0.037228 
-0.022938 0.013601 0.011237 
-0.016079 0.000755 0.001000 
0.027098 0.000933 0.041858 
0.023726 0.007391 0.000000 
0.026843 -0.000000 0.018381 
0.000438 0.022522 0.006364 
-0.026073 -0.000000 0.017467 
0.008158 0.024582 0.016222 
-0.027532 -0.002611 0.024789 
-0.025150 -0.000000 0.002988 
-0.017350 -0.022940 0.041331 
-0.029334 0.001265 0.045672 
-0.022417 -0.016438 0.046502 
0.019077 -0.021630 0.046137 
0.008574 0.025835 0.041901 
0.014767 -0.014846 0.000000 
-0.000763 0.003191 0.000000 
-0.014666 -0.001344 0.000000 
-0.002564 -0.004019 0.001000 
0.009636 0.022401 0.021668 
-0.024522 -0.003956 0.000616 
-0.005695 0.020080 0.001000 
-0.013521 -0.022881 0.010411 
-0.016401 0.022523 0.028316 
0.026048 -0.013968 0.055894 
0.026226 0.001957 0.010706 
-0.008535 -0.025070 0.039426 
0.002481 0.026785 0.058373 
0.024458 0.006692 0.034709 
-0.023162 -0.017385 0.061000 
0.014143 -0.007248 0.000000 
0.015220 0.020123 0.002745 
0.006807 -0.026571 0.019693 
0.006656 -0.020394 0.001000 
-0.001830 0.012510 0.001000 
0.010972 0.024626 0.015395 
0.024479 -0.005333 0.029075 
0.001811 0.029305 0.045007 
0.025878 0.013730 0.049394 
0.018331 -0.020362 0.026235 
-0.014533 0.009957 0.000000 
-0.015267 0.024931 0.048699 
0.014413 -0.026152 0.060248 
0.005276 -0.023047 0.012777 
0.023155 0.005766 0.014815 
-0.001693 -0.026996 0.060947 
0.010294 0.022441 0.026507 
0.004684 -0.026781 0.017373 
-0.025249 -0.006390 0.042958 
-0.024516 -0.011483 0.016124 
0.024593 -0.008778 0.045211 
-0.025177 0.011916 0.026515 
-0.020911 0.015506 0.024736 
0.025696 -0.000218 0.005572 
0.012941 0.004075 0.001000 
0.025396 0.013898 0.043290 
-0.018701 0.009286 0.000000 
0.015947 -0.018697 0.026200 
0.022865 -0.012148 0.006203 
0.013092 -0.025191 0.033270 
0.008057 -0.024869 0.034999 
-0.024902 0.010536 0.016964 
-0.012480 -0.026301 0.050428 
-0.014262 0.021454 0.042392 
0.016489 0.022319 0.027264 
-0.026433 0.004512 0.049254 
0.021178 -0.015266 0.011994 
-0.011885 0.020086 0.012927 
0.017089 0.017928 0.000141 
-0.019617 0.012635 0.001577 
0.007974 -0.024622 0.018625 
0.001104 0.025133 0.001061 
-0.014209 0.018749 0.014977 
0.029542 0.000865 0.050467 
0.002749 0.029381 0.046771 
-0.016139 0.024274 0.047660 
0.016983 0.018066 0.000393 
-0.006030 0.025343 0.040781 
-0.019951 -0.014043 0.011655 
-0.016560 0.020011 0.011427 
0.006716 -0.026934 0.060198 
0.021203 -0.016001 0.037233 
0.024663 -0.016325 0.054745 
-0.011945 0.026140 0.040805 
-0.021290 0.017145 0.023922 
0.009985 0.023770 0.037028 
-0.016384 0.019425 0.006474 
-0.025104 0.009783 0.055663 
0.026817 -0.006399 0.061000 
-0.002740 -0.023081 0.013190 
-0.008213 0.026638 0.056587 
0.014168 0.024075 0.024371 
0.008380 0.022970 0.018560 
-0.026860 -0.010622 0.042604 
-0.005147 0.026647 0.015759 
-0.017093 0.019370 0.041741 
0.019507 -0.004885 0.001000 
-0.011630 -0.000841 0.001000 
0.015051 0.020229 0.002236 
0.028099 -0.000360 0.051581 
-0.017686 0.016445 0.015691 
0.025734 -0.009137 0.021519 
0.019255 -0.005543 0.001000 
0.025463 -0.004132 0.035850 
0.015738 -0.021249 0.051232 
0.010134 -0.020023 0.001077 
-0.016962 -0.017115 0.017279 
0.027898 0.005996 0.036165 
0.001640 -0.023088 0.000000 
0.029343 -0.004265 0.055587 
-0.021094 -0.017643 0.026638 
-0.021442 0.017739 0.030625 
0.000464 0.000579 0.001000 
-0.003415 0.025361 0.041006 
-0.020298 -0.020207 0.043813 
0.002673 0.016791 0.001000 
0.019256 0.014863 0.011133 
0.016205 0.022610 0.028070 
0.008577 -0.025965 0.047925 
0.001523 0.006205 0.000000 
0.008497 0.025059 0.010691 
-0.017749 0.017270 0.000151 
-0.003288 -0.023163 0.014185 
-0.018830 0.019023 0.019120 
-0.016757 -0.022501 0.031324 
0.003632 0.020966 0.001000 
-0.023714 -0.017614 0.053509 
0.022019 0.018146 0.039906 
0.028972 -0.006399 0.061000 
0.022138 -0.017062 0.055228 
0.023311 -0.003155 0.001000 
-0.024870 -0.009070 0.049802 
-0.019138 0.017816 0.013726 
-0.025958 -0.008939 0.023657 
0.028988 -0.003372 0.040575 
0.017161 -0.002087 0.001000 
-0.002730 -0.024072 0.025275 
-0.026095 0.004015 0.043052 
-0.018745 0.016338 0.000661 
0.015289 -0.015636 0.000000 
-0.011200 0.023982 0.008977 
-0.025829 -0.005873 0.047753 
0.017793 -0.016769 0.019854 
0.020088 -0.014759 0.014046 
-0.008311 0.025250 0.014360 
0.012740 -0.025793 0.041746 
-0.028472 -0.008183 0.061000 
-0.002476 -0.024682 0.032721 
0.016307 0.023542 0.039110 
0.021682 0.016586 0.022412 
0.005944 0.001169 0.000000 
-0.029480 -0.000000 0.050938 
0.014358 -0.021120 0.039618 
-0.017328 -0.020800 0.021152 
0.026509 -0.005981 0.015523 
-0.025073 0.002754 0.025091 
0.004195 0.027950 0.061000 
-0.022812 0.015231 0.051197 
-0.007345 0.019193 0.001000 
-0.021260 -0.014999 0.009554 
0.020085 0.015441 0.004206 
-0.003141 0.014412 0.001000 
0.013846 0.022082 0.047172 
0.003526 0.024184 0.026640 
-0.014796 -0.025320 0.049740 
-0.020970 -0.010823 0.010192 
-0.008422 0.025891 0.030939 
0.026055 0.003398 0.008663 
-0.007257 -0.022975 0.000000 
0.023307 0.003663 0.000000 
-0.003471 0.026124 0.050318 
-0.013222 -0.026037 0.051416 
-0.021328 0.015358 0.017252 
0.001905 0.024841 0.034659 
-0.019915 0.021880 0.058649 
-0.024769 0.007642 0.042508 
0.018265 -0.023058 0.053214 
-0.024495 0.014698 0.037280 
-0.008863 -0.026657 0.043641 
-0.009095 0.025855 0.050585 
-0.022027 0.000300 0.001000 
-0.023610 -0.016498 0.041801 
0.006388 -0.028635 0.052611 
0.000251 -0.005047 0.001000 
-0.019801 0.003054 0.000000 
0.024385 -0.004394 0.023840 
0.025092 -0.005933 0.039132 
-0.020338 0.014041 0.016306 
-0.004009 0.027384 0.023453 
0.021746 0.015049 0.012775 
0.000941 0.015498 0.001000 
-0.027172 -0.009702 0.042667 
-0.011916 -0.023096 0.042123 
-0.027174 -0.003366 0.053306 
-0.014378 -0.020920 0.002445 
-0.023266 0.016257 0.033867 
0.018579 -0.022803 0.053894 
0.025017 -0.000416 0.014227 
0.001551 0.025803 0.006420 
-0.001621 -0.029284 0.044532 
-0.014851 -0.017528 0.000000 
-0.005676 0.020765 0.000000 
-0.028437 0.000122 0.054668 
0.002696 0.025370 0.041119 
0.005726 0.024198 0.026821 
-0.011154 -0.026154 0.036273 
-0.014474 -0.017325 0.002963 
0.012603 0.023637 0.053506 
-0.005070 0.027844 0.029610 
0.019428 0.004098 0.001000 
0.008702 -0.026497 0.054858 
0.019551 -0.022200 0.058138 
-0.021801 -0.012717 0.028319 
0.018280 -0.012790 0.000000 
0.025231 -0.000310 0.016366 
0.026325 -0.006485 0.015383 
0.019024 0.003441 0.000000 
0.028066 0.000995 0.053936 
-0.022508 0.013960 0.042125 
-0.002727 0.023306 0.000000 
-0.020858 -0.014021 0.022500 
-0.006160 -0.028135 0.041115 
0.028511 -0.000146 0.055676 
0.009117 -0.023985 0.032713 
0.022693 -0.018481 0.051506 
0.012756 0.011603 0.000000 
-0.013915 -0.023185 0.014603 
0.007376 0.028632 0.052544 
0.003570 0.028876 0.039510 
0.020754 -0.018760 0.033629 
-0.008878 -0.026695 0.050425 
0.020751 -0.015114 0.007111 
-0.013311 -0.023318 0.054724 
-0.023703 -0.014384 0.021565 
-0.026241 0.000045 0.027540 
0.027351 0.008561 0.042035 
0.009000 0.027119 0.041391 
-0.008546 -0.024987 0.010030 
0.008058 0.024108 0.027171 
0.019383 0.014390 0.006953 
-0.008080 -0.023459 0.020981 
-0.010934 0.025359 0.024548 
0.029450 -0.003033 0.048597 
0.024501 -0.016322 0.052481 
0.028472 0.000821 0.033248 
-0.027365 0.002777 0.023285 
-0.024671 0.005962 0.034165 
0.004045 0.024950 0.003780 
0.020160 -0.021101 0.052508 
-0.018683 0.019539 0.055322 
0.014232 -0.022961 0.015159 
-0.023063 0.013858 0.048389 
-0.011398 -0.021436 0.022807 
-0.012811 -0.014513 0.001000 
-0.024104 -0.011083 0.009585 
0.010663 -0.025007 0.018743 
-0.025116 -0.005705 0.005404 
-0.024252 0.011504 0.013041 
0.008971 -0.016833 0.001000 
0.023657 -0.003859 0.012624 
0.016602 -0.020677 0.051702 
0.014172 -0.018191 0.009367 
0.024842 -0.013039 0.029380 
0.028744 -0.005851 0.053980 
0.002345 0.025469 0.003753 
-0.016385 0.014020 0.001000 
-0.010348 -0.025877 0.059324 
0.007755 0.023951 0.023803 
0.026186 -0.005286 0.049567 
0.025776 -0.002500 0.032554 
-0.005151 0.025690 0.045017 
-0.022622 0.011866 0.003970 
0.010691 -0.025975 0.031770 
-0.010833 0.015185 0.000000 
-0.017953 -0.021488 0.032963 
-0.015253 -0.020051 0.002430 
0.010597 -0.022905 0.031813 
-0.005232 0.025443 0.042003 
0.018815 0.023080 0.059796 
0.015954 0.005704 0.000000 
-0.024944 -0.003714 0.001203 
-0.021996 -0.004330 0.001000 
-0.017443 0.023711 0.051890 
0.021402 -0.012016 0.020526 
0.014805 -0.022722 0.059627 
0.019793 0.017844 0.017822 
0.007336 -0.024496 0.030452 
-0.019138 0.022610 0.058095 
0.019533 -0.006462 0.000000 
-0.026879 0.011686 0.053390 
-0.027982 -0.010525 0.061000 
-0.014339 0.024191 0.027518 
-0.006495 -0.003938 0.000000 
0.004162 -0.029471 0.057733 
-0.007223 0.008652 0.000000 
-0.007415 0.013238 0.001000 
-0.000278 0.026470 0.013636 
-0.020690 0.015313 0.011313 
0.004887 0.022921 0.011240 
-0.008943 0.014443 0.000000 
0.022749 -0.001861 0.000000 
0.017214 -0.022456 0.035032 
-0.024475 0.009777 0.048043 
-0.015674 -0.025361 0.058379 
-0.012695 -0.026262 0.052023 
0.025185 0.005493 0.005400 
-0.025222 -0.002918 0.027628 
0.021424 -0.018145 0.034120 
-0.019487 -0.014408 0.007878 
-0.023339 -0.002319 0.002037 
0.022396 0.012199 0.033281 
0.018071 -0.001556 0.000000 
-0.029178 -0.000000 0.050047 
0.002578 0.027909 0.028183 
0.023250 0.002271 0.000752 
0.014452 0.019022 0.001000 
0.022197 0.010297 0.000000 
-0.005224 0.023241 0.015138 
-0.021379 -0.020200 0.056167 
-0.013383 0.023547 0.014068 
0.023278 -0.006803 0.020840 
0.011115 0.024852 0.054960 
0.000618 0.027191 0.021721 
-0.021491 0.015261 0.012509 
-0.001311 0.029326 0.045492 
-0.015893 0.021062 0.013729 
0.019051 -0.008017 0.001000 
-0.025036 0.000027 0.012756 
-0.018773 -0.018425 0.044398 
-0.025097 0.005994 0.004389 
-0.000680 0.022920 0.011225 
0.014226 -0.016585 0.001000 
-0.022188 -0.016419 0.046916 
0.023440 -0.003540 0.000000 
0.017968 -0.005703 0.001000 
-0.010328 0.023432 0.003251 
0.027266 -0.000000 0.029061 
0.005068 -0.026748 0.016979 
0.021724 0.015329 0.014315 
-0.027464 0.009766 0.046276 
-0.007302 -0.022965 0.000000 
-0.010688 0.027502 0.056713 
-0.001896 -0.008998 0.000000 
0.021367 -0.015704 0.017741 
0.006365 0.026665 0.056917 
-0.008843 0.024351 0.034473 
0.006488 -0.022947 0.011558 
0.029277 0.003751 0.050126 
0.003258 0.029389 0.048929 
0.000728 -0.025422 0.003374 
-0.022960 0.016960 0.059827 
-0.023791 0.001910 0.005776 
-0.010729 0.019815 0.002899 
-0.001775 0.024381 0.000000 
0.019947 0.006673 0.001000 
0.009332 0.024801 0.042381 
-0.016468 -0.024340 0.051597 
0.018284 0.017071 0.027924 
0.004608 -0.017888 0.001000 
0.000410 -0.029229 0.043272 
-0.021775 -0.016065 0.042254 
-0.025721 -0.000850 0.005768 
0.023511 0.011179 0.042388 
-0.006292 0.027339 0.027845 
-0.017062 0.019235 0.009783 
-0.012481 0.023276 0.008204 
-0.000714 0.027723 0.026504 
0.010395 -0.023462 0.035877 
0.021383 0.016334 0.042232 
0.028840 0.004033 0.042238 
0.025411 -0.003931 0.034335 
-0.024982 0.000466 0.014012 
-0.024942 0.013351 0.031111 
0.026494 -0.011715 0.044986 
-0.015866 -0.020827 0.012154 
0.001763 0.026423 0.013080 
-0.009338 -0.024532 0.039401 
-0.007403 -0.023502 0.006743 
-0.023576 -0.001643 0.001990 
-0.028749 0.005839 0.053994 
-0.000630 0.029772 0.055763 
0.022621 0.015573 0.023489 
0.027494 0.006554 0.032211 
-0.012762 0.019000 0.008099 
0.025277 -0.000000 0.010868 
0.016965 0.018703 0.036021 
-0.025940 0.013570 0.049122 
0.022404 -0.013665 0.039617 
0.026543 -0.012744 0.057404 
-0.006728 0.028648 0.052906 
0.009549 0.024340 0.039481 
0.026908 0.001870 0.018899 
0.007469 0.009057 0.001000 
0.007182 0.024354 0.028722 
0.024429 0.014045 0.028536 
0.012960 -0.017381 0.000000 
-0.002337 -0.025458 0.042189 
0.013439 -0.025195 0.036460 
0.018442 -0.022730 0.051482 
-0.010323 0.026958 0.047178 
-0.002045 -0.028305 0.031741 
0.008332 0.025535 0.024560 
-0.028295 -0.001607 0.059338 
0.024446 -0.017094 0.058821 
-0.025910 0.006855 0.014347 
0.023305 -0.006537 0.020007 
0.017430 0.020866 0.059936 
-0.016945 -0.022368 0.031818 
-0.018447 -0.019403 0.019099 
0.025894 -0.004907 0.007576 
0.019662 0.014677 0.000000 
-0.025890 -0.007477 0.015546 
-0.026423 -0.008688 0.028815 
0.025860 -0.005121 0.007439 
-0.005591 0.023287 0.015704 
0.018919 -0.018145 0.014382 
0.010595 0.024891 0.017072 
0.019731 0.017291 0.040672 
-0.009271 -0.025252 0.016110 
-0.022250 0.018137 0.042453 
-0.019952 -0.018241 0.051250 
0.023978 -0.013607 0.018625 
-0.016455 -0.019970 0.043243 
-0.022050 0.016050 0.034343 
0.007313 0.025347 0.009421 
0.027881 -0.004374 0.032051 
-0.008242 -0.025283 0.036630 
0.024378 0.009567 0.045987 
-0.026216 -0.003026 0.010587 
0.024374 -0.002810 0.016804 
0.029509 -0.000000 0.056515 
-0.000796 -0.027441 0.023972 
-0.002788 -0.022421 0.005139 
0.025429 -0.006704 0.046468 
-0.028587 -0.009441 0.058270 
-0.020251 -0.014680 0.007468 
-0.018746 -0.009197 0.000000 
0.009000 0.028396 0.055177 
-0.018876 0.021775 0.045487 
0.002335 0.025105 0.037881 
-0.017351 0.007607 0.000000 
-0.026010 -0.007489 0.056818 
0.000271 -0.028544 0.033899 
-0.007714 0.023786 0.013953 
-0.017502 -0.006202 0.000000 
-0.020687 -0.011245 0.008579 
-0.021615 -0.013164 0.027980 
-0.028883 0.008502 0.058306 
0.015765 -0.019547 0.002498 
0.021909 -0.018305 0.040465 
0.022782 0.006844 0.001000 
0.006296 -0.028447 0.048282 
0.022070 -0.017294 0.032272 
-0.018702 0.022046 0.046611 
0.028596 -0.000000 0.035619 
0.016972 -0.018374 0.002772 
-0.023769 0.010165 0.041184 
0.002018 -0.006191 0.001000 
-0.001249 -0.027838 0.027542 
0.001731 -0.016079 0.000000 
-0.003522 -0.022947 0.000000 
0.006893 0.021115 0.000000 
0.014722 0.007133 0.001000 
-0.012374 0.001861 0.000000 
-0.001200 0.029104 0.040389 
-0.011497 0.019719 0.006907 
-0.021017 -0.015240 0.018468 
-0.017227 0.000129 0.001000 
-0.002767 0.029220 0.043063 
-0.022336 0.012173 0.032453 
0.023788 0.010338 0.005102 
0.020678 -0.017807 0.052132 
0.016394 -0.020436 0.012980 
0.020210 -0.021234 0.061000 
-0.004538 0.027335 0.023014 
0.021003 0.015662 0.032267 
0.022191 -0.016191 0.033309 
-0.007082 -0.016902 0.000000 
0.018962 0.017184 0.008878 
-0.002929 0.022921 0.011236 
0.007564 -0.024035 0.012825 
0.027261 0.003259 0.053895 
-0.014346 0.019526 0.023339 
0.008736 -0.026341 0.042798 
0.019366 0.014291 0.002877 
-0.008037 0.000527 0.001000 
-0.007724 -0.023810 0.021516 
-0.025369 0.009827 0.059043 
0.010023 0.027484 0.047483 
-0.021897 0.015897 0.024399 
0.023708 -0.017708 0.058952 
0.017699 0.018002 0.033750 
-0.026102 0.002375 0.035996 
0.013687 0.024263 0.022864 
0.001242 -0.009598 0.000000 
0.020311 -0.016241 0.033092 
-0.006089 0.026499 0.054893 
-0.011896 -0.021104 0.000050 
-0.015992 0.021540 0.056153 
0.020782 0.015337 0.024028 
0.015843 0.023736 0.037625 
0.000580 -0.022910 0.011105 
-0.002218 -0.029944 0.059701 
-0.026262 -0.000752 0.011147 
-0.013270 -0.019708 0.018181 
0.020600 -0.015094 0.005552 
0.009733 0.024598 0.043180 
0.001986 -0.022528 0.006443 
0.025401 0.004205 0.035409 
0.002416 0.009896 0.001000 
0.008786 -0.013164 0.000000 
-0.014416 -0.021949 0.048685 
-0.009597 -0.025500 0.050389 
-0.023448 0.005708 0.018137 
0.021921 0.010586 0.000000 
0.022589 -0.016766 0.032190 
0.022291 -0.008833 0.017635 
-0.017433 -0.020386 0.054845 
-0.009735 0.021657 0.014255 
0.016262 0.020997 0.053259 
0.001895 0.026618 0.056344 
0.017420 0.021112 0.024785 
-0.008014 0.027539 0.040413 
-0.020866 0.017508 0.050418 
-0.005571 -0.025847 0.008339 
-0.007027 0.022890 0.001000 
-0.001805 0.027144 0.021300 
-0.010522 -0.019777 0.001209 
-0.008600 0.025983 0.047705 
-0.014163 0.019678 0.001000 
-0.005670 -0.023550 0.018913 
0.022798 0.007063 0.016114 
-0.004270 0.026708 0.057438 
-0.013416 -0.025582 0.044658 
0.028112 -0.005304 0.036918 
-0.006278 0.028814 0.056721 
0.007186 -0.022396 0.005013 
-0.020237 0.020015 0.040893 
0.026209 -0.006084 0.013134 
0.025691 -0.015042 0.057131 
-0.024086 -0.010769 0.047573 
-0.003164 -0.023417 0.000000 
-0.020270 0.021407 0.057291 
-0.020319 -0.014713 0.007672 
-0.023911 0.008588 0.036191 
0.012384 -0.021190 0.001092 
-0.026953 0.012120 0.060832 
-0.023665 -0.012327 0.049128 
0.025542 -0.003714 0.006167 
-0.003399 0.027280 0.022520 
-0.019879 -0.020069 0.037533 
0.022124 0.015370 0.043498 
-0.012903 -0.014972 0.001000 
-0.001047 -0.024854 0.001000 
0.004755 -0.028654 0.043494 
-0.002640 -0.026887 0.018641 
0.012848 0.025802 0.043196 
0.007695 -0.024305 0.028126 
-0.016625 -0.019308 0.037612 
0.023472 -0.008573 0.030833 
0.023051 -0.014196 0.049686 
-0.021785 -0.008567 0.010305 
0.022759 0.015693 0.025985 
0.008061 0.024187 0.003764 
-0.002581 -0.000748 0.001000 
0.028202 0.001011 0.055672 
0.011073 -0.027166 0.050603 
0.009218 0.026421 0.031158 
-0.005818 0.025239 0.039511 
0.010017 -0.024002 0.038657 
0.010952 -0.025635 0.028358 
0.026902 -0.002113 0.018825 
0.006794 0.026209 0.016844 
-0.028718 0.004840 0.045614 
-0.017087 0.021367 0.024081 
0.010744 -0.019535 0.000303 
-0.016453 -0.024448 0.052954 
-0.029511 -0.001463 0.049743 
-0.019803 -0.015999 0.026790 
-0.013513 -0.025184 0.036922 
0.009567 -0.021846 0.014998 
-0.019142 -0.020989 0.039503 
-0.025547 0.009830 0.022115 
-0.006662 0.027706 0.036684 
0.023406 -0.012376 0.046222 
-0.011554 -0.020954 0.019166 
0.017448 0.012790 0.000000 
0.023593 -0.016499 0.041567 
0.012368 -0.024373 0.058703 
0.020806 -0.016100 0.035306 
-0.023791 0.010572 0.043184 
0.028682 0.003771 0.037455 
-0.020358 0.014882 0.001925 
-0.025612 -0.000927 0.023709 
0.015990 -0.015159 0.001000 
0.012708 -0.020294 0.000000 
-0.004452 0.004650 0.000000 
0.021643 -0.017496 0.056072 
-0.019597 -0.000880 0.001000 
-0.012204 0.025678 0.034566 
-0.021874 0.007086 0.004942 
0.008890 0.025522 0.017827 
-0.015022 0.025145 0.049400 
-0.011059 0.026413 0.040277 
0.016636 -0.023648 0.043593 
-0.001366 -0.024098 0.025601 
-0.019880 0.011607 0.000306 
0.023630 -0.001089 0.000233 
-0.003508 0.017433 0.001000 
-0.007400 0.023000 0.009234 
0.022603 -0.010774 0.001509 
-0.002130 -0.024610 0.031845 
-0.001537 0.025759 0.045859 
-0.024302 -0.005088 0.025851 
0.000761 -0.015897 0.000000 
0.025697 0.014779 0.054789 
0.014176 -0.021707 0.007066 
0.014462 -0.020179 0.000146 
-0.011859 -0.026306 0.042883 
0.009694 0.024325 0.040319 
-0.022570 0.016709 0.052533 
0.002410 -0.029690 0.053865 
-0.000314 -0.024572 0.001000 
0.021460 0.013654 0.028197 
0.023168 -0.017292 0.053478 
0.022039 -0.016305 0.044773 
-0.023356 -0.005665 0.016823 
-0.023315 0.012982 0.010452 
-0.010049 -0.026736 0.038987 
-0.001386 0.026339 0.012064 
-0.008832 -0.026832 0.036254 
0.028902 -0.004003 0.043436 
0.025153 -0.013354 0.035953 
0.011376 -0.022612 0.033998 
-0.016429 0.019904 0.009999 
-0.012820 -0.024850 0.026164 
0.022820 0.016865 0.037676 
0.005240 0.027744 0.028837 
0.025676 -0.007386 0.012425 
-0.008802 0.025491 0.017100 
0.003563 0.022213 0.002593 
-0.020396 -0.005622 0.000000 
-0.003001 -0.016396 0.000000 
-0.000870 -0.023589 0.019389 
0.020854 -0.018177 0.029282 
-0.003579 -0.026829 0.017943 
-0.016431 0.022313 0.026695 
-0.010061 -0.024083 0.039713 
0.025906 -0.013047 0.047880 
0.002119 -0.022207 0.001000 
0.024984 -0.012778 0.030385 
0.023488 -0.001802 0.001606 
0.021682 0.016673 0.023197 
0.022513 0.015918 0.050518 
0.020356 -0.018294 0.054812 
-0.005909 -0.023004 0.012246 
-0.003012 0.006472 0.001000 
-0.026644 0.004752 0.015732 
-0.008813 -0.026813 0.041236 
-0.018525 0.019454 0.019870 
0.012321 0.019534 0.011646 
0.003678 0.002964 0.000000 
0.025522 -0.000000 0.017952 
0.018502 0.017349 0.032472 
0.021698 0.000826 0.000000 
0.014816 -0.022895 0.061000 
-0.025339 -0.009578 0.057621 
-0.025461 -0.002528 0.028837 
0.016316 -0.017539 0.016889 
0.009988 0.025275 0.019254 
0.012694 -0.002160 0.001000 
0.008991 -0.024081 0.032827 
0.020319 0.014042 0.000994 
0.001824 -0.025358 0.002863 
-0.021508 0.015049 0.034703 
0.001671 -0.006005 0.000000 
0.027974 -0.002275 0.058313 
-0.023299 -0.006759 0.020901 
-0.014680 0.021852 0.011192 
0.028892 -0.004683 0.048416 
-0.023809 -0.010260 0.005375 
-0.002579 0.029188 0.042313 
-0.020151 -0.013077 0.009944 
-0.015373 -0.011254 0.001000 
-0.026754 -0.007397 0.027465 
-0.023154 0.010633 0.002511 
0.011709 0.018846 0.001000 
-0.001846 -0.025442 0.003535 
-0.019598 0.019004 0.056568 
-0.006137 -0.026669 0.017430 
0.025114 -0.010510 0.019411 
0.019738 0.013960 0.001000 
0.009000 0.027141 0.055664 
0.008936 -0.013590 0.001000 
0.004043 -0.027694 0.061000 
-0.022011 0.016086 0.036179 
0.008649 0.025993 0.039942 
-0.009836 0.024150 0.038916 
0.013540 0.019376 0.000000 
-0.019352 -0.013533 0.002261 
-0.027839 0.009809 0.050749 
-0.004471 -0.029128 0.052222 
-0.009453 -0.027019 0.039956 
0.003518 0.024650 0.000000 
-0.024814 0.007458 0.042263 
0.015168 -0.023796 0.030349 
0.014419 -0.025791 0.054057 
0.024473 -0.009559 0.007942 
-0.025650 -0.003954 0.005203 
-0.020640 0.020392 0.049872 
0.000714 -0.005146 0.000000 
0.026693 -0.000000 0.016940 
0.005185 -0.023188 0.014491 
-0.010890 0.021243 0.017684 
0.025304 -0.003295 0.030258 
-0.012844 -0.022165 0.039244 
-0.022118 -0.018738 0.047850 
-0.024838 0.011087 0.057998 
-0.004208 -0.012366 0.000000 
-0.022233 -0.016233 0.027391 
0.003485 -0.022823 0.010046 
-0.001721 -0.022019 0.000238 
0.012406 0.022659 0.042896 
-0.011132 -0.021959 0.026135 
-0.021599 -0.017721 0.031879 
0.020983 -0.020445 0.054428 
0.012006 0.020781 0.022361 
-0.026154 -0.000496 0.028439 
-0.002895 -0.023334 0.016278 
0.007534 -0.026383 0.022690 
-0.013955 0.021820 0.043912 
-0.016336 -0.017797 0.019726 
-0.014898 -0.020862 0.006083 
0.002113 -0.018016 0.001000 
-0.024259 0.016936 0.054792 
-0.025939 0.009204 0.024594 
-0.014999 -0.021804 0.051510 
0.009815 0.025841 0.055520 
0.014425 -0.022112 0.011220 
-0.021445 -0.015176 0.011723 
0.004622 0.022165 0.002017 
0.027091 0.011094 0.061000 
-0.008881 0.026881 0.043468 
0.027062 0.003861 0.021123 
0.014387 0.024915 0.040397 
0.023710 -0.002308 0.006514 
0.021689 0.017107 0.027166 
0.026814 -0.000000 0.019997 
-0.020643 -0.017216 0.019155 
-0.013423 0.022927 0.051490 
0.008894 0.021388 0.007008 
0.024925 -0.013973 0.036493 
-0.025630 -0.000000 0.011039 
-0.021546 -0.016637 0.046402 
-0.008901 0.006811 0.000000 
-0.018093 -0.000807 0.000000 
-0.015015 0.024441 0.039620 
-0.000801 -0.026123 0.050306 
0.004118 0.022993 0.012109 
0.014675 -0.024432 0.035871 
0.013766 0.020122 0.028041 
-0.014414 -0.021255 0.041439 
-0.028404 -0.005794 0.045708 
0.023322 0.017322 0.058751 
0.027022 0.005697 0.020389 
0.026135 -0.004228 0.009619 
0.017328 -0.005891 0.001000 
0.008178 -0.025867 0.047175 
0.025636 0.015425 0.059886 
0.011598 -0.020471 0.014796 
0.008417 0.025706 0.018136 
0.005326 -0.026786 0.017430 
0.005062 -0.029153 0.057319 
0.016900 -0.015488 0.000851 
-0.025936 0.000053 0.023849 
0.016759 0.019166 0.039255 
0.023696 -0.008955 0.035153 
0.006843 0.024126 0.001012 
0.007463 0.026913 0.059943 
-0.017212 -0.021073 0.022568 
-0.006233 0.024218 0.001747 
0.027623 -0.002953 0.056959 
0.028669 -0.000000 0.038482 
-0.011320 0.000214 0.000000 
0.017234 -0.011752 0.000000 
-0.020512 -0.020316 0.047525 
0.027954 -0.000983 0.028589 
0.002416 0.022677 0.008261 
-0.021750 0.015750 0.017364 
0.004409 -0.028207 0.032177 
-0.007088 0.016972 0.000000 
-0.025926 0.003503 0.007705 
0.005852 -0.022425 0.005180 
-0.000961 0.028176 0.061000 
-0.009989 0.028323 0.060802 
-0.018801 -0.014757 0.006403 
0.025024 -0.014724 0.044984 
-0.008323 -0.010558 0.000000 
-0.011024 -0.024078 0.009079 
-0.022834 -0.010263 0.030332 
-0.023248 -0.015524 0.030047 
-0.026376 0.010643 0.036966 
0.024321 -0.010495 0.049245 
-0.005244 0.004879 0.000000 
-0.016112 -0.021273 0.054269 
0.015103 0.017483 0.009525 
0.024172 0.010533 0.047611 
0.014351 -0.021624 0.007802 
0.024398 0.008791 0.042923 
-0.023589 -0.017636 0.058145 
0.010286 0.023535 0.036838 
-0.007614 -0.005426 0.001000 
0.028635 -0.000004 0.034712 
0.023298 0.003355 0.006058 
-0.007963 -0.024407 0.020414 
-0.010824 0.022797 0.032233 
-0.003435 -0.008506 0.000000 
-0.008859 -0.026648 0.045676 
-0.007663 -0.009310 0.000000 
0.014639 -0.022046 0.051351 
-0.007206 0.024218 0.027060 
-0.008499 -0.026249 0.028815 
-0.015233 -0.019864 0.033046 
-0.016231 -0.017117 0.012241 
0.021653 -0.007911 0.001000 
0.026957 -0.000790 0.019485 
-0.022452 0.009991 0.024561 
-0.025275 0.002422 0.002200 
0.008788 -0.026471 0.053147 
0.026880 0.010482 0.046612 
0.007580 -0.022076 0.004463 
-0.024998 0.007781 0.007397 
0.014357 -0.024480 0.032919 
-0.008359 -0.023153 0.019831 
-0.025038 -0.009928 0.055482 
-0.015225 -0.025642 0.058131 
-0.024702 -0.004536 0.028325 
0.015622 -0.020636 0.043986 
0.012192 -0.019768 0.011844 
-0.023849 0.012323 0.012087 
-0.023957 0.003794 0.016005 
-0.018097 -0.016511 0.000000 
-0.007055 0.025620 0.044163 
-0.015481 0.012613 0.000000 
0.022992 0.015321 0.053756 
0.009171 0.024633 0.039699 
-0.005993 -0.026032 0.011266 
-0.021992 0.005745 0.000529 
-0.022040 -0.008952 0.000000 
0.003274 0.026464 0.013570 
-0.009437 0.024576 0.040454 
0.028170 0.008242 0.051455 
-0.013421 0.005197 0.001000 
-0.022362 -0.015716 0.047844 
0.006497 0.025796 0.011537 
0.001452 0.023449 0.017676 
-0.011640 -0.021420 0.024201 
0.009000 -0.027947 0.056753 
0.024830 0.009128 0.010477 
-0.020090 0.014829 0.015902 
0.007264 0.022658 0.007910 
-0.005499 0.024859 0.034882 
0.021872 0.003494 0.001000 
0.012183 -0.025020 0.025587 
-0.023858 0.011230 0.046791 
0.023871 0.016571 0.046082 
0.028623 -0.000163 0.057116 
-0.015928 -0.002207 0.001000 
0.020548 0.009814 0.000647 
-0.000784 -0.023524 0.018594 
0.021788 -0.015930 0.035255 
0.021521 -0.005301 0.001000 
0.000868 0.029585 0.051450 
0.021950 0.011015 0.022867 
0.003819 0.026927 0.060107 
-0.016464 -0.024146 0.048881 
0.023100 0.017100 0.052125 
0.021810 0.019956 0.058313 
0.018335 0.007559 0.000000 
0.002854 -0.029172 0.041958 
0.023201 -0.009680 0.032274 
0.014045 -0.023205 0.059013 
-0.021405 -0.007544 0.001209 
-0.020765 -0.016829 0.017562 
-0.010837 -0.027254 0.049001 
0.024847 -0.014923 0.061000 
0.003639 -0.025482 0.042483 
0.003004 -0.023047 0.012772 
-0.014997 0.022204 0.015207 
-0.005169 -0.011912 0.001000 
0.026882 0.011817 0.056888 
0.001972 -0.027486 0.024378 
0.015300 0.024811 0.047357 
0.010729 0.005565 0.001000 
0.023674 -0.016698 0.044518 
0.023071 0.005986 0.014746 
-0.007695 0.023737 0.018199 
0.007583 -0.023572 0.016960 
-0.008414 0.005077 0.001000 
0.021969 -0.016570 0.048849 
0.007162 0.023240 0.015127 
-0.011966 0.000788 0.000000 
0.013548 0.018849 0.013077 
-0.021007 0.012176 0.016441 
-0.019826 0.014623 0.012338 
0.007949 0.028962 0.060124 
-0.004456 -0.004172 0.001000 
0.015021 -0.025928 0.060193 
-0.028833 -0.009146 0.059643 
-0.011898 0.020877 0.020627 
0.014465 -0.024876 0.040574 
-0.017100 0.001698 0.001000 
-0.020191 0.018501 0.055733 
-0.008491 -0.025727 0.042771 
0.018872 -0.015613 0.015846 
0.025850 -0.013146 0.047731 
-0.014409 0.009202 0.000000 
-0.022557 -0.017813 0.042253 
-0.022516 -0.012635 0.036591 
-0.015452 0.019582 0.031740 
-0.008266 0.000958 0.000000 
-0.008964 0.026956 0.037241 
-0.023733 -0.014447 0.023250 
-0.025012 -0.006274 0.039612 
-0.007849 -0.024214 0.025261 
-0.005757 -0.028299 0.043021 
-0.015105 -0.022171 0.015659 
-0.010675 -0.027548 0.061000 
0.023760 -0.005064 0.019133 
-0.023268 0.008984 0.030119 
-0.006745 -0.024240 0.027327 
0.002820 -0.025402 0.041509 
-0.024303 -0.002331 0.013851 
0.000272 0.017319 0.000000 
0.008521 0.024816 0.037035 
0.004055 -0.025329 0.040609 
0.006067 -0.028273 0.044271 
-0.012461 0.012881 0.001000 
0.027900 -0.003887 0.030761 
-0.009301 0.024325 0.037173 
0.023709 -0.006174 0.023354 
0.008796 0.024874 0.009669 
-0.003430 0.028714 0.035428 
0.027312 0.004559 0.060054 
-0.000626 -0.004816 0.000000 
-0.009616 0.025509 0.020645 
-0.025410 -0.010690 0.024132 
-0.022047 0.011296 0.025234 
-0.022443 -0.011432 0.030593 
0.000626 -0.012384 0.001000 
0.021777 0.013769 0.004685 
-0.003159 0.024055 0.001000 
-0.018631 -0.017988 0.038793 
-0.010259 -0.020227 0.003851 
-0.022869 0.018294 0.051382 
-0.007835 -0.024936 0.011859 
-0.012713 0.010923 0.001000 
0.007505 -0.007163 0.001000 
-0.011963 0.022745 0.039049 
0.021865 0.013331 0.031700 
0.005735 0.022002 0.000020 
0.021638 0.008261 0.000000 
-0.007716 -0.024286 0.018390 
0.027259 -0.002321 0.022332 
-0.007551 -0.023663 0.010667 
-0.023328 -0.012450 0.008422 
-0.011260 -0.024660 0.017487 
0.008908 0.023884 0.002701 
-0.009000 -0.027626 0.055906 
-0.015463 -0.016669 0.002994 
-0.008428 0.025862 0.030750 
0.001397 -0.019868 0.000000 
-0.010204 0.027145 0.048901 
-0.027520 -0.000000 0.025660 
0.020592 0.014722 0.002513 
0.027132 -0.009360 0.040902 
-0.010302 -0.024163 0.042038 
0.002141 0.001019 0.000000 
0.004778 -0.026893 0.059692 
0.018708 0.019768 0.058181 
0.023647 0.003636 0.011542 
0.023965 -0.011331 0.048514 
-0.011975 -0.016217 0.000000 
0.017739 0.015363 0.005630 
-0.003037 -0.024981 0.000285 
0.023272 0.011383 0.005137 
0.029121 0.000349 0.040792 
0.013457 0.018148 0.004870 
-0.025066 -0.007905 0.047207 
-0.020319 0.021178 0.055216 
0.027999 0.000979 0.028987 
-0.011252 -0.020029 0.008318 
-0.018428 0.015878 0.000000 
0.016688 0.019256 0.039622 
-0.022932 0.016932 0.058497 
0.010439 0.025416 0.023089 
-0.006949 0.006962 0.000000 
-0.012128 0.024358 0.056749 
-0.020406 0.019716 0.039405 
-0.006722 0.018984 0.000000 
-0.002463 0.023038 0.012665 
-0.026429 0.002509 0.013153 
-0.016467 0.020596 0.014379 
-0.015711 -0.017784 0.015328 
-0.023730 0.008288 0.032721 
