
# .PCD v.6 - Point Cloud Data file format
FIELDS x y z 
SIZE 4 4 4 
TYPE F F F 
COUNT 1 1 1 
WIDTH 1647
HEIGHT 1
VIEWPOINT 0.000000 0.000000 0.000000 1.000000 0.000000 0.000000 0.00000
POINTS 1647
DATA ascii
-0.021669 0.015669 0.020699 
0.022706 0.014079 0.038838 
0.012606 0.023394 0.010085 
-0.011175 -0.012917 0.000000 
-0.003292 0.026903 0.043773 
-0.008186 0.023872 0.016792 
0.017606 0.020394 0.044136 
-0.022163 -0.011510 0.021090 
0.026149 0.005553 0.004427 
0.017038 -0.017743 0.021833 
-0.021665 -0.015665 0.004655 
-0.008000 0.025255 0.011143 
-0.027000 0.001893 0.004162 
0.024871 -0.003386 0.000543 
-0.019225 -0.016229 0.021815 
0.009198 -0.025601 0.035761 
0.018896 -0.016457 0.011259 
0.010043 -0.025319 0.047928 
0.019117 -0.016303 0.041583 
0.025487 -0.009538 0.036343 
0.022015 -0.015956 0.005338 
0.002070 -0.024000 0.021192 
-0.021492 0.016508 0.042748 
-0.019260 -0.018740 0.018041 
0.008000 -0.025213 0.042988 
-0.021483 -0.010727 0.001000 
-0.024697 0.011303 0.010948 
0.026000 0.006677 0.031435 
-0.021438 -0.013685 0.017644 
-0.025922 0.008234 0.025900 
-0.002515 0.005030 0.001000 
-0.027000 0.002599 0.008625 
-0.001365 0.013376 0.001000 
0.025877 -0.000369 0.031453 
-0.012664 0.020771 0.036624 
-0.007852 0.026000 0.022676 
0.017365 -0.019964 0.000000 
-0.025377 0.009868 0.046216 
0.022687 0.009940 0.002519 
0.025224 0.002328 0.010441 
-0.008823 0.023430 0.045218 
0.026848 0.000000 0.016860 
0.009600 0.025467 0.025700 
-0.009388 -0.025537 0.021852 
0.021212 -0.015212 0.025305 
-0.025224 0.003898 0.000000 
0.018887 0.016463 0.036976 
-0.024097 -0.005709 0.038909 
-0.019851 0.004525 0.000000 
-0.010030 -0.022595 0.039474 
-0.020914 -0.017086 0.027706 
-0.010634 -0.022177 0.040319 
-0.016297 0.018256 0.031285 
-0.014249 0.022584 0.022431 
0.005422 -0.026193 0.026986 
-0.015709 0.018663 0.007243 
0.014585 0.022472 0.013934 
-0.012680 -0.023320 0.002118 
0.015309 -0.018940 0.016869 
0.023624 0.013042 0.041984 
-0.017459 0.020541 0.047816 
0.021841 -0.015841 0.011203 
0.021202 0.015202 0.000539 
0.026000 -0.007516 0.005669 
-0.000079 -0.027000 0.019729 
-0.001694 -0.024863 0.001000 
-0.023305 0.008084 0.036300 
-0.002143 0.024522 0.000000 
-0.025696 0.000912 0.012414 
0.000531 0.009212 0.000000 
0.021499 0.012366 0.000000 
0.017334 -0.007869 0.000000 
0.012013 0.004898 0.000000 
0.023395 0.007815 0.020094 
-0.000530 0.014439 0.000000 
-0.002814 0.024000 0.029900 
0.027000 -0.002374 0.044385 
-0.004486 0.024000 0.043391 
-0.022026 -0.015923 0.018422 
-0.019388 0.002509 0.001000 
-0.003448 0.016869 0.001000 
0.022404 -0.014788 0.009263 
-0.011413 -0.003568 0.000000 
-0.017760 -0.003307 0.001000 
0.025970 0.008089 0.010069 
-0.002946 -0.024000 0.043181 
0.008364 0.025879 0.012362 
0.000189 -0.027000 0.018693 
-0.007620 -0.011564 0.000000 
-0.000555 0.010143 0.001000 
0.027000 -0.001049 0.036887 
0.023099 -0.008704 0.036515 
-0.004953 -0.005662 0.000000 
0.015014 -0.019144 0.001476 
-0.008570 0.025810 0.040074 
-0.005464 -0.024000 0.023662 
-0.018627 -0.019373 0.027507 
0.026000 -0.007740 0.011031 
0.008330 0.023771 0.021149 
-0.021596 -0.004800 0.001000 
0.007727 -0.003082 0.001000 
0.025237 -0.002288 0.013051 
0.026100 0.000000 0.043203 
0.026166 0.000000 0.001408 
0.016968 0.018700 0.001000 
-0.024582 -0.004254 0.044914 
0.024227 0.005318 0.026374 
0.009456 0.025515 0.003770 
-0.005774 0.005066 0.001000 
-0.003371 -0.026876 0.026672 
0.021578 0.013265 0.023230 
0.012563 -0.006527 0.001000 
-0.025676 -0.008971 0.019387 
0.004157 0.024000 0.046159 
0.003197 -0.024000 0.008310 
0.021821 0.016179 0.014347 
-0.013126 -0.013428 0.000000 
0.011568 -0.000116 0.000000 
-0.022934 -0.009199 0.032751 
-0.024546 0.004363 0.037121 
-0.020393 0.015420 0.040693 
-0.017268 0.020732 0.012212 
-0.020937 0.008092 0.000000 
-0.004500 -0.026500 0.031651 
-0.016568 -0.021432 0.017103 
-0.007854 -0.024000 0.005111 
-0.013055 -0.020500 0.021143 
0.021876 0.015876 0.002581 
-0.005836 -0.001446 0.000000 
0.026000 -0.007183 0.028662 
-0.010467 0.025178 0.019776 
0.010244 0.025252 0.014919 
0.001734 0.024000 0.042503 
0.005572 0.024000 0.012852 
0.021963 0.015963 0.037652 
-0.007890 0.024000 0.003719 
0.016727 0.021273 0.029848 
0.021802 -0.015802 0.010749 
0.022710 0.009869 0.018915 
-0.007678 0.024000 0.002119 
0.020012 0.002113 0.001000 
0.026000 0.007309 0.031531 
0.020726 -0.015190 0.010024 
-0.013962 0.020657 0.048000 
-0.010345 -0.014227 0.001000 
0.007483 -0.026000 0.035449 
-0.013301 0.022900 0.006202 
-0.024703 -0.003892 0.013648 
-0.013495 0.023141 0.042719 
-0.008017 0.023988 0.039112 
0.011053 0.021887 0.002132 
0.022074 -0.011777 0.043861 
0.025310 -0.002070 0.027069 
0.010591 -0.006648 0.000000 
-0.015598 -0.013976 0.001000 
-0.005524 0.005657 0.000000 
0.004349 0.024000 0.036158 
-0.021063 0.015063 0.013745 
-0.026698 -0.000000 0.022855 
-0.021402 -0.011464 0.000000 
0.020185 0.015564 0.013961 
0.025099 -0.002704 0.006648 
-0.008000 0.025931 0.013485 
-0.020437 0.017563 0.022089 
0.008000 -0.025106 0.012963 
-0.009280 -0.025573 0.037145 
0.020222 -0.017778 0.011112 
0.010492 0.022275 0.037731 
-0.024846 -0.010430 0.000000 
-0.025387 0.001838 0.040973 
-0.025161 -0.010518 0.003285 
0.010968 -0.004180 0.000000 
0.022861 -0.009417 0.043413 
-0.008000 0.024163 0.006902 
-0.022833 0.013502 0.046255 
0.026000 0.006426 0.005104 
-0.007978 0.026000 0.020004 
-0.020674 0.013970 0.000000 
-0.015728 0.012989 0.000000 
0.024901 -0.009014 0.000000 
0.016864 0.021136 0.013138 
0.017558 -0.020442 0.035462 
0.012594 0.023406 0.023650 
-0.022431 0.014706 0.005461 
0.005165 0.024000 0.015818 
0.026481 -0.004556 0.036340 
-0.022261 -0.011216 0.028695 
-0.025241 -0.002278 0.014643 
0.016821 0.017893 0.041263 
-0.013093 0.013682 0.001000 
0.022652 -0.010043 0.027678 
0.008000 -0.024231 0.014713 
-0.000098 0.024000 0.008046 
-0.007715 0.024000 0.010440 
0.019584 -0.018416 0.027676 
-0.024223 -0.005332 0.038121 
0.002746 -0.024000 0.036953 
0.008000 -0.024053 0.012232 
0.004681 -0.024000 0.026965 
-0.007595 0.024000 0.045414 
-0.027000 0.002820 0.034552 
0.026000 0.007758 0.002120 
0.020860 0.011342 0.000000 
0.015386 -0.022205 0.001811 
-0.026810 -0.003571 0.013016 
-0.022695 0.009916 0.012200 
0.026000 0.007845 0.036980 
0.004111 -0.022784 0.000000 
0.019251 -0.016211 0.024547 
-0.001756 -0.027000 0.020895 
0.025972 0.000084 0.015189 
-0.015579 0.022140 0.036160 
0.025716 0.000851 0.033003 
-0.000530 -0.025652 0.000000 
0.020785 -0.015149 0.020100 
-0.020274 0.015503 0.004220 
-0.024697 0.003910 0.013475 
0.001478 0.024684 0.000000 
-0.003340 -0.026887 0.020493 
0.021532 -0.013403 0.029320 
-0.007974 -0.019577 0.000000 
0.018570 0.014603 0.001000 
0.008421 0.025860 0.007327 
0.022590 -0.010231 0.000552 
0.018236 -0.019764 0.039542 
0.008881 0.023997 0.000000 
-0.023239 -0.008283 0.017318 
0.022419 0.014743 0.033033 
0.016242 -0.021758 0.017193 
-0.022751 -0.009747 0.036081 
0.006569 0.026000 0.000984 
-0.010000 -0.019373 0.000000 
-0.007371 0.001922 0.001000 
-0.003976 -0.024000 0.022387 
0.023913 0.012631 0.046433 
0.017280 -0.020720 0.043724 
-0.026065 -0.005806 0.006387 
-0.023192 0.008425 0.029480 
0.026581 -0.004257 0.035308 
0.025940 -0.008181 0.029474 
-0.025793 -0.008621 0.015733 
-0.015870 0.022043 0.002622 
0.008000 0.025085 0.020551 
0.022945 0.013164 0.019839 
0.009619 -0.022879 0.039135 
-0.014265 0.019663 0.004944 
0.013080 -0.013277 0.001000 
-0.007983 0.024000 0.036842 
-0.008000 0.024533 0.016636 
-0.006308 -0.026000 0.013622 
0.027000 0.001397 0.019883 
0.002636 0.027000 0.025460 
-0.023534 0.007397 0.032525 
0.021618 -0.013145 0.043057 
-0.021428 -0.013717 0.007888 
0.023983 0.012017 0.016345 
0.001069 -0.027000 0.035183 
-0.008000 -0.024398 0.000072 
0.008259 -0.023821 0.045439 
0.006891 -0.008485 0.000000 
-0.025964 -0.000108 0.000110 
-0.027000 -0.001080 0.000848 
-0.000004 0.019882 0.000000 
-0.003836 -0.026721 0.011523 
0.009309 0.025564 0.009238 
0.021336 0.013993 0.010897 
-0.022731 0.013806 0.019671 
0.025584 -0.009249 0.014693 
0.007105 -0.026000 0.017704 
-0.014271 -0.021845 0.001000 
-0.025109 -0.010674 0.041194 
-0.026538 0.004385 0.003646 
-0.022295 0.015114 0.004819 
0.024276 -0.011724 0.020161 
0.022716 0.009549 0.001000 
0.021239 -0.016761 0.014443 
0.019954 -0.000246 0.001000 
0.011344 -0.021685 0.004778 
0.024736 0.011264 0.012514 
0.025107 -0.010678 0.041521 
0.008273 -0.025909 0.031993 
-0.021517 -0.013448 0.020963 
-0.011339 -0.024661 0.011455 
-0.025175 0.008394 0.000000 
0.008000 -0.025723 0.025524 
0.004564 0.001567 0.001000 
0.001117 -0.024000 0.047539 
-0.019698 -0.002286 0.001000 
-0.021457 -0.015457 0.032472 
-0.007378 -0.011892 0.000000 
-0.008143 0.014658 0.000000 
0.025155 -0.002536 0.022268 
0.016179 -0.012740 0.001000 
0.025405 -0.003096 0.001000 
-0.007059 -0.008388 0.000000 
-0.021000 0.014999 0.031753 
0.002842 -0.024000 0.047886 
-0.006406 0.026000 0.004736 
-0.025144 -0.002567 0.030682 
0.004677 -0.026441 0.008723 
-0.027000 0.001809 0.018021 
-0.013096 -0.020472 0.006060 
-0.006331 -0.026000 0.013793 
-0.021308 -0.015308 0.019238 
-0.007035 0.012987 0.000000 
-0.012596 0.020818 0.035336 
-0.002889 -0.024000 0.042453 
-0.021687 -0.015687 0.026185 
0.025156 -0.010075 0.048000 
-0.015851 -0.022050 0.047255 
-0.023560 0.007320 0.042566 
0.001981 0.027000 0.042890 
-0.015116 0.019074 0.002664 
-0.011873 0.024127 0.039201 
-0.010996 -0.003145 0.000000 
0.002039 -0.027000 0.043702 
-0.003176 0.007229 0.000000 
0.009915 -0.025362 0.012404 
0.008000 -0.025562 0.019152 
-0.021958 -0.015958 0.019056 
0.023993 0.006021 0.018947 
-0.023958 0.012042 0.008702 
-0.025419 0.009744 0.031374 
0.021611 0.013166 0.036707 
-0.008275 0.025867 0.048000 
0.021573 0.015573 0.024753 
-0.009743 -0.025419 0.033133 
0.017304 0.005252 0.001000 
-0.008000 0.025702 0.008840 
-0.002422 -0.011507 0.000000 
0.024618 -0.004146 0.013111 
0.014434 0.019757 0.001000 
0.020324 -0.015468 0.013568 
-0.027000 0.002550 0.022422 
-0.009390 0.011223 0.001000 
-0.022460 -0.011467 0.000000 
0.025391 0.001827 0.031016 
-0.005080 -0.026307 0.045294 
-0.022816 -0.014292 0.046653 
0.019362 0.016134 0.036813 
0.009102 0.025633 0.011311 
-0.026899 0.003303 0.010504 
-0.023841 0.006477 0.022687 
0.008000 -0.025842 0.002377 
0.024157 0.011843 0.010052 
0.017966 -0.017100 0.004528 
-0.017095 0.020905 0.025272 
0.011769 0.021391 0.036678 
0.014624 0.022459 0.046574 
0.010396 -0.022341 0.030996 
0.000889 0.024000 0.018206 
0.004521 0.026493 0.010774 
-0.003330 -0.003312 0.001000 
-0.025366 -0.001903 0.021979 
0.001327 -0.025653 0.001000 
-0.018267 0.019733 0.032600 
-0.019912 -0.015753 0.017295 
-0.023954 0.006139 0.027175 
0.021774 0.015774 0.002082 
-0.021139 0.015139 0.041014 
-0.003873 -0.026709 0.031806 
-0.010139 0.022519 0.014708 
0.026000 -0.007507 0.005040 
-0.007909 0.026000 0.043745 
-0.008521 -0.025826 0.025021 
0.010544 0.025152 0.028730 
-0.011687 0.015937 0.000000 
0.000830 0.027000 0.001380 
-0.006808 -0.024000 0.024211 
-0.027000 0.000879 0.033521 
0.011808 -0.024192 0.024694 
0.007003 -0.009400 0.000000 
-0.006356 0.024000 0.013573 
-0.024757 -0.011243 0.025792 
0.003038 0.020354 0.000000 
0.012585 0.020826 0.035358 
0.012365 0.020978 0.030003 
0.015956 -0.018492 0.020611 
0.025207 0.002378 0.012729 
0.007602 0.024000 0.004742 
0.014719 -0.019348 0.044443 
0.021455 -0.016545 0.030646 
0.005905 -0.024000 0.018036 
-0.021712 -0.012863 0.038665 
0.001451 -0.027000 0.044670 
-0.005663 -0.026112 0.000464 
0.008598 -0.023586 0.001002 
-0.019813 -0.015822 0.043248 
-0.022935 0.009194 0.013276 
-0.019353 0.015788 0.001000 
0.026000 0.007975 0.037050 
0.002247 0.027000 0.036263 
-0.001462 -0.020849 0.000000 
0.022302 0.015093 0.000913 
-0.002953 -0.027000 0.041492 
-0.007130 -0.024000 0.045124 
-0.021119 0.014643 0.040687 
-0.025229 -0.010314 0.030236 
0.022987 0.012468 0.001000 
-0.019911 -0.018089 0.012746 
0.006891 -0.026000 0.016405 
-0.024611 0.004167 0.032290 
-0.008000 -0.025276 0.046399 
0.027000 0.002645 0.011641 
0.024885 0.011172 0.032188 
0.026000 -0.007062 0.045203 
-0.004825 0.024079 0.000000 
0.000074 0.027000 0.030772 
0.022812 -0.009565 0.006908 
0.022928 0.013215 0.019563 
-0.003893 0.024956 0.048000 
0.008355 0.023754 0.024539 
-0.005673 -0.008320 0.000000 
0.007965 -0.026000 0.020561 
0.027000 -0.002591 0.006504 
-0.025926 0.000221 0.009588 
0.023574 0.007279 0.027280 
0.004223 0.026592 0.029843 
0.024132 0.004512 0.001000 
0.021069 0.014793 0.038229 
0.022642 0.014075 0.021562 
-0.013291 -0.020337 0.024688 
-0.008360 -0.020668 0.000000 
-0.014301 0.019638 0.001172 
0.026048 -0.005856 0.032898 
-0.021644 0.013069 0.034874 
0.002914 0.025301 0.000000 
-0.025760 -0.000719 0.006420 
-0.012666 -0.020770 0.045391 
0.012025 0.003528 0.001000 
-0.026000 -0.006942 0.000209 
0.025058 -0.002827 0.035323 
0.004771 -0.026410 0.004863 
0.003511 0.026830 0.030667 
-0.021406 -0.015406 0.023181 
0.018458 0.019542 0.001862 
-0.019144 0.011877 0.000000 
0.014979 -0.022340 0.011699 
0.009979 -0.022630 0.013106 
0.025674 -0.000978 0.026912 
0.002987 0.027000 0.037012 
0.021191 0.015191 0.016807 
0.019885 -0.018115 0.013028 
-0.025453 0.009640 0.021725 
-0.023467 0.012533 0.008451 
-0.019476 0.016055 0.002854 
-0.026142 -0.000000 0.046599 
-0.021568 -0.013295 0.038269 
0.001960 0.024000 0.038118 
-0.009406 -0.024821 0.000000 
0.010068 0.024003 0.000000 
-0.011592 -0.021513 0.037750 
-0.027000 -0.000579 0.022053 
-0.015843 -0.018570 0.009949 
-0.019983 -0.010296 0.001000 
-0.015811 0.018592 0.030425 
0.019890 0.018110 0.025553 
-0.022914 -0.013258 0.004352 
-0.017573 0.017372 0.000038 
0.024019 0.005944 0.035300 
0.000912 -0.021218 0.000000 
-0.020886 -0.017114 0.012572 
0.011775 -0.024225 0.036132 
0.022228 -0.015317 0.019190 
-0.008274 0.025243 0.048000 
0.008186 0.023209 0.001000 
-0.017070 0.020930 0.004125 
0.022365 0.010906 0.007367 
-0.003929 -0.024599 0.048000 
0.005374 0.017579 0.000000 
-0.010242 -0.013193 0.001000 
0.021536 0.016464 0.017491 
-0.023620 -0.007141 0.009263 
-0.020793 0.017207 0.046962 
0.013539 -0.022820 0.030451 
0.000287 -0.019331 0.000000 
0.007674 -0.009703 0.000000 
0.008000 -0.025807 0.001949 
-0.003111 -0.024000 0.007351 
0.020163 -0.015579 0.009950 
0.019670 0.018330 0.047231 
0.011510 -0.024490 0.016527 
-0.022216 0.011351 0.000995 
-0.022025 -0.015924 0.009534 
-0.004095 -0.017991 0.001000 
-0.023423 -0.012577 0.028464 
-0.000946 0.027000 0.032166 
0.020731 0.017269 0.017247 
0.008000 -0.025076 0.020548 
0.012676 -0.020763 0.035099 
0.009331 -0.025556 0.002456 
-0.023750 -0.006749 0.007971 
0.011757 -0.006918 0.000000 
-0.023441 0.007678 0.035221 
0.023065 -0.008804 0.005107 
0.025833 0.008500 0.043422 
0.022921 0.013237 0.020350 
-0.007871 -0.026000 0.028076 
-0.023869 -0.012696 0.047608 
-0.008000 0.024792 0.030916 
-0.001568 -0.024000 0.041672 
-0.021968 0.015968 0.006284 
0.018446 0.011043 0.001000 
-0.015134 0.002710 0.001000 
0.002699 0.024000 0.023828 
-0.013211 -0.009989 0.000000 
0.000354 -0.024000 0.025527 
0.021211 0.014368 0.037243 
-0.004732 0.016867 0.000000 
-0.014085 0.022738 0.040095 
-0.008366 -0.023747 0.016633 
-0.015035 0.022322 0.004196 
0.011422 0.021631 0.000272 
0.007656 0.025577 0.000000 
-0.007470 0.024000 0.027268 
0.017810 0.004913 0.001000 
0.024791 0.006584 0.048000 
-0.018669 0.019331 0.036315 
-0.013228 0.020380 0.041799 
-0.008000 0.024556 0.000260 
0.022873 0.008366 0.000000 
-0.001766 -0.024000 0.040454 
-0.024433 -0.004700 0.019282 
0.025847 0.008458 0.037862 
0.023933 -0.006200 0.041901 
-0.026637 0.004088 0.025149 
0.023029 -0.012971 0.019844 
0.018180 0.019820 0.009133 
-0.014483 -0.022506 0.026988 
-0.010414 -0.025195 0.017692 
0.011420 0.021632 0.021686 
0.026221 -0.005336 0.037365 
0.024270 0.011901 0.033078 
-0.003019 0.023701 0.001000 
0.023744 0.010173 0.048000 
-0.026338 0.004985 0.035209 
0.024241 -0.011759 0.046645 
0.025455 0.009634 0.033796 
0.021038 0.014886 0.000506 
-0.008000 -0.024463 0.029141 
-0.006619 -0.010851 0.001000 
-0.003176 -0.024000 0.032450 
0.010208 0.024090 0.048000 
0.001019 -0.027000 0.042026 
0.000608 -0.024000 0.036538 
-0.025149 -0.006419 0.048000 
0.027000 0.002539 0.041675 
-0.008000 -0.025612 0.032303 
0.011088 0.023537 0.000000 
0.001449 0.027000 0.040375 
-0.008264 -0.023817 0.030974 
-0.017194 -0.020806 0.025711 
0.013838 -0.002917 0.001000 
-0.015873 0.022042 0.000735 
-0.015913 -0.018743 0.000000 
0.005637 -0.026121 0.026809 
0.022078 0.012789 0.000000 
0.007538 -0.024000 0.016578 
0.011622 -0.024378 0.026776 
-0.019300 0.018700 0.031047 
-0.021608 -0.004792 0.001000 
0.025370 0.001890 0.020373 
-0.024758 -0.003725 0.036954 
0.006564 0.001034 0.001000 
0.016275 0.021725 0.028590 
0.024519 -0.011481 0.032649 
0.016207 -0.021793 0.004554 
0.001241 -0.019891 0.001000 
0.008814 -0.023436 0.030339 
0.011999 -0.021231 0.020234 
0.017863 0.020137 0.009675 
-0.000048 -0.001118 0.000000 
-0.001379 0.024092 0.000000 
-0.022000 -0.015999 0.000004 
-0.020830 0.017170 0.042122 
-0.025746 -0.008762 0.000627 
0.006445 -0.004660 0.000000 
0.020919 -0.017081 0.009766 
-0.019342 0.016366 0.000000 
0.012611 0.023389 0.023875 
-0.022908 0.009277 0.035622 
-0.024008 -0.005975 0.017758 
-0.007471 0.000375 0.000000 
-0.008000 -0.025752 0.018041 
0.003319 -0.024000 0.029870 
-0.027000 0.000667 0.011219 
0.002523 -0.014740 0.001000 
0.005130 -0.003595 0.000000 
-0.013517 -0.022828 0.044141 
0.023343 0.007971 0.006489 
-0.024512 -0.011488 0.023325 
0.025563 -0.009311 0.006400 
0.027000 -0.002017 0.031758 
0.027000 -0.000825 0.013459 
0.023130 0.008609 0.006299 
0.001984 -0.018072 0.001000 
-0.021999 0.015999 0.009778 
-0.012729 0.022628 0.000000 
0.022682 0.009954 0.022036 
0.020104 -0.015620 0.033457 
-0.017381 -0.004602 0.001000 
0.010642 -0.005465 0.001000 
-0.011063 -0.007457 0.000000 
-0.021582 -0.009727 0.000000 
-0.002593 -0.027000 0.037089 
0.025548 -0.001357 0.026751 
-0.018590 0.016669 0.019699 
-0.015359 -0.022214 0.005935 
-0.024812 0.003564 0.005760 
0.004931 -0.024000 0.022809 
-0.001283 -0.027000 0.042748 
0.003311 0.024000 0.006924 
0.022414 -0.010759 0.006663 
0.025170 -0.002489 0.047218 
0.013036 0.012303 0.001000 
0.022606 0.014182 0.023695 
0.026000 0.006585 0.004586 
0.003132 -0.024000 0.014862 
-0.006491 -0.013636 0.000000 
-0.012823 0.023543 0.041467 
0.004135 0.026622 0.017477 
-0.013712 0.020310 0.048000 
0.014096 -0.019780 0.028006 
0.018162 -0.019838 0.026988 
0.025355 0.009936 0.000690 
-0.003770 0.026743 0.031336 
-0.027000 -0.002586 0.019782 
-0.017992 0.020008 0.029644 
-0.010175 0.022494 0.034297 
0.000730 -0.007322 0.001000 
-0.020447 -0.017553 0.006723 
0.023093 -0.012907 0.024276 
0.024805 -0.003584 0.043188 
-0.021682 0.015682 0.040817 
-0.024397 -0.004809 0.022942 
0.018901 0.016453 0.014475 
-0.018955 -0.019045 0.040032 
0.023558 0.007327 0.047867 
0.022303 -0.011090 0.006714 
-0.017635 -0.017329 0.008816 
-0.025411 -0.009768 0.046858 
-0.011169 0.024831 0.045350 
-0.022751 -0.013746 0.026421 
0.017114 0.020314 0.001000 
-0.025965 0.008104 0.008613 
0.010581 0.025140 0.015456 
0.015179 0.021054 0.000000 
-0.024874 0.003379 0.040844 
0.008348 -0.020272 0.001000 
-0.009711 0.023289 0.001000 
-0.023581 -0.007257 0.045378 
0.015101 0.019084 0.037526 
-0.005594 0.026135 0.020271 
-0.012763 -0.020703 0.040103 
0.007362 -0.024000 0.020621 
0.024071 0.005786 0.001456 
-0.018798 0.016524 0.028453 
-0.016894 0.021106 0.044716 
-0.013186 0.023176 0.038089 
-0.019113 -0.018887 0.024200 
-0.012555 -0.023445 0.036025 
0.012362 0.001370 0.000000 
0.002513 0.024000 0.035801 
-0.017904 0.017143 0.044127 
0.003119 0.024000 0.039919 
0.020465 -0.015370 0.043764 
-0.023869 0.010478 0.048000 
0.010838 0.009688 0.000000 
-0.004728 -0.026325 0.048000 
-0.021705 0.016295 0.011560 
0.020837 0.015113 0.017773 
0.008000 0.025539 0.044051 
-0.026000 0.007019 0.017392 
0.021250 -0.014250 0.038697 
0.025450 -0.009650 0.031337 
0.019340 -0.016149 0.028897 
0.018046 -0.019954 0.044858 
-0.025087 -0.002739 0.005299 
-0.004285 -0.026572 0.006435 
0.025958 0.000126 0.036846 
0.005782 -0.026073 0.019461 
0.022723 0.014500 0.047009 
-0.022119 -0.015642 0.041248 
-0.017465 0.020535 0.046557 
0.027000 0.001202 0.033028 
0.025160 -0.004778 0.048000 
0.023920 0.006239 0.024472 
0.020869 -0.015091 0.040524 
-0.019793 0.015835 0.036258 
-0.001978 0.013065 0.000000 
0.007027 0.026000 0.025956 
0.023770 -0.012230 0.000172 
-0.002713 -0.027000 0.004809 
-0.001770 -0.024000 0.019065 
0.027000 -0.002799 0.043356 
-0.008662 -0.023541 0.035440 
-0.025824 -0.004227 0.000000 
0.016447 0.018247 0.048000 
0.020116 -0.015612 0.023185 
0.009179 -0.025607 0.041392 
0.027000 -0.000069 0.023464 
-0.010853 0.025049 0.004963 
0.025159 0.002522 0.027842 
-0.013544 -0.020162 0.017971 
-0.005944 0.024000 0.006707 
0.024577 -0.004269 0.036083 
-0.018275 -0.007697 0.000000 
0.027000 -0.000620 0.014139 
0.018704 0.019296 0.003773 
0.019094 0.016319 0.025224 
-0.016693 -0.019952 0.048000 
0.025000 -0.003000 0.005877 
-0.014489 -0.019508 0.030834 
0.026725 -0.003826 0.011862 
0.026107 0.005279 0.000000 
0.004959 0.026347 0.028804 
-0.004885 -0.024000 0.033092 
-0.020457 -0.015376 0.046931 
0.014687 0.017591 0.001000 
-0.017472 0.009674 0.000000 
0.017847 0.020153 0.038839 
0.024642 -0.004073 0.009488 
0.009845 -0.025385 0.047454 
0.010123 -0.025292 0.020257 
-0.021140 0.015140 0.006929 
0.003926 0.011729 0.001000 
0.009004 -0.011532 0.001000 
0.022658 0.014025 0.027024 
-0.008000 -0.024567 0.037796 
-0.015819 0.022060 0.021210 
-0.026000 -0.007355 0.036947 
0.012067 0.012200 0.001000 
0.021559 -0.013322 0.017703 
0.015965 0.016687 0.001000 
0.008000 0.024142 0.023712 
0.013536 0.022821 0.035987 
0.004451 0.026516 0.007423 
0.020791 -0.015145 0.014933 
-0.012131 -0.023869 0.039930 
-0.018331 0.019669 0.010794 
0.015899 0.022034 0.014386 
-0.022992 -0.009023 0.015789 
-0.016688 -0.017985 0.041071 
-0.003904 0.026699 0.029139 
-0.013676 0.020070 0.013094 
-0.009853 0.022717 0.018137 
-0.003187 -0.024000 0.044799 
0.005039 -0.001384 0.000000 
-0.014738 0.007968 0.000000 
-0.013370 0.023324 0.045422 
-0.001429 -0.024000 0.016623 
0.022643 -0.010070 0.034616 
0.023694 0.006918 0.033402 
0.005210 -0.026263 0.046559 
-0.010808 0.025064 0.047805 
-0.017069 0.017721 0.025105 
-0.025485 0.009545 0.047431 
-0.020879 -0.017121 0.037739 
0.001524 0.027000 0.020101 
0.018106 0.017004 0.029870 
-0.026774 -0.000000 0.043008 
-0.011789 -0.012071 0.000000 
-0.013333 -0.001759 0.001000 
0.027000 -0.002344 0.028394 
0.004480 -0.024000 0.020003 
0.007123 0.026000 0.006706 
-0.008152 0.005593 0.000000 
-0.018324 0.019676 0.001288 
-0.018688 -0.019312 0.035817 
0.025363 0.001912 0.028871 
0.026000 0.006033 0.025621 
0.026615 -0.004154 0.026613 
-0.000152 -0.027000 0.030414 
0.011118 0.021841 0.023963 
-0.019521 0.000604 0.001000 
0.024241 0.005276 0.044297 
0.021308 -0.016692 0.019333 
0.021144 0.014623 0.048000 
-0.019960 0.015720 0.036183 
-0.027000 -0.000182 0.016508 
0.015763 0.018626 0.031803 
0.023051 -0.005378 0.000000 
0.002849 -0.024000 0.005598 
0.000044 0.024000 0.041494 
-0.020082 0.010796 0.000000 
-0.016196 -0.020044 0.000000 
-0.015527 0.011535 0.000000 
-0.022175 -0.015474 0.035913 
0.015886 -0.022038 0.003725 
-0.010722 -0.022445 0.048000 
0.024417 -0.011223 0.000000 
-0.025236 -0.002291 0.047368 
-0.018833 0.016500 0.029620 
-0.006648 0.024000 0.002457 
-0.016427 -0.018166 0.044853 
0.014066 0.022645 0.008345 
0.027000 -0.000562 0.024201 
-0.023359 0.012641 0.002186 
0.008000 -0.025889 0.033145 
-0.027000 -0.000099 0.033077 
-0.012742 0.006807 0.001000 
0.021083 -0.014750 0.037582 
-0.022904 0.009287 0.046982 
0.004998 -0.009312 0.001000 
-0.008201 0.025933 0.037277 
0.005485 -0.025848 0.048000 
0.019910 -0.018090 0.040477 
-0.022379 0.014863 0.016067 
-0.010024 -0.000453 0.001000 
0.026370 0.004890 0.036125 
0.020572 -0.017428 0.022028 
0.018598 -0.019402 0.031354 
0.020036 0.015667 0.007219 
-0.015554 0.003129 0.001000 
-0.025062 -0.002813 0.043975 
-0.005613 -0.024002 0.000000 
0.017665 -0.017309 0.038916 
0.026000 -0.007299 0.041733 
0.013051 0.022983 0.047236 
0.013399 -0.021090 0.001000 
-0.002592 0.027000 0.008241 
-0.020277 -0.017723 0.007901 
0.019689 -0.018311 0.003841 
-0.008780 -0.014713 0.001000 
0.016156 -0.000517 0.000000 
0.015560 0.018766 0.028559 
-0.010456 0.025181 0.029201 
-0.001356 0.027000 0.004713 
-0.002075 0.024000 0.022338 
-0.027000 -0.000612 0.006580 
-0.021867 0.012398 0.002520 
0.027000 0.002107 0.008705 
0.026000 -0.007847 0.010207 
0.008544 0.023624 0.044241 
0.007136 -0.026000 0.021331 
-0.027000 0.001728 0.040675 
0.002523 0.003625 0.000000 
0.006524 -0.026000 0.029384 
-0.015544 -0.018777 0.005789 
0.025248 0.010255 0.027024 
-0.021676 0.012973 0.021393 
0.001102 0.026782 0.048000 
0.003640 0.025515 0.048000 
0.020895 0.008090 0.000000 
-0.015938 0.000477 0.000000 
0.027000 0.001342 0.005984 
-0.002210 -0.024334 0.000000 
0.020173 0.017827 0.038177 
0.010942 -0.025019 0.022677 
0.002307 0.024000 0.009969 
-0.006371 0.011394 0.000000 
0.024381 -0.011619 0.035106 
-0.016017 0.006942 0.000000 
-0.001104 0.024000 0.007395 
0.011820 -0.021356 0.015981 
-0.007914 0.026000 0.014325 
-0.027000 -0.000252 0.026445 
0.017866 0.017170 0.020641 
0.014368 0.022544 0.016939 
0.021350 -0.015762 0.048000 
0.025241 0.006540 0.001000 
-0.021310 0.014071 0.001522 
-0.003506 -0.002239 0.001000 
-0.014198 0.022601 0.012592 
-0.000451 0.001684 0.000000 
-0.009657 0.022853 0.036295 
0.022685 0.013944 0.029051 
0.015731 0.022090 0.030848 
-0.017814 -0.020186 0.006210 
-0.027000 -0.001206 0.017787 
0.006760 0.026000 0.002213 
-0.005453 0.016365 0.001000 
0.011818 0.024182 0.030269 
0.013964 0.017017 0.000000 
0.025394 -0.001818 0.012435 
0.019607 0.018393 0.026655 
0.016512 0.021488 0.046560 
-0.017313 -0.017552 0.016815 
0.021203 0.014390 0.002119 
-0.014669 0.022444 0.006575 
0.012871 -0.020628 0.019830 
-0.017048 -0.017736 0.045942 
0.021076 0.014771 0.011620 
0.024094 0.011906 0.019015 
0.019765 0.010862 0.001000 
0.023208 0.013408 0.041085 
0.006020 0.026000 0.043885 
-0.004249 0.024000 0.010590 
0.009333 0.023077 0.045114 
-0.025898 0.000306 0.021039 
0.015497 0.018809 0.017264 
0.025776 -0.000673 0.003741 
0.017532 -0.020468 0.033404 
-0.008000 -0.025290 0.030151 
0.021306 -0.014083 0.011123 
0.004466 0.024000 0.026436 
-0.008000 0.024676 0.041809 
-0.019703 0.012568 0.001000 
-0.008446 0.024984 0.000000 
0.027000 0.000193 0.038280 
0.022449 -0.010652 0.013008 
-0.016446 -0.018153 0.016746 
-0.014903 -0.018859 0.000000 
0.000703 -0.027000 0.045765 
0.021295 -0.016705 0.043835 
0.000013 0.024000 0.010178 
-0.021478 0.013565 0.019896 
0.009080 -0.023252 0.019819 
0.012137 -0.024224 0.047510 
0.021865 -0.015865 0.016656 
0.007005 0.024000 0.020429 
-0.011623 -0.024377 0.044796 
-0.012884 -0.023116 0.012083 
-0.012637 0.020790 0.043802 
-0.008304 -0.023790 0.032372 
0.005770 0.024000 0.000731 
0.008000 -0.024515 0.015727 
0.006956 -0.025803 0.001000 
0.022642 0.010073 0.047025 
0.023957 0.002218 0.000000 
0.005764 -0.026079 0.004988 
-0.026000 0.006603 0.039621 
0.008000 0.024527 0.038015 
0.012335 0.023665 0.045578 
-0.011814 0.021360 0.038096 
0.019196 -0.018804 0.037764 
-0.026124 0.005628 0.009136 
-0.009868 0.002085 0.001000 
0.000501 -0.010365 0.001000 
-0.004687 0.026325 0.000000 
0.000996 -0.002385 0.000000 
0.003457 0.023630 0.000000 
-0.001642 0.001964 0.000000 
0.022851 -0.009448 0.016072 
0.011717 -0.021427 0.013341 
-0.005560 0.026147 0.013172 
0.012511 0.022852 0.048000 
-0.025730 0.000810 0.007147 
0.013393 0.022869 0.034804 
-0.026000 -0.007690 0.010576 
-0.021002 -0.015002 0.032151 
-0.002348 0.017527 0.000000 
0.018437 -0.016774 0.046723 
0.015086 -0.022305 0.038327 
-0.015059 0.020450 0.048000 
-0.025529 -0.001414 0.046192 
-0.008569 -0.023606 0.020177 
-0.022075 0.015775 0.038291 
0.019657 -0.018343 0.025386 
-0.024642 -0.001707 0.001000 
-0.001445 0.016736 0.000000 
-0.019574 -0.014578 0.001000 
-0.025799 -0.005616 0.000000 
0.014463 0.019525 0.031138 
-0.010147 0.022513 0.029635 
0.022662 -0.010014 0.044421 
-0.013254 0.020363 0.006501 
0.010597 0.022202 0.006613 
0.006459 0.024649 0.000000 
0.022348 0.014957 0.038925 
0.021868 -0.013932 0.000000 
-0.015880 -0.022040 0.034074 
-0.027000 0.002090 0.004497 
-0.025304 0.002087 0.026111 
-0.016794 0.017912 0.010455 
0.022182 -0.011453 0.037674 
0.017627 -0.003694 0.000000 
0.025579 0.009264 0.001552 
0.022869 0.013393 0.011319 
-0.008000 0.025117 0.007448 
-0.003358 -0.024000 0.010212 
0.026000 0.007346 0.045591 
-0.020702 0.017298 0.029282 
0.008820 0.013250 0.000000 
-0.022734 0.009799 0.016411 
-0.022663 -0.014012 0.005838 
0.008000 0.024289 0.017763 
0.026678 -0.000000 0.001167 
-0.022408 -0.010776 0.045271 
-0.008000 0.025061 0.028453 
-0.003288 0.026904 0.006797 
-0.022271 -0.015186 0.003698 
0.017684 0.017296 0.029369 
0.019217 -0.018783 0.021902 
-0.020892 0.005257 0.000000 
0.016021 0.018447 0.013493 
-0.013120 0.003970 0.001000 
-0.020479 -0.017521 0.032556 
0.014768 -0.014647 0.001000 
-0.016802 -0.021198 0.000867 
0.012804 -0.003277 0.000000 
0.015288 0.018955 0.014381 
0.021965 -0.012105 0.034343 
0.016024 0.018527 0.000000 
-0.020490 0.015353 0.011680 
-0.000671 0.020245 0.000000 
-0.005727 0.017654 0.000000 
0.022259 0.015223 0.015662 
0.008159 0.025947 0.031235 
0.000337 0.024557 0.000000 
0.012025 0.023975 0.034760 
-0.009935 0.022660 0.006487 
0.016265 -0.021735 0.046889 
0.021556 -0.013331 0.040337 
-0.003818 0.026727 0.044511 
0.002969 0.026994 0.000000 
-0.005552 -0.024000 0.044689 
-0.011690 0.010760 0.001000 
0.022387 0.010840 0.027604 
-0.016355 -0.021645 0.010862 
0.026000 -0.006816 0.045481 
-0.021045 -0.016955 0.037893 
0.000999 0.026804 0.001000 
0.027000 0.002856 0.017889 
-0.001559 -0.027000 0.041180 
0.024814 -0.011186 0.013114 
-0.003195 0.001411 0.000000 
-0.027000 -0.002975 0.047593 
0.023156 0.012112 0.000000 
-0.011080 0.021868 0.021587 
-0.025703 -0.002794 0.048000 
0.006189 -0.020253 0.001000 
-0.023729 -0.006814 0.038922 
-0.025212 -0.002364 0.046812 
0.009609 -0.002648 0.001000 
0.003493 -0.026836 0.000278 
-0.018341 -0.004231 0.001000 
-0.024794 0.011206 0.043065 
0.020873 -0.017127 0.017494 
-0.027000 0.001136 0.033217 
-0.018867 -0.016477 0.006932 
0.017297 -0.000673 0.001000 
-0.009965 0.006727 0.000000 
0.013532 -0.020170 0.044009 
-0.018159 -0.008234 0.001000 
-0.007213 -0.023528 0.000000 
-0.024567 0.004300 0.012454 
-0.001527 -0.024000 0.031818 
-0.000018 -0.024000 0.013714 
0.023927 -0.010909 0.000000 
-0.003443 -0.026852 0.010212 
0.008000 0.024809 0.008998 
0.026224 0.005328 0.016421 
0.016923 -0.021077 0.034010 
-0.000329 -0.026235 0.000000 
0.025991 0.008027 0.018208 
-0.005321 -0.024000 0.001765 
-0.004503 -0.024000 0.013579 
0.009264 -0.023125 0.039561 
-0.026909 -0.003273 0.005440 
-0.023967 0.008920 0.048000 
0.000518 0.000580 0.001000 
0.009225 -0.023152 0.015725 
0.006623 -0.024000 0.022960 
-0.025059 -0.002824 0.038904 
-0.024314 -0.005057 0.036206 
0.017775 -0.020225 0.018659 
0.021154 -0.014539 0.026374 
-0.014669 -0.016899 0.000000 
-0.021770 0.012689 0.002733 
-0.023878 0.012122 0.044528 
0.000204 0.021138 0.001000 
-0.019756 -0.015861 0.005075 
0.006439 0.003408 0.000000 
-0.021945 0.016055 0.007033 
-0.005926 -0.012306 0.000000 
-0.010504 -0.025165 0.033286 
0.011619 -0.021494 0.023573 
-0.002721 -0.027000 0.004476 
-0.027000 0.002310 0.042385 
-0.027000 -0.000251 0.011373 
-0.021176 -0.002185 0.001000 
-0.008000 0.025523 0.039053 
-0.020370 -0.015436 0.008520 
0.023252 0.008244 0.013546 
0.020123 0.017877 0.012577 
-0.004564 -0.024000 0.045956 
-0.015228 0.022257 0.042365 
0.002496 -0.026526 0.048000 
0.003052 -0.024000 0.030576 
-0.015985 0.018472 0.045008 
0.000631 0.024480 0.000000 
-0.018325 -0.016852 0.039770 
0.023627 0.007118 0.035675 
-0.027000 0.001638 0.003346 
0.001465 -0.027000 0.003473 
-0.026032 -0.000000 0.035426 
-0.011555 -0.018130 0.000000 
0.017570 -0.020430 0.022688 
0.012463 -0.023750 0.040573 
0.014885 0.019234 0.033299 
0.013821 0.022726 0.025729 
-0.026853 -0.000000 0.039277 
-0.019136 -0.018864 0.046509 
0.000064 -0.010874 0.001000 
0.002342 0.025270 0.001000 
-0.016815 0.021185 0.019253 
0.021825 0.012525 0.046015 
-0.024506 -0.011494 0.024328 
0.017792 -0.020208 0.018234 
0.018616 -0.016650 0.045050 
0.023138 -0.008587 0.046633 
-0.022955 0.009134 0.039528 
0.000239 -0.006455 0.001000 
0.006888 -0.024000 0.003470 
-0.018169 0.019831 0.045992 
-0.022888 0.009335 0.003790 
-0.010682 0.011324 0.001000 
0.003632 0.015188 0.001000 
-0.022052 -0.011844 0.032856 
-0.005468 0.026177 0.017080 
0.025435 -0.009695 0.021973 
0.018346 0.016819 0.000000 
-0.014818 -0.016729 0.000000 
-0.025811 0.008568 0.002640 
-0.022618 -0.010145 0.017089 
-0.001877 -0.025803 0.000000 
-0.021359 -0.015359 0.000458 
-0.026772 -0.003685 0.012026 
0.020972 0.017028 0.042026 
-0.018049 -0.017043 0.019912 
0.026972 -0.003085 0.037908 
-0.001301 -0.027000 0.018212 
0.015746 -0.022085 0.043023 
0.007972 -0.024000 0.002357 
0.018019 -0.017064 0.031249 
0.021517 0.000265 0.000000 
-0.002469 -0.016491 0.001000 
-0.006336 -0.008274 0.000000 
-0.010426 -0.022321 0.011382 
0.008000 -0.024399 0.014650 
-0.012344 -0.023137 0.001000 
0.025610 0.001170 0.036876 
0.009715 -0.022813 0.020298 
0.008694 0.023615 0.000000 
-0.000263 0.027000 0.041591 
0.024413 0.004761 0.045160 
0.023647 -0.012353 0.045361 
-0.021693 0.015693 0.013825 
-0.021185 -0.014445 0.036647 
0.007750 -0.026000 0.014929 
-0.013706 -0.020050 0.043998 
-0.022510 0.012013 0.001000 
-0.018871 -0.019129 0.022800 
-0.019305 -0.018695 0.009423 
0.014975 0.001515 0.001000 
-0.006961 -0.026000 0.025201 
0.014792 0.019298 0.046306 
0.001621 -0.009556 0.000000 
0.022923 -0.009232 0.008952 
0.025394 0.009819 0.042982 
0.022653 -0.014041 0.017231 
-0.005210 0.024000 0.044006 
-0.001612 0.024000 0.028335 
-0.017056 -0.017730 0.044147 
-0.013006 -0.015430 0.000000 
-0.017084 -0.017711 0.029811 
-0.020648 -0.017352 0.027500 
-0.026033 -0.000000 0.015686 
-0.026000 -0.007308 0.024474 
-0.021403 0.013791 0.007908 
-0.019865 -0.017172 0.000000 
-0.024741 -0.011259 0.008420 
-0.021209 -0.014373 0.036259 
-0.004483 -0.024000 0.007442 
0.007559 -0.006499 0.000000 
-0.012557 0.007868 0.001000 
0.000084 -0.027000 0.018010 
0.004265 0.024000 0.021446 
-0.015253 -0.022249 0.030554 
-0.016976 -0.017786 0.013654 
0.008000 -0.025657 0.043216 
-0.026714 0.003858 0.040458 
0.025218 -0.002347 0.022666 
0.018895 0.016463 0.000000 
-0.018889 0.016462 0.010999 
0.008000 -0.025156 0.033915 
-0.005107 0.023913 0.000000 
-0.024260 0.003095 0.001000 
-0.027000 -0.002501 0.003528 
-0.006441 -0.026000 0.004805 
0.024339 0.002157 0.001000 
0.008209 0.017158 0.001000 
-0.025878 -0.000366 0.034982 
-0.019234 -0.012674 0.000000 
0.017255 0.020745 0.031138 
-0.023209 -0.008372 0.019955 
-0.005125 0.021683 0.000000 
-0.025879 -0.008362 0.033176 
-0.019252 -0.018748 0.027642 
-0.026366 0.004902 0.023340 
-0.021128 -0.015128 0.027982 
-0.011214 -0.021775 0.005168 
0.026394 0.004817 0.000481 
0.022778 0.010277 0.001000 
0.023123 -0.012877 0.014272 
-0.017105 -0.020895 0.000494 
-0.012877 -0.020624 0.034538 
-0.019021 0.015947 0.001000 
0.003359 -0.024000 0.002785 
-0.018671 -0.002136 0.001000 
0.022247 0.015258 0.036477 
-0.015646 -0.008391 0.000000 
0.008774 -0.025742 0.015555 
0.018714 0.016583 0.003940 
0.020165 -0.017835 0.040928 
-0.024900 -0.011150 0.039229 
0.024066 0.005801 0.035407 
-0.024545 -0.011455 0.027180 
0.023854 0.006438 0.018100 
-0.013474 -0.022842 0.026218 
-0.027000 -0.002696 0.017543 
0.013236 -0.013204 0.001000 
0.018843 0.017204 0.001000 
-0.024882 0.003353 0.044612 
0.020637 -0.014895 0.001000 
0.026250 0.005251 0.015381 
0.002420 0.024000 0.031523 
0.013878 -0.019930 0.018334 
0.018602 0.019398 0.023451 
-0.009118 -0.025627 0.039864 
-0.003444 0.026852 0.010034 
0.004356 0.024000 0.044754 
0.023093 -0.012907 0.009820 
0.009403 -0.023029 0.014861 
0.025185 0.010444 0.006992 
0.015428 0.022191 0.038353 
0.000457 0.024000 0.044334 
-0.025260 0.002220 0.038940 
-0.010498 -0.022271 0.030189 
0.014583 -0.022472 0.005133 
0.024912 0.003263 0.041511 
-0.021242 0.015779 0.000000 
0.011683 -0.000972 0.000000 
-0.015367 0.018900 0.001745 
-0.026930 -0.003210 0.030100 
0.024991 -0.003027 0.039842 
0.009261 0.025580 0.033059 
-0.026460 -0.004621 0.001248 
-0.021886 0.015886 0.004525 
-0.008000 -0.024912 0.033926 
-0.021824 -0.010693 0.000000 
0.016532 -0.019342 0.000000 
0.018642 -0.008065 0.000000 
-0.010179 0.025274 0.022495 
-0.007068 -0.013383 0.000000 
-0.026794 -0.000000 0.016374 
-0.001574 0.024000 0.024965 
0.009762 0.022780 0.033232 
0.017302 -0.017560 0.003384 
-0.004234 -0.024000 0.008795 
-0.016325 0.021675 0.032636 
0.005760 0.024000 0.038655 
-0.024690 -0.003929 0.045373 
-0.008000 -0.024013 0.041014 
0.023780 -0.012220 0.004356 
0.008661 0.023542 0.019600 
0.027000 0.001451 0.001133 
-0.021039 0.016961 0.000926 
0.014849 0.022384 0.038024 
0.012894 -0.020612 0.003715 
0.016165 0.021409 0.001000 
0.012483 0.022133 0.048000 
0.019245 -0.007901 0.001000 
0.003431 0.008211 0.000000 
-0.022110 0.014645 0.001000 
0.008000 -0.025615 0.032216 
0.026764 0.003708 0.011642 
0.017753 -0.018928 0.000000 
0.021217 0.014348 0.032411 
0.004714 0.024000 0.009347 
-0.017329 -0.017541 0.045708 
0.018803 -0.019197 0.024437 
-0.004554 0.024000 0.024821 
0.022401 -0.010796 0.033787 
-0.001280 -0.027000 0.015321 
0.004268 -0.003089 0.001000 
0.027000 -0.000492 0.019967 
-0.024021 0.011979 0.019941 
-0.008000 0.024458 0.024482 
0.005709 0.024722 0.000000 
0.019753 -0.018247 0.020000 
0.000332 -0.024000 0.008301 
0.027000 0.001146 0.002182 
0.021518 0.016482 0.009409 
-0.009671 -0.024071 0.001000 
0.017251 0.017595 0.000483 
-0.004255 -0.026582 0.044123 
0.023188 0.008435 0.034758 
0.002858 0.024000 0.004052 
-0.007147 -0.026000 0.020425 
-0.010428 -0.025191 0.040291 
-0.025564 0.001309 0.006393 
-0.000713 -0.024000 0.000788 
0.005394 0.024000 0.016965 
0.023220 -0.008340 0.018663 
0.004555 0.002491 0.000000 
0.026308 -0.005078 0.024443 
-0.008916 -0.023366 0.010934 
0.000620 0.024000 0.045208 
-0.025052 0.010165 0.048000 
-0.026822 -0.003534 0.006670 
-0.022160 0.015521 0.006617 
0.023915 0.012085 0.015740 
0.015988 0.018470 0.005333 
0.000688 0.025297 0.048000 
-0.022858 0.013425 0.036864 
0.026781 0.003656 0.035298 
-0.018082 -0.019918 0.020247 
0.013848 -0.023011 0.045565 
-0.009878 0.022700 0.035449 
0.018437 0.005715 0.000000 
-0.014332 0.020106 0.000000 
-0.023616 -0.007153 0.003186 
-0.021066 -0.016934 0.032650 
0.009846 0.024103 0.048000 
0.013052 0.008247 0.000000 
0.013350 -0.020296 0.021072 
0.021084 0.015084 0.024549 
0.019005 0.016381 0.013470 
0.007509 -0.024000 0.013540 
-0.026388 0.004360 0.048000 
0.009492 0.025503 0.022891 
-0.008000 0.024277 0.015309 
0.012191 -0.004415 0.000000 
0.015198 -0.007886 0.001000 
0.008000 -0.024592 0.038073 
0.014350 -0.019604 0.013160 
0.022559 0.010323 0.001404 
0.001888 0.027000 0.012239 
-0.007434 0.006795 0.000000 
-0.021677 0.016323 0.036296 
0.019704 -0.018296 0.034978 
-0.024044 -0.005868 0.026762 
-0.007282 -0.026000 0.015714 
0.002571 -0.027000 0.021003 
0.012430 0.020933 0.030322 
0.025472 -0.009583 0.042580 
-0.023053 0.008840 0.030640 
0.014514 0.019490 0.042365 
-0.018437 -0.016774 0.017338 
0.017914 0.017137 0.018211 
-0.017512 -0.017415 0.046153 
-0.021045 -0.016955 0.012496 
0.018719 -0.019281 0.002703 
0.016778 0.011220 0.001000 
0.022027 -0.015919 0.025872 
0.022199 0.015402 0.009576 
0.021664 -0.015664 0.020602 
0.026806 0.003581 0.034928 
0.005334 0.005131 0.000000 
0.010713 -0.022122 0.046741 
0.016126 -0.021874 0.006199 
0.022680 0.013959 0.001376 
-0.021391 -0.015391 0.018259 
-0.022954 0.013138 0.037598 
-0.008071 -0.025976 0.024726 
0.027000 0.002394 0.005879 
0.023967 0.006098 0.017779 
0.022076 0.011771 0.042857 
0.026000 0.006056 0.013464 
-0.025744 0.000768 0.040953 
-0.018533 -0.019467 0.024146 
-0.011568 -0.024432 0.013915 
-0.011554 -0.024446 0.025340 
0.019451 -0.016072 0.017195 
-0.010320 -0.022394 0.010443 
-0.008000 0.006458 0.000000 
0.026333 0.005002 0.015467 
-0.016110 -0.018386 0.016521 
0.019301 0.016176 0.024442 
-0.020810 -0.015131 0.000997 
0.013383 -0.022872 0.003748 
-0.016986 0.021014 0.005313 
0.004540 -0.024000 0.038522 
0.016109 0.003829 0.001000 
-0.000690 -0.024000 0.021800 
0.010896 -0.025035 0.042879 
-0.026000 0.007809 0.047637 
0.009051 -0.022539 0.001000 
0.016551 -0.021449 0.031016 
-0.013451 -0.020296 0.000000 
0.002475 0.027000 0.023962 
-0.022128 0.015616 0.044478 
-0.019084 -0.018916 0.021365 
0.022002 0.011994 0.032547 
0.012915 0.023085 0.003019 
0.010543 0.018110 0.000000 
0.008000 -0.024775 0.007925 
0.011778 -0.024222 0.020985 
-0.007421 0.026000 0.040437 
-0.020326 0.003256 0.000000 
0.024684 -0.011316 0.007470 
0.016543 -0.021457 0.026341 
0.002826 0.024000 0.002244 
0.013696 0.020057 0.014962 
0.017167 -0.017654 0.032009 
-0.008000 -0.024464 0.005276 
-0.019904 0.011196 0.001000 
0.023844 0.008172 0.048000 
-0.017846 0.005939 0.000000 
-0.021886 0.016114 0.042629 
-0.027000 -0.002094 0.041752 
-0.018655 -0.016661 0.000000 
0.022165 -0.015505 0.002994 
-0.012802 0.020675 0.043259 
0.004072 -0.026643 0.005888 
-0.007138 0.014637 0.001000 
0.019802 -0.018198 0.042183 
0.005815 0.006630 0.001000 
0.015018 0.021732 0.001000 
0.016312 -0.018245 0.036092 
0.000854 -0.027000 0.031601 
0.021867 -0.012399 0.031270 
0.022006 -0.006458 0.001000 
0.019917 0.015750 0.024691 
-0.009395 0.025535 0.037261 
-0.019880 -0.014047 0.000000 
0.014049 -0.022650 0.018532 
0.026064 -0.005809 0.029832 
-0.027000 0.001716 0.035530 
0.025923 0.004020 0.048000 
0.008000 0.024256 0.037949 
-0.005350 -0.000916 0.001000 
-0.018242 -0.016910 0.024103 
0.025874 -0.000623 0.001000 
-0.018026 0.017059 0.039773 
0.021340 -0.015340 0.020821 
0.001974 -0.026157 0.000000 
-0.001042 0.024000 0.033440 
-0.016152 -0.003555 0.000000 
-0.006280 0.011653 0.000000 
-0.018686 -0.019314 0.004201 
-0.007949 0.026000 0.038779 
-0.015924 0.018514 0.036258 
-0.010578 0.013633 0.001000 
0.014506 0.022498 0.045300 
0.014389 -0.019577 0.047707 
-0.001440 -0.024000 0.003412 
0.026649 -0.004052 0.003667 
-0.021895 -0.013874 0.048000 
0.027000 0.002640 0.037926 
0.008241 -0.004497 0.001000 
0.027000 -0.001208 0.000345 
-0.023063 -0.008812 0.019894 
0.022258 -0.015226 0.005637 
0.014871 -0.014410 0.001000 
0.012296 0.023704 0.028550 
0.025511 -0.009467 0.013403 
-0.020532 -0.017468 0.043157 
-0.007099 -0.024000 0.034014 
-0.007506 0.024000 0.027334 
0.012725 0.023275 0.000056 
0.025586 0.009242 0.044867 
-0.025380 -0.009860 0.002464 
-0.008229 0.025924 0.027942 
-0.009421 0.023016 0.022767 
0.001010 0.023408 0.000000 
-0.018127 -0.019873 0.034262 
-0.008000 0.024446 0.017708 
-0.006625 0.026000 0.039974 
0.025654 0.009039 0.044872 
0.022147 -0.011560 0.009447 
-0.021713 -0.015713 0.026172 
0.013549 -0.022268 0.048000 
-0.011630 -0.024370 0.026176 
-0.010048 0.022582 0.017354 
0.004225 -0.026592 0.012669 
0.010202 0.022475 0.024596 
-0.021515 0.008378 0.000000 
-0.014450 0.022517 0.029362 
0.026355 0.004935 0.016055 
0.025814 -0.000558 0.008783 
0.011285 -0.014367 0.000000 
0.021879 0.016121 0.046521 
-0.015128 -0.022291 0.018048 
-0.007888 -0.026000 0.010696 
-0.023776 -0.006671 0.022082 
0.019348 0.018652 0.016928 
-0.006881 0.024000 0.010901 
-0.018074 -0.017026 0.003639 
-0.013355 -0.020293 0.013232 
0.016561 -0.003532 0.000000 
-0.024889 -0.003333 0.002211 
-0.024448 -0.004655 0.035947 
-0.023653 0.007040 0.043926 
-0.016421 -0.020154 0.000000 
0.002648 0.010959 0.000000 
0.012857 0.023143 0.012200 
-0.001152 0.024000 0.014543 
-0.017244 -0.017600 0.024900 
-0.021102 0.015102 0.018596 
-0.022795 -0.009616 0.002184 
0.014574 -0.019448 0.013723 
0.006717 -0.010484 0.001000 
0.008000 -0.024599 0.034558 
0.008848 -0.023413 0.010406 
-0.019394 -0.016112 0.035622 
-0.022659 -0.010022 0.032320 
-0.008743 -0.025752 0.027591 
-0.010672 -0.022150 0.027301 
0.026000 -0.006354 0.012812 
-0.021231 0.014307 0.000444 
-0.015424 -0.018860 0.006083 
-0.014122 0.019762 0.031791 
0.008000 0.025482 0.027404 
-0.023304 0.008087 0.034760 
-0.022300 0.014384 0.001000 
-0.011997 -0.024003 0.005402 
0.016347 -0.021653 0.000426 
-0.014037 0.022654 0.028490 
0.026366 -0.004903 0.006690 
-0.010967 -0.025011 0.034189 
-0.003075 -0.026975 0.012874 
0.008000 0.025585 0.016718 
-0.002583 0.027000 0.002807 
-0.022931 0.009208 0.003173 
0.017683 -0.020317 0.016983 
0.007274 0.024000 0.046003 
-0.012975 0.023025 0.015034 
0.013385 0.020272 0.000050 
-0.017287 0.020713 0.009560 
-0.004001 0.022677 0.001000 
-0.008572 -0.023604 0.016644 
-0.023137 -0.008588 0.002892 
0.024542 0.011589 0.048000 
0.026711 -0.000000 0.020022 
0.021085 -0.014744 0.034830 
0.022371 -0.010887 0.016996 
0.008582 0.023597 0.029165 
0.026000 0.007383 0.023732 
-0.014484 0.005338 0.000000 
0.020156 0.017844 0.016777 
-0.017910 0.020090 0.032241 
-0.021617 0.013149 0.038237 
-0.011417 -0.024583 0.010442 
-0.013802 -0.022733 0.021766 
0.014717 -0.022545 0.044511 
0.025167 -0.010500 0.012142 
0.023468 0.007597 0.035983 
0.025358 -0.001927 0.006599 
0.008000 -0.024019 0.002808 
-0.017396 -0.009560 0.001000 
0.017637 0.017328 0.005503 
-0.010025 0.025325 0.024038 
-0.008000 -0.025915 0.023589 
0.022866 -0.013402 0.003490 
0.006801 0.007456 0.000000 
0.006352 -0.019027 0.001000 
-0.021690 0.012931 0.042262 
-0.026930 -0.000000 0.034387 
-0.003938 0.016911 0.001000 
0.024247 0.011753 0.000698 
0.022919 0.009243 0.041396 
0.007856 0.024000 0.005742 
-0.024584 -0.004248 0.021071 
0.022229 0.011312 0.030231 
0.014978 -0.022341 0.005381 
-0.024995 -0.011008 0.036595 
0.021922 0.016078 0.008157 
-0.010066 -0.025311 0.043399 
-0.015263 -0.018971 0.014297 
-0.023908 0.012092 0.019958 
-0.022189 0.015432 0.041841 
-0.003767 0.026744 0.032009 
-0.026000 -0.007657 0.001242 
-0.023603 0.007190 0.000058 
0.008887 -0.025704 0.041144 
0.008000 -0.025087 0.038134 
0.022470 -0.006974 0.001000 
-0.025990 -0.008031 0.008076 
0.024476 -0.011524 0.010749 
-0.026000 0.006228 0.041929 
0.014182 0.022606 0.025774 
-0.022853 0.013440 0.039681 
-0.008000 0.025489 0.023884 
-0.025877 0.008368 0.031913 
-0.020288 -0.007011 0.000000 
0.012528 -0.002907 0.000000 
-0.025761 0.000718 0.039579 
-0.022418 0.014746 0.034292 
0.024091 -0.005725 0.023473 
-0.009077 0.002866 0.000000 
-0.021717 -0.016283 0.001644 
-0.006809 -0.024000 0.037363 
-0.013332 -0.022889 0.022596 
0.021397 -0.015397 0.015277 
0.023485 0.012515 0.029059 
0.024772 -0.011228 0.021943 
-0.009313 -0.025562 0.013531 
0.016552 0.021448 0.032105 
-0.000989 -0.014511 0.001000 
-0.002097 0.024000 0.003337 
0.016164 -0.012671 0.000000 
0.001883 0.000856 0.000000 
0.006648 -0.026000 0.036723 
0.023943 -0.010539 0.000000 
-0.025165 0.010506 0.044090 
-0.021544 0.013368 0.013640 
-0.017592 -0.017360 0.025452 
0.011463 -0.019928 0.001000 
0.004709 0.004726 0.000000 
0.024155 -0.005535 0.023432 
-0.002529 -0.005673 0.000000 
-0.004164 -0.024000 0.047411 
-0.022616 0.014152 0.038788 
-0.010678 0.025107 0.008815 
-0.026000 0.006895 0.007472 
-0.006723 -0.024000 0.030075 
-0.025405 -0.009786 0.010800 
0.021099 -0.014703 0.009286 
0.020343 0.015455 0.026653 
-0.020340 0.015457 0.006852 
0.024605 -0.004186 0.044116 
-0.023795 0.012205 0.025949 
0.022932 0.009203 0.046900 
-0.015918 0.018518 0.015009 
0.015678 -0.010989 0.000000 
0.000453 -0.027000 0.019631 
0.014665 -0.019065 0.000000 
-0.019790 -0.011535 0.001000 
0.022336 -0.014992 0.007844 
-0.008672 0.023535 0.042505 
0.020380 -0.017620 0.017144 
-0.025695 -0.008915 0.031852 
0.025058 0.002827 0.045328 
0.018282 -0.016881 0.021808 
0.024962 0.003113 0.018562 
-0.016171 -0.021829 0.039233 
-0.003553 -0.006132 0.001000 
0.023067 -0.008800 0.010205 
0.017089 0.017708 0.021036 
-0.012588 0.020824 0.017970 
-0.011070 0.001313 0.001000 
-0.021344 -0.016656 0.008274 
0.012798 0.020678 0.015826 
-0.004961 -0.014966 0.000000 
-0.009828 -0.022734 0.045712 
0.000135 0.024000 0.020301 
0.024769 -0.003693 0.029814 
-0.027000 -0.001171 0.044108 
-0.015464 0.013056 0.001000 
0.006856 0.023549 0.001000 
0.001421 -0.018764 0.001000 
-0.004359 0.024000 0.042144 
0.003953 0.024000 0.026884 
0.016674 -0.019094 0.000000 
