
# .PCD v.6 - Point Cloud Data file format
FIELDS x y z 
SIZE 4 4 4 
TYPE F F F 
COUNT 1 1 1 
WIDTH 1646
HEIGHT 1
VIEWPOINT 0.000000 0.000000 0.000000 1.000000 0.000000 0.000000 0.00000
POINTS 1646
DATA ascii
0.025318 -0.005384 0.009156 
0.008579 -0.026579 0.050830 
0.022843 0.013302 0.009436 
-0.000601 -0.026000 0.001913 
-0.005979 0.026000 0.032859 
-0.006700 -0.010958 0.000000 
-0.026895 0.009314 0.001985 
-0.028000 -0.004530 0.041818 
-0.006190 0.026000 0.021718 
0.021675 0.006204 0.001000 
-0.013421 -0.022128 0.044614 
0.016004 0.015327 0.001000 
-0.016018 -0.012448 0.001000 
0.016724 0.019768 0.004827 
-0.013687 0.025157 0.044472 
-0.001084 0.028000 0.007950 
0.018051 0.005127 0.001000 
-0.004742 0.002528 0.000000 
0.004967 -0.026000 0.043427 
-0.028000 0.001799 0.014663 
-0.026430 -0.001823 0.007725 
-0.020219 -0.019781 0.003916 
-0.002025 0.018788 0.000000 
-0.027339 -0.000000 0.025584 
0.017431 -0.022569 0.021798 
-0.022871 -0.016871 0.011832 
-0.025199 -0.013602 0.000200 
0.026454 0.010637 0.004787 
-0.007263 -0.025593 0.000000 
-0.028000 -0.004962 0.019667 
0.010636 0.026455 0.023070 
0.028000 0.003487 0.051753 
-0.018089 0.019619 0.001000 
-0.001543 -0.024853 0.000000 
0.008255 0.027248 0.034439 
-0.023051 -0.012638 0.010676 
-0.000090 0.026000 0.049871 
0.025292 -0.005466 0.026731 
0.017330 0.022670 0.033980 
0.009287 0.026904 0.047877 
-0.008807 0.025424 0.035456 
0.014117 0.021631 0.039658 
0.004678 0.026000 0.016379 
0.005775 0.004019 0.001000 
-0.027998 0.006006 0.014678 
-0.014949 -0.021036 0.014153 
-0.015681 0.020513 0.034767 
0.001725 0.028000 0.001104 
0.012791 -0.005827 0.001000 
-0.017462 -0.022538 0.030329 
-0.004954 0.022914 0.000000 
0.011020 -0.001805 0.001000 
0.001498 0.026000 0.050650 
0.023691 -0.015964 0.036595 
-0.011524 -0.023483 0.040213 
0.004579 0.022471 0.000000 
-0.025360 0.013280 0.044300 
0.021509 0.017866 0.001000 
0.005018 0.026000 0.013049 
-0.024360 0.013615 0.000000 
0.026235 -0.011296 0.043450 
0.008933 0.026933 0.031596 
-0.021751 0.018249 0.050813 
-0.005761 -0.026000 0.002574 
0.017501 0.009769 0.000000 
0.012172 0.025914 0.041503 
-0.019493 -0.017790 0.012622 
-0.011974 0.026009 0.031639 
-0.028000 0.005591 0.033894 
-0.017712 0.019171 0.000000 
0.019803 0.017569 0.008004 
-0.003185 0.014052 0.001000 
0.016084 0.023610 0.018009 
-0.024956 -0.006541 0.011271 
0.019424 0.020576 0.011036 
0.014743 -0.009703 0.001000 
0.006410 -0.027863 0.008521 
-0.025460 -0.004929 0.051961 
-0.028000 -0.003837 0.037668 
0.027711 -0.001990 0.000000 
0.015898 0.020359 0.034389 
-0.005623 0.026000 0.002241 
-0.004122 0.026000 0.051116 
0.016942 0.019613 0.012383 
0.010588 -0.024151 0.030583 
0.019615 0.020385 0.017483 
0.016520 -0.014843 0.000000 
0.024186 -0.009006 0.037401 
-0.028000 0.005211 0.051334 
-0.013358 0.022173 0.035139 
0.028000 -0.005715 0.009341 
-0.025701 -0.004157 0.004489 
0.021825 0.018175 0.035285 
-0.013466 -0.025267 0.033744 
-0.008597 -0.026597 0.036754 
-0.026915 -0.009156 0.000000 
-0.013016 0.022417 0.015839 
0.010939 0.023901 0.051075 
0.005359 0.017145 0.000000 
0.009965 0.016712 0.000000 
-0.015455 0.020978 0.000000 
0.023455 -0.014070 0.000000 
0.017086 0.022914 0.023142 
-0.014395 0.021432 0.026854 
0.024424 -0.008243 0.033771 
0.027844 -0.006469 0.009303 
0.011399 0.023572 0.033701 
0.014269 0.024821 0.039055 
0.012183 -0.006511 0.000000 
-0.010300 0.003375 0.001000 
0.001425 0.028054 0.033085 
0.003068 0.001444 0.000000 
-0.011753 0.013728 0.000000 
-0.001530 -0.026000 0.035964 
0.020829 -0.019171 0.021207 
0.008414 -0.026414 0.032222 
-0.000945 0.026000 0.020751 
-0.001957 -0.028000 0.009503 
0.012646 0.022681 0.023948 
-0.022361 -0.014846 0.005167 
0.024459 -0.014812 0.029363 
-0.023763 0.015855 0.030657 
0.025360 -0.005248 0.027719 
0.015814 0.023791 0.032349 
-0.024562 -0.007802 0.034142 
-0.025695 -0.004177 0.034522 
0.027053 -0.008841 0.032933 
0.024647 0.011383 0.000000 
-0.028000 -0.004886 0.003797 
-0.026669 0.001060 0.025466 
0.027930 -0.006210 0.032810 
0.008548 0.027151 0.014168 
0.014919 -0.024387 0.041363 
0.026324 0.002162 0.005660 
0.023666 0.010668 0.008939 
-0.018352 -0.021648 0.043528 
0.004902 0.026000 0.017410 
-0.022160 -0.016160 0.035702 
0.028000 -0.002722 0.005313 
-0.022616 -0.016616 0.038609 
-0.011695 0.026102 0.024111 
0.008229 0.026229 0.035309 
0.028000 -0.003635 0.042841 
-0.022123 -0.017877 0.049621 
0.024280 -0.008189 0.000000 
-0.027991 -0.006026 0.008371 
0.025623 -0.004408 0.041562 
0.016630 0.020761 0.000000 
-0.000662 -0.028000 0.014083 
-0.002994 -0.026000 0.004380 
0.023191 -0.012188 0.029307 
-0.022594 0.014101 0.044360 
-0.025055 -0.013891 0.024257 
-0.000685 0.018909 0.001000 
0.026757 0.000777 0.013165 
0.002792 0.026000 0.040319 
0.008588 0.026588 0.032292 
0.013956 0.000682 0.001000 
-0.023920 -0.009855 0.023536 
-0.009266 -0.025096 0.040154 
0.012767 0.022595 0.051136 
0.004278 0.014822 0.001000 
-0.026197 -0.011410 0.015453 
-0.023643 -0.010743 0.045234 
-0.010324 0.024340 0.006090 
0.012624 -0.025688 0.030945 
0.021802 -0.018198 0.007179 
-0.005976 0.019143 0.001000 
-0.009382 -0.025013 0.023246 
0.017636 -0.022364 0.027409 
0.002010 0.026000 0.034530 
0.023109 -0.016836 0.046866 
0.012693 -0.025653 0.022405 
-0.028000 0.000975 0.009792 
0.005063 -0.007459 0.001000 
-0.001257 -0.028000 0.012419 
-0.020643 0.004209 0.000000 
-0.010531 -0.024192 0.034026 
-0.017618 0.006639 0.000000 
-0.004930 0.009476 0.001000 
0.014535 0.005264 0.001000 
0.013601 0.022000 0.026203 
-0.022062 0.017938 0.013086 
-0.026454 -0.010639 0.036449 
0.006816 -0.020346 0.001000 
0.018918 0.018201 0.047954 
-0.028000 0.000604 0.003192 
0.018276 0.014832 0.000000 
0.020259 -0.017243 0.044441 
0.020170 -0.019830 0.041791 
0.016062 -0.023625 0.037566 
0.019656 0.017674 0.026652 
0.015413 0.024058 0.006103 
0.015433 -0.024045 0.008597 
0.018499 0.017212 0.001000 
0.026357 0.002058 0.048196 
-0.000553 0.028000 0.028033 
-0.001750 -0.028000 0.030895 
-0.024767 0.014349 0.000096 
-0.021138 0.018862 0.041031 
0.016605 -0.023264 0.025374 
0.026621 0.001211 0.003297 
-0.001061 -0.013014 0.001000 
-0.007914 -0.027362 0.005852 
-0.027552 0.007345 0.031519 
0.023234 0.012051 0.034275 
-0.010477 0.026508 0.019917 
0.014529 -0.024648 0.016575 
0.024234 0.008853 0.008002 
-0.026410 0.010770 0.035392 
0.022104 0.016104 0.043727 
-0.020384 0.015595 0.000000 
0.021141 -0.016613 0.028209 
0.008900 0.026900 0.026537 
-0.002849 -0.022258 0.000000 
-0.009238 0.026921 0.041558 
0.026314 0.002194 0.028828 
0.025621 0.012757 0.005875 
0.007657 -0.026931 0.052000 
-0.006782 -0.027739 0.033129 
-0.027262 -0.008213 0.003077 
-0.008473 -0.026473 0.014752 
0.013388 -0.025306 0.046822 
0.016124 0.023584 0.018411 
-0.003317 -0.028000 0.001425 
0.028119 0.000901 0.034384 
-0.011990 -0.000626 0.001000 
-0.013546 0.016931 0.000000 
-0.018603 -0.018426 0.010498 
-0.011764 -0.026079 0.050095 
-0.028000 0.000885 0.025884 
-0.001136 -0.024937 0.000000 
0.017646 -0.022354 0.031337 
0.025555 -0.004625 0.019191 
-0.014576 -0.021303 0.005247 
-0.022533 0.017467 0.029166 
0.015611 0.023926 0.034538 
-0.008076 0.026076 0.017457 
0.025266 0.013468 0.040461 
0.009468 0.024951 0.022552 
-0.017347 0.022653 0.001658 
0.003542 -0.028000 0.031577 
-0.025122 -0.011143 0.001000 
0.020989 0.016722 0.031287 
-0.016129 -0.023580 0.021650 
-0.004513 0.026000 0.001889 
-0.018900 -0.020370 0.001000 
-0.005772 -0.026000 0.016122 
0.028000 0.004513 0.046717 
-0.006175 0.027942 0.001888 
-0.022995 -0.017005 0.009184 
0.028000 -0.003516 0.036641 
0.009297 0.025073 0.042325 
0.008026 -0.025982 0.004274 
-0.004334 0.028000 0.049485 
0.011060 -0.023814 0.022249 
0.023140 -0.016789 0.020576 
-0.024261 -0.008765 0.034961 
-0.010419 -0.024272 0.045819 
-0.005353 0.028000 0.035225 
-0.026447 -0.010659 0.039876 
-0.026149 0.002724 0.030851 
0.013117 -0.024718 0.000000 
-0.008102 0.025927 0.002453 
-0.023389 -0.016416 0.028392 
0.027229 -0.008313 0.044864 
0.020040 0.017400 0.006912 
-0.024132 -0.009178 0.023523 
0.021664 -0.008580 0.000000 
0.012076 -0.016422 0.001000 
0.006511 -0.011200 0.001000 
-0.011344 -0.023611 0.033993 
0.002640 -0.028000 0.008567 
0.023848 0.015728 0.008485 
0.007798 -0.026000 0.023976 
-0.018209 -0.018708 0.019937 
0.024473 -0.008087 0.021238 
0.022927 -0.013033 0.006876 
-0.026073 -0.004013 0.000000 
0.005002 0.021322 0.000000 
0.008858 0.025387 0.051817 
-0.020596 -0.005662 0.001000 
0.028000 0.003217 0.017227 
0.009717 -0.026761 0.038178 
0.024103 0.009270 0.032233 
0.007057 0.027648 0.042202 
0.010042 -0.024542 0.032954 
0.018270 -0.021730 0.042713 
0.024801 -0.013222 0.052000 
0.019079 0.018086 0.013675 
-0.017365 0.019310 0.031899 
0.003880 0.027063 0.052000 
0.012357 -0.022888 0.000258 
-0.025251 -0.005597 0.013056 
-0.024553 0.007831 0.025354 
-0.016805 -0.019711 0.029162 
-0.016439 -0.022099 0.000000 
0.010421 -0.024271 0.012785 
-0.026673 -0.001045 0.050013 
-0.020355 0.017175 0.029689 
0.009024 0.025269 0.015279 
0.024357 -0.008456 0.039403 
-0.012654 -0.025673 0.045716 
-0.007655 0.020305 0.000000 
0.023310 -0.016535 0.014593 
0.011519 -0.023486 0.050042 
0.008579 -0.026579 0.029370 
-0.022619 0.016619 0.015188 
0.009771 -0.011743 0.000000 
-0.018631 0.018406 0.048937 
-0.028000 -0.001834 0.031007 
0.001972 0.002851 0.001000 
0.010309 -0.025891 0.052000 
0.024366 0.007278 0.001000 
0.020966 -0.016739 0.047799 
0.003584 -0.025180 0.001000 
0.004948 0.026000 0.045152 
-0.027081 0.008757 0.011433 
0.026095 0.002897 0.015420 
-0.015513 0.023991 0.001052 
0.002980 0.026000 0.005149 
0.022595 -0.017405 0.036864 
-0.000128 -0.028118 0.052000 
-0.027166 0.008502 0.004975 
0.026981 -0.000061 0.047957 
-0.019994 -0.007932 0.001000 
0.009804 0.024712 0.048302 
0.022519 -0.016519 0.036772 
-0.001241 -0.026000 0.027146 
-0.007839 0.027387 0.001489 
-0.026637 -0.010090 0.012338 
-0.020636 0.016649 0.000000 
0.018460 -0.020854 0.000000 
0.013883 -0.021998 0.000000 
-0.005024 -0.019822 0.000000 
-0.019331 -0.020669 0.032940 
0.009294 0.026902 0.002622 
-0.012250 0.025875 0.034776 
0.008410 -0.027197 0.013588 
0.019460 -0.013138 0.001000 
0.022796 0.017204 0.000462 
0.025785 -0.012430 0.003969 
0.025369 -0.013261 0.000620 
-0.028044 -0.000000 0.043907 
-0.022111 0.016111 0.035607 
-0.010951 -0.026350 0.016528 
0.014468 0.021380 0.017610 
-0.022890 -0.017110 0.029486 
0.028334 -0.001288 0.038684 
0.028000 -0.000799 0.007251 
0.011805 -0.023282 0.028982 
-0.002102 0.026000 0.010509 
-0.016713 -0.020902 0.000000 
0.022526 0.014316 0.002340 
0.011287 0.026238 0.046934 
0.016838 -0.019687 0.003211 
-0.007592 0.026000 0.039434 
0.002118 0.028252 0.037032 
-0.000909 0.015413 0.001000 
0.027483 0.002560 0.001000 
-0.000268 -0.026000 0.016528 
0.017969 -0.022031 0.019540 
0.003514 -0.028000 0.014877 
-0.000763 0.027286 0.000000 
-0.009607 -0.026798 0.029801 
0.027430 -0.007711 0.011756 
0.009444 -0.009723 0.001000 
0.028000 -0.000047 0.025889 
0.026868 -0.000421 0.045308 
0.024874 0.006804 0.042764 
0.026172 0.011484 0.014743 
0.008160 -0.026160 0.046725 
-0.000320 -0.028201 0.036015 
-0.008361 -0.008981 0.001000 
-0.023595 0.016107 0.026665 
-0.013426 -0.025287 0.024883 
0.007827 0.026000 0.038081 
0.026045 0.003055 0.009823 
-0.019454 -0.006305 0.000000 
0.027043 -0.001687 0.000000 
0.017935 0.022065 0.020284 
-0.004954 0.003554 0.000000 
0.015300 -0.024133 0.040210 
-0.024589 -0.007715 0.029807 
-0.028347 -0.000542 0.042545 
0.018209 -0.018708 0.014397 
0.026689 0.000994 0.034467 
-0.009479 0.012257 0.001000 
0.009067 -0.025238 0.027984 
-0.005024 -0.010113 0.000000 
-0.016513 -0.019919 0.018610 
-0.027961 0.006116 0.043378 
-0.021886 -0.003678 0.000000 
0.022220 -0.015295 0.044636 
-0.026657 -0.010028 0.029382 
-0.007568 0.026000 0.038170 
0.028000 -0.004359 0.031790 
-0.023641 0.010750 0.007140 
0.019375 0.017875 0.044705 
-0.024834 -0.014249 0.018199 
0.016482 -0.016694 0.001000 
-0.024074 0.009365 0.034368 
-0.010236 0.024403 0.016318 
-0.020497 0.014759 0.001000 
0.001846 -0.028000 0.025372 
-0.019444 0.020556 0.016201 
0.003351 -0.028000 0.020213 
0.008687 -0.025509 0.040949 
-0.012700 0.023045 0.001000 
0.023512 0.011163 0.012064 
-0.001935 0.000252 0.001000 
0.008930 -0.027023 0.022027 
-0.012914 0.025543 0.033503 
0.017082 0.019513 0.049579 
-0.011610 0.026130 0.004608 
-0.010460 0.025138 0.000000 
-0.024994 -0.014009 0.016626 
-0.025554 0.012891 0.048481 
-0.007145 -0.027618 0.030078 
-0.009255 -0.026915 0.014404 
0.010358 0.024316 0.004719 
-0.028000 0.002443 0.013621 
0.007168 -0.027611 0.043499 
0.022814 -0.017186 0.027472 
0.024985 -0.014022 0.024794 
-0.028000 -0.004049 0.041543 
-0.004314 0.028000 0.041677 
-0.022524 -0.003023 0.000000 
0.013617 -0.018924 0.000000 
0.005964 -0.026000 0.012353 
-0.015735 0.021381 0.052000 
0.024520 -0.007936 0.039763 
-0.021722 -0.016198 0.018546 
-0.020310 -0.019690 0.020401 
-0.023942 0.009787 0.049441 
0.025915 0.005278 0.001000 
-0.019614 -0.020386 0.008972 
-0.003683 -0.028000 0.005012 
-0.004133 -0.028000 0.032078 
0.010747 0.026418 0.013858 
-0.010285 -0.026572 0.037458 
-0.012680 -0.025660 0.011164 
0.003428 -0.026000 0.047852 
0.012906 0.023581 0.000000 
-0.028000 -0.001601 0.041967 
-0.003994 -0.028000 0.037337 
-0.010092 -0.024506 0.012123 
-0.015698 0.023868 0.027798 
-0.021430 -0.016407 0.035184 
-0.025802 -0.003835 0.036886 
0.009328 -0.009441 0.001000 
-0.011706 0.023353 0.014036 
-0.018427 0.018552 0.016439 
-0.017557 -0.019174 0.008089 
0.017322 0.022678 0.050580 
0.019843 -0.020157 0.038200 
-0.027067 -0.008798 0.021653 
0.002377 0.028000 0.019619 
0.020758 -0.015223 0.000000 
-0.006093 0.026000 0.034786 
0.008326 -0.023857 0.000000 
0.027990 0.006030 0.018563 
0.026466 -0.001709 0.043427 
0.023236 0.012043 0.031297 
0.023263 -0.016606 0.040387 
-0.020859 -0.019141 0.046274 
-0.015081 0.024279 0.035118 
0.026426 0.001838 0.000243 
0.028000 -0.000224 0.031866 
-0.024812 0.014281 0.048381 
-0.011848 -0.023252 0.012444 
0.018887 0.004098 0.001000 
0.008540 0.008066 0.001000 
-0.015844 0.023771 0.005577 
-0.000401 -0.026000 0.042884 
-0.000703 0.028000 0.014816 
0.006675 -0.027775 0.049635 
0.017084 0.022916 0.002506 
-0.019793 -0.017577 0.016675 
-0.026656 0.001101 0.034574 
0.007740 0.009370 0.000000 
0.006368 -0.026710 0.000000 
0.027614 -0.007158 0.037024 
-0.003915 0.010176 0.001000 
0.004047 -0.026000 0.001064 
0.019316 -0.012651 0.000000 
0.012798 -0.022573 0.012613 
0.026223 0.002485 0.007230 
-0.010998 -0.023858 0.044029 
-0.017623 -0.019127 0.043679 
0.019518 -0.017773 0.000726 
-0.028000 0.004173 0.017057 
0.017790 0.022210 0.003861 
0.024119 -0.009221 0.020719 
0.008126 0.026126 0.020820 
0.008983 0.026983 0.017756 
-0.022713 -0.013717 0.027806 
0.019301 0.017928 0.030624 
0.022331 -0.014940 0.042361 
0.023301 -0.016548 0.045678 
0.012016 0.013714 0.001000 
-0.008469 0.024108 0.000000 
-0.024929 -0.006626 0.023447 
0.025523 -0.012954 0.034993 
-0.000406 0.028000 0.002081 
-0.008297 0.025788 0.036803 
-0.015425 -0.020697 0.044400 
0.016244 0.013697 0.001000 
-0.008517 0.025631 0.013071 
-0.007813 -0.026000 0.003808 
0.013769 0.021879 0.032194 
0.007862 0.026000 0.034408 
-0.021149 -0.016608 0.046542 
0.023280 -0.016580 0.029545 
0.015113 0.015094 0.001000 
-0.026941 -0.000189 0.004676 
-0.022948 -0.012965 0.036006 
-0.024209 0.008931 0.017924 
-0.014868 0.021094 0.002987 
0.022964 -0.012917 0.018130 
0.024041 -0.001488 0.001000 
-0.015991 -0.020292 0.005738 
0.017312 0.022688 0.011137 
0.025561 -0.007610 0.000000 
0.013292 -0.023407 0.000000 
0.027569 0.007292 0.004222 
-0.018552 -0.021448 0.006515 
0.009445 0.026852 0.003267 
-0.019824 -0.011097 0.001000 
0.025183 -0.013635 0.048319 
0.025240 0.013521 0.022084 
-0.008611 -0.026611 0.026969 
-0.009692 0.026769 0.011188 
0.025457 0.003971 0.001000 
-0.008520 -0.026520 0.003662 
0.014847 0.020816 0.001000 
0.010656 -0.026448 0.005051 
0.008444 0.026444 0.007125 
-0.008083 -0.026083 0.021713 
-0.020350 -0.017179 0.023830 
-0.009626 -0.026100 0.052000 
-0.000978 0.012407 0.001000 
0.023699 -0.015480 0.052000 
-0.027693 0.006921 0.040053 
-0.023385 0.016422 0.002805 
0.016682 -0.023212 0.031090 
-0.000359 -0.007033 0.000000 
0.008506 -0.025638 0.003804 
-0.009024 0.025269 0.007721 
0.007204 -0.027599 0.034381 
-0.011823 -0.026059 0.039684 
-0.023181 -0.016729 0.025999 
-0.026418 -0.001864 0.045513 
-0.028212 -0.000972 0.042713 
0.009837 -0.026721 0.013988 
0.016323 -0.020055 0.031183 
-0.022509 0.016509 0.007847 
-0.028000 0.005187 0.025000 
-0.026673 -0.001046 0.021213 
-0.006828 0.027724 0.018161 
0.018124 -0.003904 0.001000 
0.025197 -0.010757 0.000000 
0.021124 0.018876 0.023169 
0.004462 -0.028000 0.014356 
-0.028000 0.004743 0.043793 
-0.007716 0.023050 0.001000 
0.021928 0.018072 0.050175 
-0.020815 0.019185 0.045264 
0.022495 -0.003396 0.000000 
-0.001994 -0.019393 0.001000 
-0.025734 -0.004050 0.050052 
0.008501 0.026501 0.013634 
-0.001687 0.028000 0.037795 
-0.017947 -0.020771 0.052000 
0.022342 -0.016342 0.035558 
0.006619 -0.007148 0.000000 
-0.013479 0.025261 0.045851 
0.026352 0.002075 0.045019 
0.008559 0.027147 0.043437 
0.000996 0.010167 0.001000 
0.019621 -0.020379 0.027638 
-0.027767 0.006699 0.021475 
0.018223 -0.007019 0.000000 
0.022318 -0.014981 0.051395 
0.007675 -0.019613 0.001000 
0.028000 0.005968 0.021485 
-0.000199 -0.026000 0.015851 
0.016032 -0.023645 0.011892 
-0.003321 0.015093 0.001000 
0.013170 0.025415 0.027662 
0.027625 0.007125 0.000799 
0.006868 0.027711 0.005912 
-0.024366 -0.008430 0.007110 
0.007542 0.021876 0.000000 
0.022117 0.016117 0.000482 
-0.007694 -0.018052 0.000000 
0.008854 -0.027049 0.007893 
0.024355 -0.008465 0.018070 
0.008967 -0.026967 0.037700 
-0.026539 -0.010384 0.017297 
-0.018032 -0.021968 0.036064 
-0.019181 -0.020819 0.039753 
0.027829 -0.006512 0.029347 
0.003775 -0.026000 0.036215 
-0.005233 -0.028000 0.036187 
-0.001609 0.026000 0.036308 
0.011961 -0.012910 0.001000 
-0.000353 0.017987 0.000000 
-0.011405 -0.023568 0.030471 
0.027891 0.006327 0.023102 
-0.005560 0.005606 0.001000 
0.023567 -0.016150 0.014853 
0.028000 0.005008 0.040551 
0.009819 0.024701 0.040695 
-0.000758 -0.028000 0.027054 
-0.005090 -0.014620 0.001000 
0.021766 -0.016167 0.041642 
-0.002185 0.028248 0.051523 
0.004815 0.027296 0.001000 
0.019520 0.020480 0.028784 
-0.026576 0.010118 0.000000 
-0.013595 0.025202 0.047622 
0.017630 0.019122 0.001981 
-0.013271 -0.009104 0.001000 
0.021037 -0.018963 0.051299 
-0.022243 0.015221 0.000537 
-0.022324 0.017676 0.026723 
0.021236 -0.018764 0.034238 
0.006602 -0.021249 0.001000 
-0.009787 0.026738 0.050273 
-0.007116 -0.027628 0.001527 
0.020833 -0.016833 0.013508 
0.027423 -0.007731 0.012301 
0.003344 0.019721 0.001000 
-0.019628 -0.020372 0.018937 
-0.022186 -0.016186 0.026765 
-0.010439 0.026520 0.015699 
0.018325 0.005445 0.001000 
0.007970 0.026000 0.002094 
-0.023119 0.012420 0.030977 
-0.023862 -0.015707 0.044987 
-0.021122 -0.018878 0.022913 
0.000898 -0.028701 0.050377 
-0.025668 -0.004264 0.004954 
-0.026162 -0.002682 0.014252 
0.025432 -0.005019 0.033190 
-0.027112 0.008665 0.024406 
-0.004656 -0.028000 0.042603 
-0.002038 -0.026000 0.016007 
-0.028000 -0.001819 0.020406 
-0.024511 -0.011649 0.000000 
0.017830 0.022170 0.051561 
-0.001150 -0.026000 0.012355 
-0.008311 -0.025778 0.014178 
-0.011969 -0.018359 0.001000 
0.028000 -0.005113 0.040043 
-0.020820 0.019180 0.044188 
0.025086 -0.006126 0.029067 
0.023327 0.011753 0.006571 
0.021992 0.016006 0.007431 
-0.025985 -0.012031 0.000745 
-0.023418 -0.002648 0.000000 
-0.000427 0.026000 0.022749 
-0.024048 0.009448 0.042643 
-0.027182 -0.000000 0.030489 
-0.024521 -0.014719 0.042030 
-0.016945 -0.002163 0.001000 
0.007817 0.004229 0.000000 
-0.027082 -0.003428 0.001000 
-0.016010 -0.020279 0.018931 
-0.014973 -0.024352 0.037221 
-0.001310 0.026000 0.003223 
-0.008165 -0.026165 0.029544 
-0.008217 -0.019835 0.001000 
0.006945 -0.005375 0.001000 
-0.010583 0.025164 0.052000 
0.027869 0.006393 0.003118 
-0.006272 0.027909 0.033808 
-0.005042 0.020766 0.000000 
-0.021660 -0.018340 0.019900 
0.025870 -0.012259 0.020395 
-0.008811 -0.026811 0.032741 
-0.028000 -0.005122 0.017528 
-0.026349 -0.002084 0.041111 
0.025312 0.005402 0.010837 
-0.007604 -0.027465 0.013554 
-0.014909 -0.024394 0.028193 
0.001055 0.026000 0.029752 
-0.020795 0.005412 0.000000 
-0.000417 0.026000 0.003781 
-0.027740 -0.006780 0.032854 
0.008475 -0.019667 0.000000 
0.026874 -0.009378 0.004522 
-0.011519 -0.026160 0.027337 
-0.019959 0.012696 0.000000 
0.003943 -0.026000 0.012072 
0.020400 0.019600 0.004478 
0.028551 0.000779 0.043021 
0.023023 -0.012725 0.015463 
0.005931 0.027483 0.001000 
0.016316 0.023456 0.015985 
-0.003056 0.012032 0.000000 
0.007926 -0.007354 0.000000 
0.016651 -0.017648 0.000000 
0.016761 0.023160 0.011374 
-0.023394 -0.011539 0.026256 
-0.005144 0.028000 0.037029 
0.011481 -0.000137 0.000000 
-0.014995 -0.024337 0.049273 
0.017786 -0.005194 0.001000 
0.018198 0.021802 0.039009 
-0.011854 0.026049 0.031126 
0.022858 0.013254 0.039301 
0.018919 0.010627 0.001000 
-0.018861 0.021139 0.035473 
-0.003982 0.028000 0.050778 
0.019000 0.008176 0.001000 
0.000883 0.028706 0.047848 
-0.025429 0.013141 0.008921 
0.000517 0.026000 0.000036 
-0.008684 -0.026684 0.007467 
-0.027536 -0.000000 0.034812 
0.020755 0.019245 0.016974 
0.028262 -0.000000 0.045202 
0.015411 -0.020706 0.015265 
-0.013423 -0.022127 0.037847 
-0.025671 -0.012658 0.021323 
0.004083 -0.028000 0.020318 
0.014662 0.024559 0.049838 
0.015146 0.012251 0.000000 
-0.025656 0.012689 0.009533 
-0.009071 0.017938 0.001000 
0.016339 0.020043 0.051506 
-0.009976 -0.008647 0.001000 
-0.026695 -0.000977 0.031376 
-0.016973 -0.023018 0.015645 
-0.026514 0.010459 0.048181 
-0.021228 -0.018772 0.036142 
0.010479 -0.026507 0.005914 
-0.008140 -0.027287 0.038249 
0.003118 0.018468 0.000000 
-0.011884 -0.026039 0.002174 
0.012213 -0.025893 0.021845 
0.012726 0.025637 0.024835 
-0.017254 0.019390 0.012487 
0.019696 0.020304 0.048585 
0.006433 0.026000 0.004239 
-0.028000 0.001395 0.013427 
-0.027461 0.007617 0.032178 
0.003208 -0.025983 0.001000 
0.027034 -0.008899 0.023072 
0.021959 -0.018041 0.031407 
-0.007389 -0.027537 0.040514 
-0.014523 -0.022725 0.052000 
0.014939 -0.021043 0.017365 
0.023186 0.012206 0.051506 
-0.018356 -0.018603 0.042722 
-0.000940 0.009119 0.000000 
0.013524 -0.022054 0.029302 
-0.007405 -0.018708 0.001000 
-0.002633 -0.009547 0.001000 
-0.020455 0.017103 0.040321 
0.028000 -0.004730 0.032477 
0.016096 -0.023603 0.008853 
-0.010827 0.026391 0.006661 
-0.028000 -0.003887 0.013632 
0.022952 0.017048 0.051338 
-0.028000 -0.004612 0.025914 
-0.016014 -0.023658 0.016798 
-0.022658 0.017342 0.018426 
0.015773 0.020448 0.049998 
-0.024730 0.007266 0.041329 
-0.000411 0.026000 0.013309 
0.008130 -0.025907 0.027681 
-0.014069 -0.024954 0.037427 
0.004278 0.028000 0.007093 
0.013097 -0.025156 0.000000 
-0.004467 -0.028000 0.021129 
-0.022949 -0.012962 0.051707 
0.019243 0.020757 0.032830 
0.025555 -0.004624 0.021402 
0.018912 0.018206 0.011387 
-0.022437 0.016437 0.004391 
0.016589 -0.015915 0.001000 
-0.022192 0.017808 0.028112 
0.019703 -0.020297 0.023256 
-0.008631 -0.002819 0.000000 
0.025936 -0.003403 0.017992 
-0.007069 0.027644 0.011919 
-0.008328 0.025766 0.012100 
0.028000 -0.001233 0.027341 
0.016556 0.022866 0.000000 
-0.014512 0.024659 0.001816 
-0.012047 0.025977 0.000912 
-0.011688 0.018693 0.000000 
-0.005161 0.012570 0.001000 
-0.028000 -0.004316 0.027880 
0.022415 -0.014671 0.012195 
-0.021822 0.018178 0.030228 
0.018510 0.018873 0.052000 
0.017428 0.019266 0.033046 
0.018628 -0.018409 0.002163 
-0.004148 0.026000 0.022157 
-0.026627 -0.001194 0.027135 
0.028000 -0.003578 0.032962 
0.019143 0.018040 0.016787 
0.025247 -0.005610 0.024551 
0.020782 0.016870 0.035509 
0.009331 0.016354 0.000000 
-0.009170 0.025165 0.026914 
0.028364 -0.001909 0.045093 
-0.012510 0.025745 0.007311 
-0.020947 -0.016752 0.025683 
-0.005000 0.028000 0.045485 
0.006394 -0.005060 0.000000 
-0.017260 0.022740 0.010372 
-0.002687 0.026000 0.000430 
-0.024444 0.008179 0.038806 
-0.006581 0.011134 0.001000 
-0.020453 -0.017105 0.005067 
-0.022673 -0.013846 0.012774 
0.022557 -0.016557 0.026896 
-0.026877 -0.009370 0.025405 
-0.007105 -0.027632 0.015408 
0.025692 0.007336 0.052000 
-0.022496 -0.016496 0.051878 
-0.010401 -0.024285 0.024794 
0.004582 0.028000 0.017319 
0.011130 0.023764 0.008285 
0.022361 0.017639 0.020217 
-0.020741 0.019259 0.006423 
0.017620 0.019129 0.014259 
0.027524 0.005684 0.052000 
0.005658 -0.011607 0.000000 
-0.028000 -0.005390 0.035192 
-0.023241 -0.012028 0.042579 
-0.014479 0.021372 0.041276 
0.022690 -0.016690 0.046045 
-0.021139 0.018861 0.000933 
0.011186 0.023724 0.049516 
0.012223 -0.022983 0.050574 
-0.018392 -0.018577 0.022524 
0.013085 -0.022368 0.046460 
-0.017334 0.022666 0.050895 
-0.028905 0.000284 0.050778 
-0.028000 -0.000236 0.020101 
-0.006320 -0.027893 0.049248 
-0.008670 0.026670 0.024057 
0.023600 0.010881 0.042751 
0.022179 0.015429 0.038833 
0.026378 -0.001990 0.019011 
-0.022963 0.016963 0.033794 
0.008958 0.025316 0.004669 
-0.013285 -0.025358 0.020519 
0.028000 -0.005050 0.040573 
0.007317 0.027561 0.010398 
-0.004382 0.012328 0.000000 
0.022466 -0.017534 0.024225 
0.018460 -0.018528 0.011082 
0.025406 -0.011408 0.000000 
0.004850 0.026000 0.032924 
-0.023680 -0.005629 0.001000 
0.018855 0.015556 0.000000 
0.028000 0.002132 0.009749 
-0.014652 -0.024565 0.013795 
0.000545 0.026000 0.016078 
0.017930 0.022070 0.020793 
-0.024886 -0.006765 0.036080 
-0.028000 0.004999 0.014689 
-0.024386 -0.014921 0.000195 
0.022251 -0.015196 0.049801 
-0.022675 0.013838 0.001810 
-0.028000 -0.004757 0.016013 
-0.025317 -0.005385 0.018909 
-0.001822 0.026000 0.012695 
0.028000 0.004935 0.007174 
-0.026027 0.011919 0.014456 
0.023208 0.012136 0.035687 
-0.016551 0.023299 0.015831 
-0.011418 0.023559 0.015391 
0.019169 -0.018022 0.051120 
0.012095 -0.025952 0.028433 
-0.003383 -0.028000 0.021600 
-0.019964 0.020036 0.000340 
0.012982 0.020349 0.001000 
-0.020171 -0.016047 0.001000 
-0.020384 -0.019616 0.003379 
-0.008113 0.025919 0.015378 
-0.026085 -0.002928 0.044573 
0.009761 -0.008981 0.001000 
0.023488 -0.016268 0.032993 
0.008299 0.026299 0.011467 
0.028000 -0.004173 0.015889 
0.025000 -0.014000 0.005736 
-0.015527 -0.020623 0.042496 
0.006027 -0.026000 0.016791 
0.022046 0.016046 0.049339 
-0.022900 -0.016900 0.009672 
-0.023758 0.015862 0.048556 
-0.024375 0.014938 0.051321 
0.019348 -0.020652 0.007571 
-0.026505 0.001585 0.039439 
0.009692 -0.007436 0.000000 
-0.019330 0.020670 0.039123 
0.001536 0.028000 0.005467 
0.026667 0.004777 0.052000 
0.017680 0.018320 0.001000 
0.022091 0.017909 0.025849 
-0.006433 -0.027470 0.001000 
-0.022319 -0.014979 0.023445 
0.016978 0.021257 0.052000 
-0.004928 0.028000 0.012218 
-0.022508 0.005065 0.000000 
-0.026966 0.000107 0.024384 
-0.027568 -0.007296 0.004113 
-0.001876 -0.028000 0.011604 
-0.000526 -0.026000 0.034677 
-0.004751 0.003101 0.001000 
0.005447 0.028000 0.050652 
-0.020355 -0.019645 0.016915 
0.016996 -0.005382 0.000000 
-0.023702 -0.015946 0.000958 
0.028437 0.001690 0.043813 
0.019799 -0.017572 0.029583 
0.001318 0.026000 0.039771 
-0.022369 0.017631 0.041092 
-0.014782 -0.024479 0.004636 
-0.002484 -0.026000 0.011161 
-0.003728 0.028000 0.044321 
0.025894 -0.003539 0.030104 
-0.016910 0.019636 0.043584 
-0.028000 -0.001312 0.007790 
-0.001857 -0.011421 0.000000 
-0.002772 0.026000 0.023665 
-0.023035 0.012689 0.051938 
0.011350 -0.023607 0.009774 
0.002775 -0.026000 0.051708 
0.022619 0.014020 0.025622 
-0.027357 0.007928 0.000175 
-0.015561 -0.023959 0.007781 
0.024677 -0.007434 0.001385 
0.014163 0.021598 0.016398 
0.003849 -0.026000 0.048539 
0.022930 0.016930 0.051486 
-0.017737 0.019045 0.043099 
-0.006517 -0.026000 0.049361 
-0.019883 -0.020117 0.019994 
0.006412 -0.027863 0.029814 
0.026636 -0.010092 0.009688 
-0.022184 -0.016184 0.013021 
0.013353 0.022177 0.040502 
-0.004782 -0.026000 0.009968 
-0.013691 0.025155 0.050045 
0.006449 -0.026794 0.000000 
0.008389 -0.026389 0.017460 
0.027531 0.000238 0.000000 
0.028000 -0.002805 0.019134 
0.024761 -0.007164 0.033232 
-0.025947 -0.012106 0.006067 
0.016028 0.020266 0.006105 
-0.024115 0.009232 0.019760 
-0.023051 -0.016924 0.025871 
-0.022341 -0.011496 0.001000 
0.018534 0.021466 0.021740 
0.028000 0.002609 0.014528 
0.022430 0.014623 0.009843 
0.008689 0.025504 0.000000 
0.026151 0.002717 0.043891 
-0.021229 0.016551 0.013822 
-0.021514 0.016347 0.024268 
0.011657 -0.026114 0.006287 
0.028000 -0.003777 0.018997 
-0.023167 -0.012265 0.023600 
0.017333 -0.022667 0.002819 
0.008070 -0.026070 0.005057 
0.006251 0.027916 0.004139 
0.023172 0.012249 0.023064 
-0.006211 -0.027930 0.051341 
-0.016305 -0.023464 0.003410 
-0.014620 0.021271 0.051328 
0.005426 0.026000 0.036443 
0.002984 -0.007659 0.001000 
0.018546 0.018467 0.035679 
0.011278 0.026241 0.030432 
0.013537 0.022045 0.051048 
0.013538 0.017029 0.000000 
-0.028000 0.004329 0.008139 
0.024270 -0.008738 0.037983 
0.016217 0.023522 0.036685 
-0.007370 0.015948 0.001000 
0.021365 -0.017083 0.052000 
-0.028000 0.001483 0.030670 
0.020149 -0.019851 0.018380 
-0.020141 0.002966 0.000000 
-0.023834 0.010130 0.037069 
-0.013193 -0.025404 0.021571 
0.022338 -0.017662 0.050289 
0.019696 0.020304 0.043464 
0.019517 0.017773 0.038088 
0.022492 -0.012111 0.000000 
0.020153 -0.005513 0.000000 
-0.008213 0.027262 0.017461 
-0.028000 -0.001532 0.026284 
-0.028000 0.004498 0.017018 
0.008845 0.026845 0.020139 
-0.022111 -0.015643 0.016314 
0.002021 -0.028000 0.021447 
-0.008731 0.017702 0.001000 
-0.006666 -0.000047 0.001000 
0.022161 0.015485 0.034297 
-0.026437 0.010689 0.051672 
-0.020565 0.017025 0.050376 
-0.017918 -0.019857 0.052000 
0.010765 0.024025 0.023887 
-0.025396 -0.005134 0.012112 
0.024600 -0.014599 0.026037 
0.001907 0.009605 0.000000 
-0.004885 -0.028000 0.039138 
0.022091 -0.003830 0.001000 
0.002820 0.026000 0.034019 
-0.004157 -0.008503 0.001000 
0.026273 0.002327 0.050296 
-0.014167 0.021595 0.005533 
0.011495 -0.026168 0.025180 
-0.010342 0.026553 0.010736 
0.011835 0.023261 0.018257 
0.009976 -0.024589 0.009387 
0.025224 -0.013552 0.013884 
0.007629 -0.027457 0.009179 
-0.005973 0.020971 0.001000 
-0.025353 -0.008210 0.001000 
0.021650 0.016250 0.002937 
-0.022048 0.015846 0.039795 
-0.016493 -0.023235 0.052000 
0.016296 -0.023470 0.003216 
-0.010137 -0.024474 0.035167 
-0.018813 0.018276 0.006442 
0.019477 0.020523 0.040026 
0.004714 -0.028000 0.037454 
0.025224 -0.005684 0.040120 
0.014067 -0.024955 0.017852 
0.012587 -0.022724 0.023163 
0.016792 -0.023138 0.037141 
-0.004712 -0.028000 0.042506 
0.014690 -0.024540 0.007137 
0.025941 0.009564 0.052000 
-0.018523 -0.009272 0.001000 
-0.019388 -0.014862 0.001000 
-0.019559 -0.017744 0.031511 
0.022110 0.017890 0.038212 
-0.009726 0.026758 0.027668 
-0.004615 -0.026000 0.014634 
0.024798 -0.007047 0.043273 
0.011077 0.020643 0.000000 
-0.009239 0.025115 0.027443 
0.021605 0.016388 0.000000 
0.015357 0.024096 0.048040 
0.023107 0.012456 0.010531 
-0.008273 0.025805 0.018525 
0.022181 -0.015420 0.025315 
-0.024151 -0.009117 0.049105 
0.025842 -0.003704 0.005591 
0.004547 -0.003154 0.001000 
0.028000 0.001805 0.028822 
-0.023470 0.016294 0.039473 
0.021092 -0.018908 0.026025 
-0.009753 0.026749 0.012664 
-0.008934 0.022390 0.001000 
-0.023312 -0.011802 0.000059 
0.028000 -0.005842 0.014329 
-0.022341 0.016341 0.010163 
0.026022 -0.007939 0.000000 
-0.000560 -0.025155 0.001000 
0.008432 -0.026432 0.005580 
-0.002970 -0.026000 0.024901 
0.002639 0.028120 0.038451 
-0.004497 -0.026000 0.041257 
-0.003805 -0.023821 0.001000 
0.009807 0.026731 0.041119 
-0.011342 0.003084 0.001000 
-0.018967 -0.018166 0.038938 
-0.008955 0.027015 0.028987 
-0.026829 -0.000547 0.047970 
-0.003741 -0.026000 0.041576 
-0.025597 0.004490 0.029441 
-0.027155 0.008535 0.021641 
0.025259 0.013483 0.022847 
0.003755 -0.023130 0.000000 
-0.001342 -0.026000 0.022996 
0.007690 -0.027437 0.032687 
-0.004612 -0.028000 0.017747 
-0.025093 -0.013814 0.031474 
0.024692 -0.007385 0.010525 
-0.022872 -0.013209 0.028575 
-0.003066 -0.022861 0.001000 
-0.012562 -0.025719 0.005425 
0.027180 -0.000000 0.017451 
-0.023628 -0.010790 0.023589 
0.028000 0.000690 0.031431 
0.028000 0.001799 0.026138 
0.009054 -0.026982 0.005088 
0.017762 0.022238 0.044699 
0.000451 -0.010298 0.000000 
-0.013202 0.023766 0.000000 
-0.020398 -0.019602 0.022530 
-0.007974 0.026000 0.040260 
0.028000 -0.003646 0.020428 
-0.013849 -0.025076 0.033420 
0.006318 -0.027894 0.008119 
-0.015439 0.024041 0.045327 
0.022763 -0.016763 0.046106 
-0.011677 0.026108 0.037974 
0.022029 0.016029 0.008057 
0.008692 -0.025506 0.016166 
0.028000 0.002395 0.003666 
-0.022662 0.016662 0.024502 
0.004033 0.027610 0.052000 
-0.025159 -0.005892 0.011420 
-0.014300 -0.005710 0.000000 
-0.022156 -0.016156 0.012298 
-0.005220 0.028000 0.036918 
0.001748 -0.003922 0.000000 
-0.008753 0.025462 0.014591 
-0.026208 -0.002534 0.044248 
0.008987 -0.027004 0.019953 
-0.015465 0.020668 0.028987 
-0.010792 0.024006 0.023398 
-0.008297 -0.026297 0.017576 
0.003356 -0.028000 0.014459 
0.025666 -0.004270 0.048133 
0.003078 -0.004401 0.000000 
0.008146 -0.025896 0.047874 
-0.015922 -0.012181 0.001000 
0.027308 -0.007754 0.001000 
0.001939 0.028354 0.051246 
-0.015660 -0.023893 0.015496 
0.004684 0.026000 0.030410 
-0.003410 -0.028000 0.000675 
-0.012835 -0.022400 0.001000 
0.023069 -0.012578 0.004165 
0.013718 -0.006655 0.001000 
0.026526 -0.001518 0.041928 
0.028000 -0.001864 0.000840 
-0.019824 0.020176 0.050285 
-0.028000 -0.001709 0.042078 
-0.006043 -0.027986 0.000789 
0.019187 0.020383 0.000000 
0.028000 -0.002820 0.013923 
0.026372 0.002010 0.027869 
-0.022600 -0.014079 0.012926 
0.008867 0.026867 0.001377 
0.022751 0.013597 0.049685 
0.011193 -0.026269 0.022387 
-0.025326 0.005961 0.052000 
0.016701 -0.009754 0.000000 
0.025116 0.013768 0.019623 
0.012257 0.025872 0.037198 
-0.017066 -0.019524 0.014003 
0.011982 -0.023156 0.036885 
-0.025323 -0.005365 0.039787 
-0.010967 -0.026344 0.043638 
-0.004514 -0.028000 0.024298 
0.021315 0.016489 0.006799 
0.011673 0.023376 0.026215 
0.013014 -0.022419 0.044652 
0.025812 0.012375 0.040067 
0.025540 0.004672 0.035312 
0.027648 -0.007055 0.001949 
-0.003921 -0.028000 0.015826 
-0.006052 0.027983 0.011081 
-0.027842 -0.006475 0.009167 
0.006198 0.027934 0.014329 
-0.011745 0.026085 0.018241 
-0.013181 -0.004984 0.000000 
0.022557 -0.014218 0.009972 
0.001869 -0.026000 0.034326 
-0.008798 0.027067 0.047540 
0.013790 0.021864 0.008803 
0.023415 0.011581 0.000000 
-0.020016 -0.019984 0.043624 
-0.028000 0.003753 0.029074 
0.026257 -0.002377 0.017427 
0.003035 -0.028000 0.028111 
0.025546 -0.012908 0.026998 
0.013266 0.025367 0.010586 
0.010669 -0.024094 0.045825 
-0.010910 -0.025788 0.001000 
-0.019816 -0.020184 0.024370 
-0.018837 -0.021163 0.002756 
-0.021079 0.009903 0.001000 
0.020419 -0.017129 0.021555 
-0.006007 0.027998 0.038207 
-0.023956 0.009742 0.051944 
-0.001303 -0.028000 0.027454 
-0.002848 0.018341 0.000000 
-0.007647 0.014630 0.001000 
-0.022602 0.014073 0.049462 
-0.022009 0.017991 0.045924 
-0.014266 -0.021524 0.012473 
-0.022748 -0.013606 0.047152 
-0.025136 -0.005964 0.013886 
-0.002884 0.026000 0.005786 
0.010238 0.024402 0.000069 
-0.011929 -0.023194 0.029348 
0.027829 0.006514 0.002237 
0.022341 -0.017659 0.018314 
0.026123 -0.011630 0.010022 
-0.015040 0.020971 0.048495 
-0.026257 0.002376 0.038736 
0.009017 -0.015445 0.001000 
0.007376 0.026000 0.016207 
-0.011885 0.023225 0.027700 
-0.024451 0.008158 0.028604 
0.028000 -0.005959 0.032846 
-0.016890 -0.019650 0.020867 
0.006491 0.027836 0.000489 
-0.008610 0.026610 0.024300 
-0.014506 0.024663 0.021691 
-0.028000 0.002167 0.026640 
-0.011295 -0.023646 0.006689 
-0.021153 -0.016605 0.026737 
0.008430 0.027190 0.049783 
0.028000 0.001352 0.001054 
-0.025837 0.003722 0.045073 
0.023164 0.016754 0.016928 
0.028000 -0.001378 0.002518 
0.024678 -0.014483 0.048777 
0.008142 -0.027286 0.011757 
0.002189 0.027516 0.000000 
0.026101 0.002876 0.022826 
0.004771 -0.025856 0.000000 
0.024298 0.008646 0.033020 
-0.028000 -0.001932 0.022901 
0.016594 -0.023271 0.033207 
-0.009727 -0.000948 0.000000 
0.016222 0.020127 0.027428 
-0.020954 0.019046 0.039223 
-0.018838 0.018258 0.039855 
0.024031 -0.009501 0.023191 
-0.020994 0.016718 0.007491 
-0.004599 -0.026000 0.025377 
-0.028000 -0.003416 0.015929 
0.008872 0.025377 0.007428 
0.028000 -0.004761 0.042286 
0.005716 -0.015642 0.001000 
-0.021492 0.005394 0.001000 
-0.013571 0.025215 0.046905 
-0.025448 -0.004966 0.039158 
0.009400 -0.026867 0.024813 
-0.013307 0.025347 0.010841 
0.016396 -0.023402 0.045339 
0.028000 0.004397 0.013175 
0.000431 -0.021518 0.000000 
0.006280 0.016986 0.000000 
0.009631 -0.024835 0.034767 
0.022986 -0.012845 0.010922 
0.006387 -0.027871 0.023953 
0.018116 -0.018774 0.022030 
0.016853 -0.019677 0.014483 
-0.026493 -0.001623 0.024395 
-0.003655 0.027838 0.000000 
-0.020921 -0.019079 0.011663 
0.026664 0.001076 0.034870 
0.022722 0.017278 0.033776 
0.005866 -0.026000 0.029270 
-0.021274 -0.016519 0.001023 
0.016807 0.023128 0.051128 
-0.008415 0.026415 0.035296 
0.008987 -0.025295 0.021481 
-0.012651 0.001717 0.001000 
-0.004581 0.028000 0.004746 
0.014158 0.017592 0.001000 
-0.021933 0.018067 0.009228 
0.016037 -0.023642 0.030251 
0.020254 0.017247 0.029570 
0.019231 0.020769 0.044254 
0.017580 -0.022420 0.007102 
0.028000 -0.003724 0.041531 
-0.019552 0.000368 0.001000 
0.002955 0.019107 0.000000 
0.024259 0.008773 0.000111 
0.011602 -0.026133 0.011008 
-0.020433 0.008237 0.001000 
0.022050 0.015840 0.016638 
-0.004803 -0.028000 0.041650 
0.028000 0.004574 0.040471 
-0.013880 0.021800 0.037383 
0.023509 -0.008422 0.001000 
0.025949 -0.003363 0.028192 
0.015357 -0.020745 0.036741 
-0.002593 -0.026000 0.025308 
0.026992 0.009024 0.018020 
0.025215 -0.005711 0.009361 
0.024148 -0.009126 0.038310 
-0.025608 0.000141 0.000000 
0.014362 -0.021456 0.033002 
-0.017408 -0.022592 0.013489 
0.001676 -0.026000 0.050571 
0.025612 -0.012776 0.037720 
-0.006104 0.027965 0.049044 
-0.008634 -0.026634 0.002333 
0.026866 0.000430 0.020841 
-0.001335 -0.026000 0.046491 
0.018710 0.018350 0.019406 
0.020329 -0.017193 0.011389 
-0.017998 -0.013258 0.001000 
-0.026928 -0.009217 0.042155 
-0.024391 -0.008348 0.010258 
-0.015188 -0.000863 0.000000 
-0.018755 -0.018318 0.015959 
-0.028041 0.001223 0.032817 
-0.006522 -0.004698 0.001000 
0.023771 -0.015844 0.049609 
-0.018943 -0.021057 0.024934 
-0.022030 -0.017970 0.012840 
-0.016897 -0.019645 0.035161 
0.000411 -0.006721 0.001000 
-0.004875 -0.004234 0.001000 
-0.024885 -0.007542 0.001000 
0.002756 0.026000 0.031878 
0.004912 -0.026000 0.002183 
-0.016520 -0.015718 0.000000 
0.003748 -0.004293 0.001000 
-0.020470 -0.019530 0.022135 
-0.027116 0.008652 0.039575 
0.020973 -0.008832 0.001000 
-0.021012 0.018988 0.013925 
0.020454 0.017104 0.014165 
-0.026261 0.002366 0.039782 
0.026692 -0.000986 0.032974 
-0.021580 -0.016300 0.044294 
0.020835 0.019165 0.014646 
-0.018427 -0.018552 0.010608 
0.013698 -0.009627 0.001000 
-0.025992 0.003225 0.033972 
0.023264 -0.016605 0.027363 
0.020137 0.018055 0.000000 
-0.012818 -0.022558 0.011559 
0.026965 -0.009106 0.002145 
0.010725 0.024054 0.045470 
0.019504 -0.019394 0.001000 
0.027240 -0.008279 0.014857 
-0.022705 -0.013742 0.021364 
-0.020949 0.016751 0.027903 
0.019663 -0.011327 0.001000 
-0.003594 -0.028000 0.043604 
-0.000145 -0.028000 0.011013 
0.011556 -0.009752 0.000000 
-0.022733 0.016733 0.032548 
0.019323 -0.020677 0.010458 
0.011188 -0.011982 0.000000 
0.001956 -0.005531 0.001000 
-0.006941 0.026000 0.045226 
-0.024700 -0.014449 0.028750 
-0.005898 0.028000 0.022369 
0.010433 0.024262 0.030128 
0.001543 -0.026000 0.005580 
-0.024620 -0.007616 0.038564 
-0.013683 -0.018886 0.000000 
0.021528 -0.018472 0.039468 
0.020275 0.017232 0.001359 
-0.027787 0.006639 0.026567 
0.023939 -0.009795 0.044997 
0.003701 -0.016376 0.000000 
-0.019220 0.017986 0.035145 
0.010371 -0.024306 0.017663 
-0.003910 0.028000 0.050514 
0.021310 -0.016493 0.022125 
-0.001946 -0.026000 0.026452 
0.013547 0.016252 0.001000 
0.004262 0.028000 0.006711 
0.006126 0.026000 0.046840 
0.024593 0.007703 0.044080 
-0.025586 -0.004525 0.038183 
-0.022992 0.016992 0.014817 
-0.023517 0.002098 0.000000 
0.023676 0.010636 0.038846 
0.022161 0.015486 0.031002 
-0.026793 -0.009014 0.052000 
0.006355 -0.027882 0.009473 
0.005788 0.020797 0.000000 
0.006887 -0.002759 0.001000 
0.015628 -0.020552 0.020654 
0.008617 -0.026617 0.047893 
-0.004637 -0.028000 0.011766 
0.023910 -0.009887 0.004767 
0.016504 0.019926 0.020007 
0.026496 -0.010511 0.002051 
-0.015341 0.020756 0.029943 
0.028431 -0.001707 0.047169 
0.012917 0.022488 0.003352 
0.017217 -0.022397 0.052000 
-0.008181 0.026181 0.020515 
0.026266 -0.002350 0.043085 
-0.023170 0.012256 0.033634 
0.022811 -0.016811 0.021904 
0.017506 0.022494 0.016726 
0.025788 -0.003877 0.037003 
-0.012130 -0.025935 0.009269 
0.025405 0.013190 0.020612 
0.024513 0.014730 0.024883 
-0.014176 0.021588 0.022277 
-0.014173 0.024885 0.013658 
0.000223 0.026000 0.037977 
0.003437 0.026000 0.051367 
0.017306 -0.022694 0.001842 
-0.027088 0.004073 0.052000 
0.015313 -0.024125 0.004780 
0.008440 -0.025686 0.024495 
0.025476 -0.013047 0.043561 
-0.027159 -0.005728 0.000000 
-0.002816 -0.024063 0.000000 
-0.009359 0.026880 0.030754 
-0.014654 -0.005864 0.000000 
-0.022316 0.014990 0.032198 
-0.023221 -0.012091 0.023099 
-0.025698 0.012603 0.000764 
0.018602 0.016198 0.000000 
0.008882 -0.018787 0.000000 
-0.008421 0.027193 0.018937 
0.006771 0.027743 0.000741 
0.001516 0.028000 0.004177 
0.019163 -0.014418 0.000000 
0.025698 0.004166 0.051096 
0.002271 -0.026000 0.024790 
-0.026442 0.001785 0.048051 
0.019082 0.008190 0.000000 
-0.026503 -0.001589 0.022984 
0.002468 0.000109 0.001000 
-0.008145 0.026145 0.004048 
-0.009839 -0.026327 0.000000 
-0.011979 -0.023158 0.047884 
0.026074 0.011779 0.049725 
-0.018560 -0.021440 0.027550 
0.008561 -0.023216 0.000000 
0.013278 -0.025361 0.015048 
-0.004321 -0.028000 0.040682 
0.001871 0.028376 0.049460 
0.006293 0.027902 0.038064 
0.013913 -0.025044 0.048818 
0.017612 0.022388 0.028208 
-0.019808 -0.017566 0.040951 
-0.023969 -0.015446 0.001000 
-0.022847 0.016847 0.027978 
0.027177 -0.008469 0.004245 
0.028000 0.005494 0.031655 
0.028000 0.002584 0.030258 
0.017972 0.022028 0.010343 
0.011219 -0.009313 0.000000 
0.005019 0.026702 0.001000 
0.017545 -0.014535 0.000000 
-0.008565 0.025597 0.050330 
0.028000 0.002111 0.023809 
0.016570 0.020603 0.052000 
0.016690 -0.023207 0.023897 
-0.024663 0.007479 0.019337 
-0.021824 0.016126 0.027609 
0.007656 -0.027448 0.025206 
-0.002790 0.023495 0.001000 
0.023199 -0.012163 0.006504 
-0.017855 0.018960 0.040304 
0.026775 -0.000720 0.009757 
-0.009600 0.026800 0.002878 
0.022464 0.014114 0.001000 
0.022129 0.016129 0.004946 
-0.019908 -0.020092 0.009886 
0.011046 0.014216 0.001000 
0.025700 -0.004160 0.022328 
-0.008293 -0.027236 0.042431 
0.024406 0.008299 0.009219 
-0.016789 0.019722 0.039756 
0.010140 -0.026620 0.026235 
0.015618 -0.000398 0.000000 
0.023341 -0.011708 0.000364 
-0.024045 0.009456 0.022006 
0.020604 -0.019396 0.013506 
0.001743 0.028000 0.008960 
0.005169 0.028000 0.030028 
0.028342 0.001973 0.046989 
-0.003590 0.026000 0.020657 
0.023133 0.014128 0.000000 
0.026487 -0.001641 0.048590 
-0.000387 -0.026000 0.006757 
0.004794 0.022648 0.000000 
0.021296 -0.003231 0.001000 
0.025865 -0.012270 0.033616 
0.023224 0.012084 0.038858 
-0.008318 0.026318 0.012652 
0.007103 0.001104 0.001000 
0.025619 0.004420 0.045747 
0.008784 0.027072 0.029348 
0.014019 -0.021701 0.001051 
0.028000 -0.001375 0.029077 
-0.017759 -0.021739 0.052000 
-0.018192 -0.004614 0.000000 
0.022104 0.016104 0.046234 
0.009046 -0.006434 0.000000 
0.026992 0.000027 0.027880 
0.013357 0.013095 0.001000 
0.022771 -0.013534 0.010061 
0.020720 0.016915 0.027443 
-0.000740 -0.026000 0.048997 
0.014657 -0.004189 0.001000 
0.015982 -0.023679 0.020067 
-0.023606 0.010859 0.033291 
0.021770 -0.018230 0.008032 
0.023773 -0.010326 0.045243 
-0.003440 -0.003576 0.000000 
0.017123 -0.022877 0.003406 
0.028000 0.003276 0.037493 
0.026837 -0.000522 0.049623 
-0.010526 -0.021836 0.001000 
-0.025351 0.005277 0.023464 
-0.011029 -0.023837 0.000022 
-0.001552 0.003915 0.001000 
-0.026480 -0.003215 0.000000 
-0.018317 0.014752 0.000000 
-0.021108 -0.008280 0.000000 
0.015013 -0.020990 0.000859 
0.024189 -0.008995 0.051038 
0.002313 -0.015036 0.001000 
-0.012119 0.006095 0.001000 
-0.027865 0.006404 0.028386 
-0.023449 0.003128 0.000000 
-0.016703 -0.022808 0.000000 
0.023710 -0.010529 0.002117 
0.022807 0.005181 0.001000 
-0.015464 -0.024024 0.032403 
0.028080 -0.000088 0.033599 
0.007763 0.026000 0.037754 
-0.007463 0.027512 0.018936 
0.022609 -0.017391 0.033470 
0.011274 -0.026242 0.040678 
-0.028000 -0.001488 0.016222 
0.021216 0.006297 0.001000 
-0.028000 0.004841 0.006132 
0.027320 -0.008039 0.002127 
-0.023907 0.009896 0.001069 
0.004628 0.028000 0.039133 
0.015214 0.013443 0.001000 
-0.009872 -0.024663 0.022059 
-0.013118 0.008540 0.000000 
-0.012883 -0.022512 0.049629 
-0.015723 -0.020470 0.000000 
-0.008534 0.026534 0.017663 
-0.026955 0.000145 0.024142 
0.002349 0.028217 0.050248 
0.013022 -0.022413 0.013860 
-0.016610 -0.023260 0.018716 
-0.010082 0.024513 0.046230 
-0.003316 -0.000768 0.000000 
-0.008626 -0.026626 0.049666 
-0.005131 -0.026000 0.045953 
0.000478 -0.026000 0.004907 
-0.015927 -0.020338 0.044597 
0.014567 -0.024622 0.027852 
0.019087 -0.020913 0.005254 
-0.018092 -0.021908 0.047256 
0.022733 -0.013655 0.026707 
0.026349 -0.002085 0.004065 
-0.002631 -0.026000 0.050650 
-0.002604 -0.028000 0.004172 
-0.028067 -0.002101 0.047353 
-0.001677 -0.020525 0.000000 
0.027422 0.007733 0.000887 
-0.008974 0.026974 0.043329 
-0.007339 -0.027554 0.000260 
-0.027901 -0.006296 0.024451 
-0.028305 0.002085 0.042356 
0.014066 -0.021667 0.048811 
-0.000609 0.004193 0.000000 
0.012691 0.022649 0.040386 
-0.001119 -0.026000 0.005168 
0.007617 0.027461 0.037581 
0.024610 0.007649 0.036096 
-0.016850 -0.023100 0.007353 
-0.008743 -0.026743 0.019502 
0.018863 -0.021137 0.035402 
0.011478 -0.010898 0.000000 
0.022633 0.013975 0.015121 
0.005535 0.026000 0.029464 
-0.018029 0.007213 0.000000 
-0.022103 0.015669 0.040461 
-0.015386 0.000148 0.000000 
0.022935 0.013007 0.045629 
0.024985 0.006447 0.006055 
0.010551 0.024178 0.050971 
0.004338 0.027099 0.000000 
-0.015578 0.023948 0.009480 
-0.008147 0.026147 0.008148 
-0.026772 -0.000730 0.038430 
0.023618 0.010821 0.007141 
0.001414 0.028000 0.017755 
-0.027606 0.007183 0.006632 
-0.012099 0.023072 0.032674 
0.022023 0.014681 0.000000 
0.012500 -0.022786 0.043580 
-0.026606 -0.010182 0.038501 
0.002661 -0.026000 0.027390 
-0.020309 0.017208 0.019850 
-0.005761 -0.026000 0.009705 
-0.010019 0.007033 0.001000 
-0.021263 -0.017784 0.001000 
0.015581 0.023946 0.003178 
-0.025262 0.005561 0.043749 
0.028102 0.000840 0.034038 
-0.024490 -0.008033 0.027010 
-0.020458 0.017101 0.045635 
0.002499 -0.026000 0.022217 
-0.027183 -0.000000 0.012699 
0.025496 -0.004814 0.014121 
-0.014190 0.021578 0.024880 
-0.016174 0.023551 0.029463 
0.024334 0.008531 0.030346 
0.021066 0.018934 0.008537 
0.024000 0.015500 0.042815 
-0.013365 0.022168 0.011121 
-0.007789 0.024578 0.001000 
0.020625 0.016982 0.047921 
-0.001777 0.028000 0.004801 
0.004593 0.028000 0.014722 
0.005717 0.028000 0.046469 
-0.001470 -0.026000 0.022359 
0.004184 0.028000 0.035590 
-0.021399 0.014459 0.000000 
-0.024035 -0.009488 0.044732 
0.013746 -0.025127 0.041594 
0.016165 -0.020168 0.015052 
0.022586 -0.014124 0.010709 
-0.028000 0.001502 0.026460 
-0.022859 0.016859 0.004287 
0.028026 -0.002922 0.045242 
0.013963 0.025018 0.038721 
-0.010632 -0.018424 0.001000 
0.025071 0.011431 0.000000 
-0.016866 0.001600 0.000000 
-0.005030 -0.022711 0.001000 
-0.015520 0.011978 0.000000 
-0.025164 -0.013672 0.043033 
0.013642 0.021970 0.007663 
-0.017315 -0.022685 0.039015 
-0.008080 -0.026080 0.016011 
-0.020167 0.019833 0.017089 
-0.008399 -0.026399 0.003612 
-0.019382 0.017870 0.051047 
-0.017734 -0.019047 0.003958 
