
# .PCD v.6 - Point Cloud Data file format
FIELDS x y z 
SIZE 4 4 4 
TYPE F F F 
COUNT 1 1 1 
WIDTH 1646
HEIGHT 1
VIEWPOINT 0.000000 0.000000 0.000000 1.000000 0.000000 0.000000 0.00000
POINTS 1646
DATA ascii
-0.007879 0.025212 0.003391 
-0.004475 0.031039 0.049786 
0.005632 0.007734 0.000000 
0.003559 0.028156 0.010022 
-0.008694 -0.010167 0.001000 
-0.024955 -0.016827 0.058415 
0.005764 0.027646 0.005171 
-0.011057 -0.026915 0.015813 
0.023373 0.012009 0.017612 
-0.031987 -0.002303 0.063690 
-0.027093 0.004172 0.000744 
-0.020592 -0.021656 0.023349 
0.023650 -0.004498 0.000000 
0.014270 0.023556 0.036921 
-0.028802 0.004775 0.018429 
-0.027331 0.006553 0.044995 
-0.029525 -0.006874 0.036096 
0.030869 -0.002473 0.037513 
0.004171 -0.021353 0.000000 
-0.016550 0.018619 0.002063 
-0.002332 0.031805 0.059327 
0.028899 0.006835 0.023519 
-0.005700 -0.028899 0.019684 
-0.024834 0.008100 0.019639 
-0.024258 0.016131 0.046534 
-0.006172 -0.030488 0.050192 
-0.024324 -0.017493 0.040730 
-0.017419 -0.001406 0.000000 
-0.025277 0.018277 0.055283 
-0.003875 0.025970 0.000000 
0.022617 -0.019623 0.025166 
-0.011893 -0.028901 0.052772 
0.029051 -0.009055 0.036479 
-0.005753 0.026694 0.000000 
-0.013737 -0.009654 0.000000 
-0.028776 -0.000000 0.024457 
-0.012634 0.029054 0.062362 
0.021551 0.016845 0.001585 
0.030715 0.005149 0.049641 
-0.031651 -0.003661 0.060467 
-0.023740 -0.020140 0.042397 
-0.028894 -0.004538 0.019620 
-0.012787 0.028949 0.061077 
-0.015643 0.027678 0.055999 
0.027600 -0.002816 0.032498 
-0.009979 0.028386 0.031158 
0.015729 0.027579 0.055327 
-0.023928 0.014425 0.035030 
-0.011762 -0.027441 0.060873 
0.002971 -0.028102 0.009200 
-0.027027 0.005536 0.036762 
-0.027816 -0.007064 0.053388 
-0.021221 0.014825 0.001000 
-0.015857 -0.022335 0.036261 
-0.004158 -0.019838 0.000000 
0.018404 0.008698 0.000000 
-0.015707 -0.011031 0.000000 
0.016838 0.025910 0.041955 
0.028722 -0.002520 0.045594 
-0.009963 -0.024236 0.007915 
0.006287 -0.025307 0.004914 
0.010056 0.025155 0.019472 
0.004307 -0.025650 0.010403 
-0.015039 0.010931 0.001000 
0.030328 0.004172 0.064000 
0.004201 -0.031108 0.049790 
0.020092 0.020826 0.054945 
-0.011571 0.027685 0.028726 
-0.004652 0.005713 0.000000 
-0.017885 0.020344 0.031050 
-0.027401 0.011058 0.022241 
-0.000751 -0.025125 0.001998 
-0.007189 0.028560 0.056955 
-0.001904 0.031709 0.057017 
-0.013075 -0.023573 0.026868 
0.026755 -0.010020 0.009238 
-0.027437 -0.009763 0.016989 
-0.028122 0.003412 0.009589 
-0.001836 -0.027903 0.007225 
0.018913 -0.022152 0.060347 
0.021211 -0.015514 0.007118 
-0.027122 0.011722 0.021418 
0.018668 0.022722 0.018852 
0.003497 0.028188 0.010443 
0.021546 -0.018230 0.038439 
-0.026406 -0.013564 0.020296 
-0.008168 0.027559 0.011658 
-0.004965 0.028636 0.016265 
0.010621 -0.028158 0.030956 
-0.021138 0.023778 0.061965 
0.016518 -0.022810 0.047498 
-0.029378 -0.003155 0.056698 
-0.004810 0.028180 0.050885 
-0.003800 0.007991 0.001000 
0.017846 0.017762 0.003536 
0.023523 0.016950 0.028255 
-0.002797 -0.028035 0.048556 
-0.022438 0.016227 0.013487 
0.011090 0.017405 0.000000 
0.016218 -0.023594 0.054085 
0.025191 -0.003260 0.003550 
-0.003611 -0.026797 0.000000 
-0.028502 -0.011874 0.043037 
0.020041 -0.020574 0.012001 
0.006855 -0.025282 0.000000 
0.017809 -0.025503 0.045414 
-0.009854 -0.025675 0.001757 
0.002092 0.025990 0.015848 
0.028948 0.002953 0.050332 
0.016403 0.023043 0.049238 
0.003740 0.031592 0.059712 
0.019471 -0.019953 0.039773 
0.019173 -0.019746 0.035187 
-0.029385 -0.003251 0.057202 
-0.012538 0.026980 0.023270 
0.022115 -0.013406 0.007470 
-0.024159 0.017373 0.050314 
0.017259 0.019974 0.000000 
-0.023454 0.017177 0.042809 
-0.025272 0.009468 0.000000 
-0.004897 0.025046 0.000742 
-0.023615 0.013625 0.000000 
0.017462 0.025253 0.038793 
-0.001751 -0.031159 0.043814 
0.023709 0.011248 0.018661 
0.017784 0.025009 0.038458 
-0.007869 -0.025123 0.001971 
-0.025279 0.018279 0.055340 
0.000607 -0.030622 0.032823 
0.026304 0.009993 0.046529 
0.001023 -0.014813 0.000000 
0.015249 -0.023005 0.038873 
0.025857 0.000747 0.001350 
-0.023163 0.020920 0.042009 
-0.016195 0.021316 0.027589 
0.004362 -0.023969 0.000000 
-0.006258 0.027575 0.041207 
0.016648 0.011522 0.001000 
0.006194 -0.029756 0.036587 
0.029358 -0.000879 0.046729 
0.028901 0.006429 0.021619 
-0.014813 -0.027575 0.064000 
0.001583 0.028213 0.051405 
-0.026604 -0.011400 0.013249 
-0.000448 -0.031676 0.056233 
-0.001683 -0.028868 0.061888 
0.012985 0.017765 0.001000 
0.026451 -0.016123 0.042868 
-0.016760 -0.008859 0.000000 
-0.010520 -0.023411 0.001000 
-0.004032 -0.028563 0.015319 
0.022114 0.019820 0.060535 
-0.019878 0.025049 0.062266 
0.018768 -0.020571 0.040600 
0.008562 -0.026909 0.012832 
-0.010693 -0.016443 0.001000 
-0.025939 -0.017653 0.050192 
0.024492 0.008450 0.016754 
-0.023838 -0.017129 0.038658 
0.014793 -0.027371 0.044278 
-0.008324 0.026153 0.010383 
0.021842 -0.017805 0.006589 
-0.027958 -0.000778 0.028377 
0.003949 0.028739 0.059819 
0.016799 0.026848 0.055089 
0.026670 0.001903 0.016703 
-0.024212 -0.010249 0.020848 
0.027346 0.001131 0.002765 
0.005252 -0.022341 0.000000 
0.029067 0.001303 0.017758 
-0.029373 -0.011737 0.062849 
0.030601 0.004264 0.040525 
-0.022136 -0.015781 0.010568 
0.029883 0.005515 0.034704 
-0.003461 0.027781 0.044494 
0.014874 0.022124 0.025396 
0.016310 -0.022067 0.037007 
0.012842 -0.026743 0.021338 
0.025931 -0.011642 0.048790 
0.023030 0.019979 0.032583 
0.015449 0.024160 0.054119 
-0.011081 0.023141 0.000000 
-0.028886 0.007942 0.030451 
-0.029637 -0.000000 0.022062 
-0.029072 0.004822 0.022360 
-0.029236 0.010338 0.048383 
-0.014071 0.021556 0.012917 
-0.027203 0.004926 0.036420 
-0.009752 -0.028852 0.050114 
0.031045 -0.006424 0.062094 
0.012135 -0.024797 0.033129 
-0.004211 0.031093 0.049501 
-0.026024 -0.013081 0.056117 
-0.028284 0.010489 0.032114 
0.027323 -0.006599 0.004977 
0.027532 0.015604 0.053463 
0.002934 -0.026032 0.016518 
-0.031890 -0.001737 0.061352 
0.003101 -0.027886 0.007091 
0.018549 0.018774 0.019887 
-0.027626 0.011530 0.027686 
-0.028530 0.012762 0.050819 
0.007823 0.028222 0.018789 
0.028743 0.002871 0.047356 
0.021403 -0.018629 0.041485 
-0.003748 0.000066 0.000000 
-0.011598 0.024166 0.021128 
-0.010842 -0.026289 0.039490 
-0.023699 -0.020724 0.050159 
0.025092 0.017920 0.040551 
0.012456 0.027901 0.036004 
0.011415 0.026179 0.043122 
-0.027128 -0.000000 0.011280 
0.022416 -0.016302 0.007263 
0.006578 0.015925 0.000000 
-0.028593 0.011798 0.044613 
0.008348 -0.025944 0.011126 
-0.008220 0.028994 0.031464 
0.004028 -0.027704 0.043260 
-0.020262 -0.018463 0.002897 
0.016613 -0.025257 0.032387 
-0.027275 0.003622 0.002199 
-0.016277 -0.025676 0.034613 
0.026762 -0.008116 0.044383 
0.005493 -0.027703 0.043248 
0.027428 -0.015100 0.048302 
0.025592 0.017073 0.039702 
-0.014552 -0.027886 0.053259 
-0.021715 0.023236 0.062809 
0.024665 0.019450 0.049095 
-0.009882 -0.027321 0.043333 
0.027430 -0.010441 0.019827 
0.030816 -0.002783 0.037562 
0.001391 -0.029946 0.024894 
-0.026781 0.011520 0.059155 
-0.016358 -0.024307 0.016642 
0.007548 0.014900 0.001000 
0.009158 0.028433 0.027913 
0.022128 0.022619 0.057924 
0.009702 0.003906 0.000000 
0.025419 0.010935 0.039220 
-0.009042 -0.027085 0.029324 
0.005129 -0.028445 0.013787 
-0.024564 0.014684 0.008251 
-0.025660 -0.015448 0.061560 
-0.005354 0.031409 0.063936 
0.023454 -0.020412 0.040899 
0.014020 -0.011501 0.000000 
0.011297 -0.024239 0.019393 
0.009773 0.029358 0.049723 
0.016825 -0.019799 0.016718 
-0.020578 0.024377 0.064000 
0.030273 0.004130 0.033349 
-0.022968 0.017540 0.012267 
-0.023078 -0.016773 0.035507 
0.010431 -0.025689 0.028932 
0.005982 0.016591 0.000000 
0.016491 -0.020313 0.019427 
-0.016909 -0.024899 0.030556 
-0.016699 -0.018724 0.004374 
-0.022214 -0.004029 0.000000 
0.022112 0.013448 0.000000 
0.030713 -0.005255 0.050106 
-0.009157 -0.027903 0.046450 
0.019667 -0.020202 0.043993 
0.018923 -0.021170 0.008923 
0.017707 -0.025218 0.040320 
0.009941 0.029585 0.053559 
-0.028076 -0.004290 0.044876 
0.004712 0.029985 0.064000 
0.011145 -0.024952 0.000254 
-0.017122 -0.024621 0.029005 
0.026092 0.002943 0.013728 
0.008031 -0.029181 0.035268 
0.024673 0.019351 0.048258 
0.002940 -0.025866 0.013852 
-0.016018 -0.025073 0.022736 
-0.006641 0.027327 0.005177 
0.022100 0.018224 0.042866 
-0.024481 -0.016920 0.052746 
0.009316 -0.028814 0.034572 
-0.012063 0.026315 0.050282 
0.023188 -0.017812 0.047344 
0.029969 0.000291 0.021623 
-0.019959 -0.024163 0.046758 
0.017845 -0.017468 0.000434 
-0.031321 0.004048 0.055988 
0.027802 0.002807 0.006418 
-0.016571 -0.025087 0.064000 
-0.010066 0.025497 0.001117 
0.020406 -0.017937 0.026115 
-0.012268 -0.018355 0.001000 
0.020102 0.020264 0.048450 
0.025628 -0.008467 0.000000 
-0.016408 0.027556 0.061531 
-0.013653 -0.021133 0.005070 
0.005287 -0.030890 0.051735 
0.024701 0.015988 0.051588 
-0.022639 -0.016518 0.005713 
0.020266 0.016318 0.007931 
-0.012583 0.009111 0.000000 
-0.011189 0.024618 0.000000 
-0.005893 0.027206 0.001649 
0.000822 0.027730 0.043676 
-0.009874 0.028557 0.057734 
0.026387 -0.005263 0.027415 
0.029081 -0.006173 0.023364 
-0.015224 -0.023768 0.006004 
-0.028098 0.008417 0.062771 
-0.029169 0.006997 0.030532 
-0.025068 -0.007829 0.021476 
0.028590 -0.004602 0.052781 
-0.024551 -0.012626 0.000741 
0.002003 0.003958 0.000000 
-0.004650 -0.028786 0.060582 
-0.007849 0.027484 0.009311 
-0.025840 -0.018193 0.053952 
0.015194 0.000251 0.000000 
-0.003038 -0.025969 0.015497 
-0.004249 -0.026872 0.029947 
0.018456 0.017162 0.002153 
0.016399 -0.018786 0.002593 
-0.017340 -0.024032 0.023943 
0.026629 0.016851 0.052431 
0.023057 0.011269 0.010408 
0.025351 0.012058 0.043139 
-0.023816 0.016984 0.044516 
-0.017848 0.025512 0.045916 
0.001485 -0.011766 0.001000 
0.018975 -0.015711 0.000000 
-0.007509 -0.030429 0.056776 
-0.022745 0.022224 0.063253 
-0.023480 0.003707 0.001000 
0.004699 0.026136 0.001000 
0.002205 0.028683 0.058935 
-0.002022 -0.026592 0.025480 
-0.006927 -0.001084 0.000000 
0.014634 0.024190 0.047474 
0.021147 -0.017970 0.032474 
-0.007704 -0.027424 0.007934 
0.011962 0.024437 0.027423 
0.018115 -0.019317 0.022093 
-0.019795 0.017589 0.000000 
-0.014022 -0.022424 0.021650 
-0.027062 0.003895 0.000496 
0.008739 0.027427 0.022436 
-0.003616 0.031297 0.050834 
0.021289 0.017963 0.033545 
-0.024523 -0.017586 0.050300 
-0.030642 0.004738 0.064000 
-0.022800 -0.015195 0.023877 
0.019287 -0.018216 0.019994 
-0.004867 -0.028979 0.020727 
-0.023432 0.017912 0.021462 
-0.013351 -0.021224 0.003580 
0.003014 -0.031981 0.063626 
0.024560 0.010537 0.026526 
0.020883 -0.017324 0.023528 
0.031176 0.000816 0.044227 
0.028244 -0.002126 0.009584 
0.008965 -0.027416 0.018551 
-0.005433 0.011660 0.001000 
0.003704 -0.028297 0.011866 
0.018446 -0.023673 0.028262 
0.027329 0.010709 0.019685 
-0.012188 0.021882 0.001097 
0.014847 0.016409 0.001000 
0.029160 -0.009681 0.041924 
-0.027819 -0.008707 0.017378 
-0.023260 -0.020620 0.040105 
-0.010574 0.025444 0.027299 
0.028753 -0.006331 0.062258 
-0.026808 0.016953 0.055992 
0.027141 0.015302 0.044923 
0.001169 0.026483 0.023726 
-0.017192 -0.020012 0.021939 
0.001617 -0.010207 0.000000 
0.010894 0.028948 0.045899 
-0.030043 0.000694 0.054709 
0.004712 -0.009647 0.000000 
-0.018780 -0.018375 0.017556 
-0.022401 -0.020719 0.031637 
-0.027619 -0.009429 0.017913 
0.020700 -0.023755 0.050924 
-0.006427 0.029289 0.028515 
0.018772 0.024495 0.040141 
-0.024245 -0.017032 0.050207 
-0.026669 -0.014792 0.031739 
-0.019823 0.018639 0.001849 
-0.031064 -0.000000 0.055098 
0.003818 0.031435 0.056978 
0.025330 -0.016169 0.060418 
0.005911 -0.028962 0.063399 
-0.026520 0.012953 0.018898 
-0.023223 0.016784 0.028070 
-0.013797 -0.019543 0.000000 
-0.025544 -0.011732 0.004853 
0.005131 -0.026384 0.000000 
0.028211 -0.004528 0.010749 
0.022018 -0.017175 0.031161 
0.020680 0.015683 0.000000 
-0.022569 -0.016099 0.002670 
0.005935 0.028343 0.053492 
-0.031319 -0.000000 0.062878 
-0.017200 0.020632 0.028528 
-0.027159 -0.009826 0.056758 
0.025346 0.002325 0.001547 
0.014823 0.024482 0.052510 
-0.007137 0.002538 0.000000 
0.017199 0.011447 0.001000 
0.029039 -0.008355 0.032924 
-0.007294 0.028324 0.053186 
0.011652 -0.024512 0.025643 
-0.019634 -0.020547 0.009175 
-0.007244 -0.022519 0.000000 
0.017506 0.021164 0.002678 
-0.005247 0.029260 0.025937 
0.007235 -0.025587 0.009386 
-0.005232 0.030322 0.041194 
0.023250 -0.010225 0.008428 
-0.002072 0.027366 0.037855 
0.026775 -0.014994 0.035680 
-0.002186 0.028699 0.013563 
-0.024049 -0.006463 0.001000 
0.009121 -0.027783 0.029932 
0.003823 -0.029944 0.032575 
-0.017980 -0.022258 0.053583 
-0.026216 0.017345 0.051227 
0.000890 -0.030229 0.025997 
0.015434 0.015075 0.000000 
-0.028318 -0.009736 0.029023 
0.004876 -0.025045 0.000722 
-0.024670 -0.014533 0.044983 
0.027980 0.000376 0.026952 
-0.010897 -0.024835 0.022939 
0.029283 -0.003337 0.023693 
-0.007677 0.011265 0.000000 
-0.022152 -0.017641 0.007173 
-0.022470 0.016291 0.008568 
0.006112 0.025714 0.011421 
-0.008583 -0.026997 0.014608 
0.004583 -0.025878 0.014049 
-0.010848 -0.028068 0.030750 
0.018984 0.011997 0.000000 
0.027940 0.000000 0.020438 
-0.013176 0.025195 0.006268 
-0.027466 0.010493 0.020530 
0.025275 -0.009924 0.033062 
0.005889 0.026031 0.016498 
-0.018492 -0.019020 0.022024 
-0.022485 0.012596 0.008745 
0.006700 -0.026621 0.025935 
0.018363 0.023703 0.027975 
-0.025197 -0.006450 0.017248 
-0.023106 0.000984 0.001000 
-0.020033 -0.017292 0.016312 
0.002522 0.020087 0.000000 
-0.019756 -0.016359 0.004229 
0.000974 -0.030156 0.025566 
-0.006677 -0.029933 0.042441 
-0.006012 -0.031114 0.061447 
0.010714 0.011079 0.000000 
0.007749 0.012167 0.001000 
0.022987 0.016642 0.022090 
0.015126 0.011236 0.001000 
0.018975 0.016691 0.001410 
-0.017451 -0.023531 0.018808 
-0.004799 -0.028137 0.050198 
0.008602 -0.015387 0.001000 
-0.025502 -0.013567 0.051510 
-0.030012 -0.005877 0.039457 
-0.023957 0.014742 0.036747 
0.026019 -0.011851 0.050810 
-0.025935 -0.013465 0.015377 
0.011250 -0.025851 0.037869 
0.024232 -0.013683 0.035746 
-0.006735 -0.030956 0.061888 
0.020793 0.019502 0.045735 
-0.026016 -0.011074 0.047450 
-0.014609 0.027824 0.050060 
-0.021647 0.017830 0.035054 
-0.029299 0.004334 0.026685 
-0.023420 -0.018797 0.059772 
-0.001643 0.023623 0.001000 
0.016596 0.022660 0.046399 
-0.012128 0.023435 0.017118 
0.012398 0.019134 0.001000 
0.025329 -0.011035 0.002042 
-0.004458 0.025997 0.015944 
-0.031611 -0.004463 0.063552 
0.023027 0.017285 0.012059 
0.002109 -0.026345 0.021525 
0.019807 0.022537 0.025659 
-0.011283 0.028674 0.042430 
0.027129 -0.007171 0.045044 
-0.025810 0.015692 0.026169 
0.010064 0.028011 0.026210 
0.022974 0.016591 0.024493 
-0.026040 -0.007656 0.033179 
-0.022499 -0.020581 0.031261 
0.026547 0.017736 0.059741 
0.027535 0.001519 0.026134 
-0.029674 0.010464 0.059884 
-0.008268 -0.000397 0.001000 
0.014879 -0.022814 0.000000 
0.012296 -0.027797 0.033765 
-0.006164 -0.030809 0.056312 
-0.002076 0.031773 0.058563 
-0.017704 0.002479 0.001000 
-0.010060 0.029688 0.056985 
0.027595 -0.014668 0.048715 
-0.009407 -0.028182 0.030799 
-0.015469 -0.024713 0.060762 
0.016245 -0.022077 0.036561 
-0.002134 -0.026306 0.020896 
0.007224 -0.027767 0.010273 
0.012949 -0.021502 0.003260 
-0.006313 0.030651 0.053600 
-0.027732 -0.011836 0.030647 
0.017323 0.018442 0.006468 
0.008329 0.025659 0.005291 
0.012175 0.023704 0.020675 
-0.021638 -0.016614 0.022166 
-0.008919 0.027667 0.018125 
0.023369 0.014157 0.026722 
-0.021661 -0.016212 0.018127 
-0.001279 0.029876 0.023869 
-0.026269 -0.001058 0.007952 
-0.024437 -0.008789 0.017486 
-0.019450 -0.023613 0.035214 
-0.019564 -0.022346 0.021635 
-0.026092 -0.010044 0.044029 
0.006393 -0.029860 0.039361 
-0.022135 0.022718 0.060474 
-0.027657 -0.010081 0.021248 
-0.029553 0.011210 0.064000 
0.012128 0.028849 0.053413 
-0.013352 0.022998 0.022511 
0.023896 -0.016039 0.011318 
-0.025762 -0.018762 0.063784 
0.018457 0.017065 0.001151 
-0.025134 -0.011072 0.036150 
0.025411 -0.011279 0.040588 
0.025731 0.005842 0.021476 
-0.005569 -0.027387 0.038194 
-0.025923 0.006497 0.026734 
-0.029110 0.012051 0.059051 
0.023944 -0.017483 0.050001 
-0.026902 0.010509 0.056379 
-0.024251 -0.002316 0.000000 
-0.024487 0.017514 0.043707 
0.008657 -0.027960 0.047357 
-0.004890 0.025562 0.000000 
-0.011750 0.020958 0.000000 
-0.028448 0.012333 0.045404 
0.012111 -0.024256 0.000000 
-0.008664 0.029488 0.042952 
-0.025110 0.007574 0.020929 
0.001841 -0.029518 0.022256 
-0.020077 0.023441 0.038017 
0.027665 0.001830 0.029116 
-0.019466 -0.025492 0.062991 
0.008824 -0.015863 0.001000 
0.029960 0.007791 0.049782 
-0.009566 0.022858 0.001000 
0.026041 0.013188 0.056789 
-0.006138 -0.008274 0.000000 
0.000732 0.025108 0.001725 
0.019174 0.025586 0.059706 
-0.013658 -0.028153 0.051562 
0.020276 -0.002782 0.001000 
-0.005343 -0.025002 0.000032 
-0.015259 -0.011303 0.001000 
-0.012573 0.025598 0.007076 
0.026383 0.013035 0.018346 
-0.008536 -0.024644 0.000597 
-0.027360 0.012147 0.026832 
-0.007369 0.026570 0.025127 
-0.017234 -0.015447 0.000000 
-0.021077 -0.017568 0.002580 
-0.026407 0.014397 0.024923 
-0.011040 -0.027432 0.022595 
-0.003333 0.028516 0.056257 
-0.028851 -0.001787 0.013807 
-0.014950 -0.023833 0.005437 
0.009552 -0.028899 0.042068 
0.026018 0.010781 0.046232 
-0.005202 0.003090 0.000000 
-0.018429 -0.020476 0.003619 
-0.028008 -0.006797 0.011560 
-0.023432 0.016850 0.023723 
0.009557 0.026674 0.032968 
0.014366 0.026696 0.030216 
0.005795 -0.030248 0.043246 
0.013013 -0.023081 0.020576 
-0.005465 0.025453 0.007255 
0.024053 0.015757 0.042311 
-0.008064 -0.025233 0.000516 
-0.010820 0.024351 0.016614 
0.009174 0.013862 0.001000 
-0.023400 -0.016728 0.014566 
0.009506 -0.030125 0.063294 
0.014471 0.022686 0.028472 
-0.021025 0.023141 0.043989 
-0.026066 -0.009558 0.003513 
0.022982 0.008117 0.000000 
0.028410 0.007492 0.019799 
-0.018842 0.024675 0.043410 
-0.007854 0.027905 0.046476 
-0.005561 0.027446 0.039134 
-0.000495 -0.031100 0.042407 
-0.016814 0.027276 0.064000 
-0.031536 0.001910 0.052853 
0.023217 -0.014106 0.000000 
0.029297 0.008991 0.041067 
-0.009568 -0.029458 0.048391 
0.005724 0.026793 0.028688 
-0.016348 -0.026205 0.041491 
0.014252 0.013352 0.001000 
-0.024660 -0.014444 0.044471 
-0.015704 -0.025596 0.064000 
0.009183 0.027702 0.021921 
-0.018544 0.021128 0.045189 
0.010346 -0.000244 0.001000 
0.024847 -0.006007 0.010865 
-0.001216 -0.023870 0.000000 
-0.025376 -0.007638 0.024601 
0.019360 0.020649 0.046598 
0.000620 0.020143 0.001000 
-0.019613 0.017037 0.010221 
-0.011312 0.025873 0.005866 
0.027111 0.007128 0.044632 
-0.018190 -0.023863 0.028483 
-0.000156 -0.028310 0.052957 
0.009223 -0.027913 0.020835 
0.000036 -0.026494 0.023910 
-0.014196 -0.025993 0.017453 
0.017547 -0.020653 0.000802 
-0.016317 0.025249 0.026373 
-0.025681 0.003992 0.012943 
-0.023929 0.007518 0.005567 
-0.011733 -0.019827 0.001000 
0.025412 0.008239 0.000000 
0.028919 0.000000 0.016991 
-0.022552 -0.016164 0.024421 
0.016205 -0.019516 0.008716 
-0.024940 -0.008947 0.024600 
0.018333 0.026028 0.057993 
0.025725 -0.004998 0.017805 
-0.002823 -0.027282 0.036514 
-0.000325 -0.027546 0.004372 
0.026774 0.009905 0.052171 
-0.023086 0.018058 0.018283 
0.003390 0.005591 0.001000 
0.000711 -0.028235 0.051762 
0.028072 -0.003257 0.040413 
-0.025622 0.012153 0.006040 
0.021219 -0.016332 0.000000 
0.022825 0.016867 0.006768 
0.022727 0.016321 0.025983 
-0.002222 0.028671 0.013355 
-0.023002 0.016647 0.022714 
-0.015193 -0.026362 0.031527 
0.007851 0.009453 0.000000 
0.010790 -0.028605 0.038129 
-0.025658 -0.004332 0.014102 
-0.024301 -0.017393 0.043889 
0.022529 0.015693 0.001555 
0.008543 -0.028529 0.056466 
0.020575 0.020780 0.016810 
-0.022074 -0.018451 0.013522 
0.018511 -0.022820 0.064000 
-0.027897 0.015542 0.059391 
0.021874 -0.016520 0.023092 
-0.004840 -0.017889 0.001000 
0.024785 -0.018031 0.048247 
0.010776 0.024086 0.013133 
-0.011489 0.024361 0.022472 
0.013875 0.003285 0.000000 
0.022271 -0.016367 0.024692 
-0.016871 -0.022577 0.047789 
-0.006494 -0.012447 0.000000 
0.023132 0.015964 0.031398 
-0.017003 -0.023596 0.015768 
0.007908 -0.027875 0.014642 
-0.020327 0.023944 0.047134 
0.024965 0.010856 0.000000 
0.019786 -0.021138 0.014002 
-0.002815 -0.022638 0.000000 
-0.005534 0.007937 0.000000 
0.023536 0.016941 0.027370 
-0.012553 -0.001329 0.001000 
0.027217 -0.000000 0.004141 
0.023881 -0.020126 0.044303 
0.027000 -0.000025 0.000291 
-0.000286 -0.026073 0.017174 
-0.027588 -0.000979 0.024506 
-0.028959 0.009529 0.037586 
0.018960 0.017876 0.013760 
0.010731 -0.023093 0.002041 
0.018170 0.026421 0.064000 
0.015824 0.021284 0.024251 
0.005819 0.012468 0.000000 
0.016003 -0.024889 0.020298 
-0.019918 -0.024368 0.064000 
0.013380 0.028775 0.062237 
-0.008212 -0.015399 0.000000 
0.013738 0.017725 0.000000 
0.013109 0.022840 0.018647 
0.026995 0.009340 0.009408 
0.022426 0.007444 0.000000 
-0.030043 -0.009380 0.060081 
0.006379 -0.028553 0.016835 
-0.024067 -0.017069 0.048091 
-0.024062 -0.008001 0.001000 
0.024656 0.012342 0.035453 
-0.015393 0.007996 0.000000 
-0.030419 -0.007322 0.054386 
-0.009558 0.029086 0.049844 
-0.002898 -0.028975 0.020225 
-0.008727 0.026411 0.022761 
0.024695 0.009575 0.024149 
-0.003439 -0.027270 0.002160 
0.022512 -0.011291 0.003528 
0.014607 -0.021762 0.019421 
0.027132 0.007246 0.045404 
0.012748 0.022459 0.001000 
-0.026082 0.012306 0.010395 
0.027550 0.000000 0.009707 
-0.003334 -0.031903 0.063744 
-0.021409 -0.015598 0.009614 
0.027515 -0.008206 0.054398 
0.005994 -0.027400 0.003198 
-0.016908 0.020485 0.024618 
0.008641 0.029149 0.036375 
0.015389 -0.023499 0.045860 
0.025963 0.000749 0.000000 
0.005163 -0.028656 0.058499 
-0.009301 0.027109 0.010721 
-0.010455 -0.019960 0.001000 
-0.015157 -0.024844 0.059613 
0.029240 0.003449 0.056193 
0.023089 0.014768 0.025754 
0.023581 0.016945 0.015082 
0.022060 -0.020961 0.030693 
-0.026798 -0.000000 0.001456 
0.031244 0.000191 0.064000 
-0.012185 -0.027707 0.031954 
-0.020922 0.008306 0.001000 
0.022380 -0.000167 0.000000 
-0.020298 -0.018333 0.029418 
0.028965 0.000000 0.026344 
-0.017581 -0.021630 0.004843 
0.026182 0.005023 0.001000 
-0.004248 -0.016770 0.001000 
-0.000484 -0.028663 0.058613 
-0.026159 0.010951 0.048759 
-0.021333 0.020529 0.062125 
0.010017 0.023966 0.005450 
-0.023479 0.021104 0.054002 
-0.001587 0.010119 0.000000 
0.012589 -0.027044 0.024424 
-0.023841 -0.021051 0.061393 
0.008564 -0.026230 0.018041 
-0.022047 0.013189 0.005677 
-0.026243 -0.005862 0.001000 
-0.025614 -0.014562 0.015815 
0.028142 0.001144 0.009840 
0.008775 0.029765 0.048797 
0.000228 -0.025144 0.002302 
-0.029514 -0.007183 0.037108 
-0.014924 -0.011303 0.001000 
0.025962 0.004327 0.017976 
0.025412 -0.007673 0.025216 
-0.025726 -0.002898 0.000000 
-0.012987 0.026969 0.025242 
-0.002903 -0.028279 0.011211 
0.020914 0.019667 0.048458 
-0.025691 0.003538 0.011141 
0.023744 -0.017058 0.029097 
-0.005846 -0.027394 0.038312 
-0.005424 -0.017407 0.000000 
0.025423 -0.018566 0.054829 
-0.005051 0.022805 0.001000 
-0.024564 -0.013275 0.002579 
-0.029026 -0.011302 0.051031 
-0.011795 -0.025099 0.002649 
0.021440 -0.015403 0.002378 
0.025992 -0.014389 0.018282 
0.014756 -0.024626 0.053622 
-0.021514 -0.017486 0.030339 
0.019049 -0.025295 0.054328 
0.025913 -0.012253 0.008343 
-0.006433 0.031132 0.063762 
0.022009 -0.019292 0.053451 
0.010000 -0.029966 0.063678 
-0.019320 0.019264 0.002337 
-0.022077 0.015113 0.000000 
0.009830 -0.028762 0.057431 
0.011837 0.025757 0.041798 
0.028846 -0.011904 0.064000 
0.031740 -0.002765 0.057763 
0.003577 -0.014306 0.000000 
0.008904 -0.007820 0.000000 
0.002304 0.031828 0.059869 
-0.013569 -0.022922 0.023487 
0.024882 0.016288 0.055184 
-0.012761 0.026433 0.057654 
-0.010045 -0.028494 0.058461 
-0.000535 -0.030050 0.064000 
-0.029709 0.007094 0.039741 
0.000578 0.030839 0.038469 
0.001589 -0.011523 0.000000 
-0.019498 0.020292 0.043596 
0.018553 -0.022326 0.016021 
0.025875 0.005742 0.022905 
0.014750 0.025363 0.062195 
-0.028218 -0.005077 0.050057 
-0.031744 0.002933 0.057851 
-0.000735 0.026427 0.022827 
-0.017266 -0.020813 0.030966 
0.029993 0.004520 0.030490 
-0.025377 0.019013 0.055151 
0.017408 0.022917 0.056390 
0.027210 -0.006365 0.042648 
0.028270 0.007336 0.017300 
0.026978 0.003756 0.028543 
-0.008989 -0.027461 0.019236 
-0.004299 -0.025482 0.007714 
0.017412 0.017847 0.000913 
0.009140 -0.027387 0.036487 
0.008041 0.025605 0.009678 
0.029290 -0.009950 0.046655 
-0.011647 -0.024449 0.024857 
-0.012496 0.004777 0.000000 
0.028554 -0.006668 0.061143 
0.011423 -0.027938 0.031624 
0.026194 0.017111 0.048659 
0.023866 0.019996 0.042831 
0.003996 0.025660 0.010561 
-0.006756 -0.025453 0.007240 
0.011135 0.023832 0.013239 
-0.024815 -0.010693 0.000000 
-0.017519 -0.023174 0.014758 
-0.001260 0.029875 0.023805 
-0.022709 0.016455 0.013945 
0.010191 -0.026906 0.011944 
0.009971 -0.028626 0.059368 
0.022361 -0.018477 0.047644 
-0.014406 -0.020227 0.001627 
-0.021564 0.015534 0.001885 
-0.015365 -0.022941 0.039124 
-0.016590 0.019924 0.016133 
-0.021353 0.000114 0.000000 
-0.012776 -0.026939 0.024758 
-0.002048 0.025580 0.000000 
-0.009365 -0.025147 0.013444 
0.008492 -0.026486 0.015734 
-0.022302 -0.017767 0.008909 
0.009435 0.027864 0.021131 
0.028228 -0.000000 0.010341 
0.003520 0.021933 0.000000 
0.025053 0.016241 0.026573 
0.029950 0.005057 0.033070 
0.027769 0.005514 0.046166 
0.015451 0.026124 0.031933 
-0.026365 0.012435 0.057724 
0.012702 -0.023073 0.017810 
-0.022213 0.015953 0.016642 
-0.013070 0.025871 0.013283 
-0.026635 0.002999 0.020930 
0.023524 -0.015932 0.036287 
0.025233 0.018555 0.048685 
-0.019168 -0.021970 0.060416 
0.014619 0.026715 0.032170 
-0.030981 -0.003879 0.046571 
-0.014082 0.022923 0.027908 
-0.002104 -0.001673 0.001000 
-0.000393 -0.028096 0.049536 
0.020602 -0.020222 0.013355 
0.022052 -0.015585 0.015957 
-0.002790 0.023645 0.000000 
-0.025097 0.010852 0.034738 
-0.027947 0.009833 0.024198 
-0.023033 0.010116 0.005188 
0.009716 0.029096 0.043725 
0.031653 -0.004196 0.063076 
-0.028346 0.007054 0.017070 
0.008492 0.026501 0.004168 
-0.004679 0.028482 0.055713 
-0.011461 -0.025897 0.006303 
-0.001385 0.026376 0.022020 
-0.030554 -0.000000 0.035983 
-0.003245 0.020378 0.001000 
0.009750 0.024538 0.009613 
-0.009697 -0.027048 0.011641 
0.020180 0.001816 0.000000 
-0.024056 0.005189 0.000000 
-0.008917 0.026856 0.018854 
-0.015758 0.002053 0.000000 
-0.030420 -0.000607 0.028989 
-0.001671 -0.027758 0.044136 
-0.009031 -0.027069 0.009725 
0.029471 -0.001211 0.049599 
-0.008969 0.028567 0.057078 
0.015893 0.025788 0.032971 
-0.028781 -0.011994 0.050706 
0.028881 0.001810 0.044597 
-0.026722 0.007484 0.003302 
0.026133 -0.014838 0.022497 
0.026159 0.006279 0.028825 
0.022073 0.021478 0.035733 
-0.018606 -0.025053 0.046582 
-0.031827 0.003575 0.063448 
-0.018429 -0.026264 0.062326 
-0.006066 0.031038 0.059308 
0.030253 -0.008274 0.058194 
0.027123 0.014510 0.037679 
-0.028647 -0.009191 0.031562 
0.019010 -0.021459 0.011633 
-0.027438 -0.010193 0.061903 
0.020259 -0.019840 0.008645 
0.008455 0.026612 0.007395 
-0.019491 -0.022996 0.028489 
0.014298 -0.022567 0.025580 
0.008508 -0.026071 0.017142 
-0.003901 0.006863 0.000000 
-0.014265 -0.004234 0.001000 
-0.013585 -0.028343 0.055243 
0.004179 0.004987 0.000000 
-0.010332 0.023132 0.000000 
0.016166 0.022417 0.002533 
0.015564 0.022440 0.000036 
0.020997 -0.023856 0.060458 
0.013299 0.024189 0.035996 
-0.008338 0.026123 0.002702 
-0.014768 -0.026634 0.031579 
0.002118 -0.018121 0.000000 
-0.006469 0.028260 0.013405 
0.004794 0.030392 0.039808 
0.017279 0.007860 0.001000 
-0.024814 0.017424 0.059165 
0.027882 -0.005831 0.048961 
-0.022560 0.016345 0.013749 
0.016754 0.019119 0.008982 
0.010597 0.025801 0.031674 
0.014404 0.026906 0.034450 
0.027081 0.010855 0.060146 
-0.024117 0.019687 0.043474 
0.030653 0.000000 0.034623 
-0.011094 0.025179 0.028656 
0.015131 0.022987 0.000945 
0.016683 -0.019092 0.008122 
-0.004420 -0.027845 0.045521 
-0.026267 0.003548 0.018556 
0.001281 -0.029057 0.014870 
0.010459 -0.002002 0.001000 
0.028230 -0.015031 0.062317 
-0.003866 -0.027297 0.036752 
-0.025081 -0.000065 0.000000 
-0.019992 -0.015884 0.001142 
0.024750 0.011265 0.032069 
0.004053 -0.031350 0.054706 
-0.029304 -0.000000 0.022789 
-0.014206 0.027421 0.040391 
0.026043 0.013728 0.017286 
-0.024854 -0.017854 0.050990 
0.026453 -0.013101 0.018661 
0.008748 -0.027480 0.023555 
-0.011308 -0.022604 0.001564 
-0.024098 0.011818 0.000000 
0.015903 0.027073 0.049719 
-0.013231 -0.025572 0.051608 
-0.005490 0.025843 0.013485 
-0.022841 0.013944 0.019063 
0.000893 0.027077 0.033233 
-0.023480 0.021070 0.064000 
0.027349 -0.010479 0.061979 
-0.017578 -0.018929 0.013653 
-0.007754 -0.028970 0.031016 
0.022198 -0.017388 0.034856 
-0.028330 -0.002717 0.011057 
-0.019435 0.003803 0.000000 
-0.025615 0.004729 0.015249 
0.008374 -0.026581 0.011966 
0.028791 -0.008815 0.064000 
-0.024096 0.018087 0.030355 
-0.002911 0.031424 0.050167 
-0.026606 -0.006417 0.035131 
-0.023429 -0.013310 0.023875 
0.014689 -0.019917 0.000653 
-0.020488 -0.003114 0.001000 
-0.027055 -0.008974 0.051794 
0.009085 0.028052 0.023111 
-0.012812 0.027157 0.027091 
-0.021640 -0.004271 0.000000 
0.015244 0.021119 0.000000 
0.019477 -0.021396 0.013676 
0.003801 -0.031229 0.050295 
-0.021428 0.020522 0.020672 
-0.016376 0.022527 0.042956 
0.019576 0.016432 0.003548 
0.015903 -0.014027 0.001000 
-0.031631 0.002937 0.055135 
-0.006416 0.030053 0.043009 
-0.011652 -0.024518 0.025709 
-0.023412 -0.014587 0.029107 
-0.018648 0.001982 0.001000 
-0.017900 0.007299 0.000000 
0.018304 -0.017342 0.002822 
0.021469 0.021583 0.030996 
-0.001379 -0.029840 0.023848 
0.025954 0.015782 0.064000 
-0.003096 0.027153 0.034452 
-0.000112 0.025339 0.005423 
-0.006487 -0.029517 0.033902 
0.021503 -0.015378 0.007343 
0.028061 -0.009026 0.021986 
-0.031567 -0.001403 0.053617 
-0.028979 0.006738 0.064000 
-0.028133 -0.006050 0.053115 
0.015621 -0.023177 0.044086 
-0.005783 -0.030885 0.055960 
0.019926 -0.023473 0.037230 
-0.002876 0.027176 0.034815 
-0.001892 0.000991 0.001000 
-0.019433 -0.019730 0.037121 
-0.022600 -0.022337 0.062477 
0.028404 0.000000 0.013191 
0.022638 -0.021559 0.044714 
0.017010 -0.018268 0.002098 
0.026990 -0.008628 0.007197 
0.019886 0.010491 0.000000 
-0.009499 -0.030103 0.062858 
-0.021874 -0.015656 0.013566 
0.006165 -0.027371 0.037935 
-0.025248 0.014160 0.010844 
-0.003976 0.028439 0.055028 
-0.017117 0.024399 0.025908 
-0.022866 -0.010550 0.004903 
0.024402 0.014251 0.040349 
-0.004014 0.028245 0.051926 
-0.025379 0.004015 0.000000 
-0.029016 -0.012926 0.063790 
-0.025544 -0.018893 0.056410 
0.026309 0.013006 0.059450 
0.014684 -0.020206 0.000000 
0.001620 -0.021481 0.001000 
-0.023585 0.021313 0.061554 
-0.007166 0.012279 0.001000 
0.021930 0.022773 0.056873 
-0.026596 0.015473 0.038310 
0.025698 -0.016614 0.035697 
-0.009243 -0.027990 0.039770 
0.022631 -0.019573 0.024953 
0.013943 -0.026389 0.021524 
-0.007441 0.018278 0.001000 
0.006077 -0.028506 0.014908 
0.020277 -0.016702 0.001000 
-0.009911 0.028020 0.051763 
0.023042 -0.018856 0.057213 
-0.001320 0.028608 0.057725 
-0.006488 0.019062 0.001000 
0.018018 -0.018980 0.017756 
0.022892 -0.012409 0.013159 
-0.018466 -0.019644 0.000441 
0.028642 -0.004132 0.016346 
0.020158 0.017871 0.023418 
-0.025967 -0.002450 0.010033 
-0.028626 -0.009705 0.033277 
0.025037 0.016405 0.028303 
0.014184 0.026861 0.032181 
-0.023328 -0.016659 0.027874 
0.017268 0.025935 0.064000 
-0.008803 -0.000107 0.001000 
0.024750 0.005747 0.008518 
-0.025044 -0.006967 0.017483 
-0.007662 -0.026970 0.031526 
0.015905 0.023713 0.007916 
-0.024238 -0.010994 0.024353 
-0.022884 -0.019992 0.031015 
-0.010173 0.012285 0.000000 
-0.028095 0.013893 0.052990 
0.030674 0.006378 0.054758 
0.013031 -0.016518 0.001000 
-0.024838 0.015293 0.050377 
0.021756 0.022723 0.051486 
-0.002143 -0.026011 0.016169 
0.017566 -0.018531 0.009364 
-0.017592 0.019721 0.022106 
0.029201 -0.012332 0.063490 
0.026386 -0.005216 0.027198 
0.018972 0.016421 0.001000 
-0.018918 -0.023311 0.027726 
-0.022481 -0.016183 0.006261 
-0.020395 0.019915 0.010014 
-0.003308 0.013959 0.000000 
-0.009152 0.029088 0.037640 
0.018299 0.019080 0.021089 
-0.025350 -0.011827 0.042141 
-0.025187 -0.016586 0.031388 
-0.015072 -0.026499 0.031845 
0.001476 -0.028162 0.050600 
0.023938 0.015091 0.037998 
-0.005733 0.028310 0.052962 
-0.010287 -0.027075 0.014552 
0.027202 -0.014470 0.039202 
-0.015841 0.000205 0.001000 
0.019889 0.024301 0.048073 
0.021479 -0.014040 0.001000 
-0.027056 -0.005195 0.000452 
0.021296 -0.022467 0.037750 
-0.012561 -0.022100 0.006409 
-0.014111 0.024522 0.004767 
0.012278 0.024605 0.032101 
0.006645 0.025459 0.007343 
-0.017091 -0.019110 0.011620 
0.025189 -0.013757 0.048310 
-0.021306 -0.017614 0.030007 
0.011564 -0.026828 0.016873 
0.007923 -0.026295 0.020714 
0.010133 -0.025071 0.000000 
-0.013380 0.027101 0.064000 
-0.022159 0.001720 0.000000 
-0.010687 -0.029250 0.051496 
-0.020817 -0.017530 0.025170 
-0.020323 -0.000238 0.001000 
0.001928 -0.026027 0.016426 
0.017559 0.026285 0.054262 
0.029340 0.000000 0.038436 
-0.022404 0.016125 0.017891 
0.025573 -0.010713 0.040236 
-0.016486 -0.026578 0.048188 
0.028790 0.000000 0.022813 
0.000363 0.002991 0.001000 
0.025090 0.013321 0.045189 
0.002820 0.005924 0.001000 
0.005075 -0.025530 0.008487 
0.019235 -0.025223 0.055072 
0.014306 0.028450 0.061930 
-0.016714 -0.023952 0.016660 
0.031459 0.000000 0.055065 
-0.019629 0.019004 0.031064 
0.012395 0.006833 0.000000 
0.003406 -0.027597 0.041558 
0.023445 -0.020170 0.038762 
0.023536 0.008776 0.000000 
-0.028445 -0.000000 0.016585 
-0.018999 -0.021652 0.012229 
0.013186 0.026331 0.060107 
0.023204 0.010457 0.008831 
0.018482 -0.013362 0.001000 
-0.013038 0.023463 0.025265 
0.024283 0.009429 0.018249 
0.012232 0.025189 0.003597 
-0.019867 -0.017746 0.019743 
0.018473 -0.020812 0.005141 
-0.001035 -0.030981 0.039633 
0.030344 0.000000 0.035834 
0.026207 0.016740 0.045279 
0.017947 -0.025321 0.044106 
-0.026125 0.012454 0.054743 
0.031324 -0.003524 0.051968 
0.022708 0.016557 0.030239 
-0.010054 0.012319 0.000000 
-0.020970 -0.019589 0.048084 
0.012914 0.026722 0.021500 
0.008387 0.026452 0.012392 
-0.018110 -0.018133 0.009583 
-0.023186 -0.019280 0.029054 
0.029717 0.005952 0.034315 
0.021050 0.007004 0.001000 
-0.015505 0.002579 0.001000 
0.009118 -0.027868 0.028823 
0.013342 0.025501 0.051726 
0.011933 0.022426 0.004755 
-0.000986 0.027358 0.002864 
0.013089 0.025440 0.007874 
-0.016973 0.020716 0.027573 
-0.019747 0.024148 0.044503 
0.019953 0.016705 0.001000 
0.002490 -0.025421 0.006733 
0.002858 0.025539 0.008622 
0.022723 -0.021491 0.045131 
-0.023707 -0.016202 0.039781 
0.018261 0.022663 0.014546 
-0.025262 -0.013521 0.008292 
-0.000199 0.031514 0.052329 
0.021501 0.015432 0.008605 
0.028481 -0.003124 0.045081 
0.020343 0.013601 0.001000 
0.019966 0.024542 0.052279 
-0.003205 0.027456 0.003651 
-0.015886 -0.023771 0.053320 
0.025730 -0.011438 0.045352 
0.009458 -0.003386 0.000000 
-0.024688 0.016479 0.022589 
-0.020226 0.018841 0.034180 
-0.024098 0.001500 0.001000 
0.015437 -0.024506 0.014036 
0.027576 0.008735 0.057440 
-0.026706 0.007024 0.039001 
0.025437 0.013935 0.012053 
0.020205 -0.024194 0.049581 
-0.005300 -0.027493 0.039890 
-0.009479 0.028266 0.036961 
-0.030701 -0.005408 0.050613 
0.013789 0.026262 0.019618 
-0.025749 0.002122 0.005838 
0.026336 -0.015994 0.039981 
0.010464 0.029544 0.056780 
-0.031351 0.003467 0.052153 
0.013230 0.024276 0.000116 
0.004325 0.027290 0.036640 
0.017847 -0.022993 0.061043 
-0.013070 -0.021601 0.005270 
-0.011287 0.025780 0.037356 
0.009472 -0.027889 0.046452 
-0.014410 0.017771 0.001000 
0.005889 0.030185 0.043021 
-0.027435 -0.003764 0.034431 
0.027135 0.016733 0.058571 
-0.025605 -0.010109 0.038079 
0.023120 0.016716 0.025838 
0.026949 0.017161 0.060009 
-0.025574 0.012532 0.006717 
-0.008765 -0.026530 0.020142 
0.020047 0.021471 0.062114 
0.025805 -0.010908 0.044043 
0.025765 0.018371 0.054572 
-0.007682 -0.028376 0.020177 
-0.029179 -0.000000 0.036139 
-0.023950 -0.017040 0.028519 
0.027645 -0.004992 0.042355 
0.026022 0.005521 0.023840 
0.024755 0.017530 0.033629 
0.026516 0.009207 0.045883 
-0.005012 -0.027699 0.005594 
0.025008 -0.009268 0.026839 
-0.006506 -0.027512 0.040186 
-0.003337 -0.026985 0.031758 
-0.019078 -0.024619 0.044867 
0.028205 -0.007901 0.061934 
0.031334 0.005433 0.062894 
-0.030036 0.002630 0.062883 
-0.027651 -0.011758 0.029130 
0.029506 0.008318 0.042048 
0.016916 0.026812 0.055689 
0.004390 -0.030167 0.036488 
-0.012762 0.025012 0.041029 
0.018481 -0.018792 0.019527 
-0.027821 -0.014660 0.064000 
-0.021226 0.019489 0.012643 
-0.002254 0.025663 0.010607 
0.015403 0.024319 0.055580 
0.004662 -0.020824 0.000000 
0.015140 0.004877 0.001000 
0.026739 -0.010398 0.053818 
0.025416 0.013555 0.050354 
0.010438 0.000132 0.000000 
-0.023575 -0.016907 0.024870 
0.003082 0.026851 0.029619 
-0.028329 -0.011169 0.035990 
-0.025415 -0.016358 0.062302 
-0.028353 0.005498 0.053583 
-0.000603 0.028267 0.052269 
-0.001887 0.029303 0.020115 
0.017127 0.024992 0.033266 
0.012433 0.026806 0.059195 
-0.028885 0.006728 0.023432 
-0.004425 0.031110 0.051195 
-0.008068 0.029208 0.034781 
-0.009625 0.028598 0.040850 
-0.013249 0.023365 0.025926 
0.013079 -0.022407 0.013842 
-0.017491 0.023242 0.060901 
0.014787 -0.011687 0.001000 
0.018408 -0.025760 0.054867 
0.031518 -0.000633 0.064000 
-0.025955 -0.005323 0.022141 
0.023765 -0.009222 0.010741 
0.009737 0.026752 0.007989 
0.026857 0.017542 0.062345 
-0.011491 -0.025888 0.040365 
0.011242 0.008110 0.001000 
-0.026920 -0.013437 0.026680 
0.014673 0.027290 0.043028 
0.025727 -0.002229 0.006011 
-0.011244 0.009887 0.001000 
0.022141 -0.015731 0.017717 
0.028808 -0.011519 0.047554 
0.023249 0.010947 0.011489 
0.027076 -0.001209 0.018933 
0.029459 -0.007351 0.036147 
-0.014656 -0.028188 0.059318 
-0.001971 -0.027862 0.045799 
0.000928 0.031271 0.046496 
0.005997 0.030912 0.057494 
0.005333 -0.025945 0.015122 
0.006701 0.019103 0.001000 
-0.022050 -0.019850 0.060328 
-0.004848 0.007645 0.000000 
0.027523 0.008598 0.013054 
-0.024574 -0.006803 0.010778 
0.023988 0.019199 0.037583 
0.026105 -0.016804 0.044425 
-0.008861 -0.028986 0.063771 
0.026019 0.003335 0.014472 
0.022197 -0.021874 0.041706 
-0.026848 0.010358 0.055043 
-0.005354 -0.030658 0.049536 
-0.024523 0.007068 0.011253 
-0.015485 0.027074 0.045718 
-0.002852 0.028802 0.060836 
0.028279 -0.008032 0.063445 
0.014219 0.025659 0.061106 
0.011810 -0.003392 0.001000 
-0.001443 0.031947 0.062735 
0.007524 0.029376 0.035378 
0.015226 -0.026525 0.035270 
0.020194 -0.020899 0.056681 
-0.006072 -0.026780 0.028485 
-0.000500 0.025935 0.014952 
0.021843 0.016550 0.001572 
-0.022117 0.014122 0.010547 
0.000878 -0.028493 0.011205 
0.025150 -0.015915 0.057022 
0.002838 -0.031268 0.046431 
-0.026799 0.011602 0.059730 
-0.025200 0.015537 0.056050 
0.008010 0.030611 0.062750 
-0.019852 0.022481 0.025361 
-0.009944 -0.024530 0.011186 
-0.004236 -0.031393 0.058275 
-0.010643 0.023570 0.006350 
0.028749 0.005840 0.017739 
0.021650 -0.015647 0.000185 
-0.018284 0.023520 0.025290 
-0.018656 -0.006983 0.000000 
-0.024965 0.012807 0.003405 
0.001295 -0.002749 0.001000 
-0.015266 -0.024457 0.056017 
-0.023256 -0.009642 0.006018 
0.025683 -0.001305 0.001505 
-0.020480 -0.019501 0.007925 
-0.016219 0.022802 0.044831 
0.008390 0.017679 0.001000 
0.022590 0.011637 0.006006 
-0.023936 -0.011849 0.024131 
-0.011717 0.024823 0.000371 
0.014057 -0.024213 0.042785 
0.016961 0.021311 0.001089 
0.020819 -0.017436 0.024187 
0.008842 0.026684 0.021319 
0.004019 -0.009568 0.000000 
-0.016520 -0.024910 0.027718 
-0.007547 0.027614 0.009687 
-0.004694 -0.029974 0.031227 
0.001006 -0.026559 0.000000 
-0.031227 -0.000000 0.050063 
0.031162 0.000000 0.059078 
0.009484 0.018575 0.000000 
-0.029416 0.009837 0.048996 
-0.016325 -0.026763 0.049304 
0.017720 -0.024484 0.031992 
0.005293 -0.026754 0.028071 
0.024995 0.017644 0.037233 
-0.027218 0.005059 0.037170 
-0.022402 0.016061 0.021771 
-0.027813 -0.007229 0.010892 
-0.011759 -0.024522 0.026672 
0.010628 0.029199 0.049803 
0.011150 -0.025918 0.037799 
-0.008440 0.029167 0.035753 
0.009462 0.029518 0.048120 
0.016657 -0.021378 0.031988 
-0.019076 -0.023811 0.034621 
-0.006517 0.010662 0.000000 
-0.008534 -0.029633 0.046396 
-0.012355 -0.025291 0.040798 
-0.009527 0.028832 0.038338 
-0.028590 0.012061 0.046656 
0.018743 -0.018907 0.022858 
0.009977 -0.004005 0.001000 
-0.023920 -0.015886 0.041160 
0.004044 0.025363 0.005803 
0.031757 -0.001449 0.058172 
-0.013537 -0.023881 0.034439 
-0.008850 -0.027136 0.027186 
-0.027428 -0.002113 0.003424 
-0.002926 -0.031214 0.045140 
-0.010243 0.027265 0.016837 
-0.023950 -0.017981 0.055296 
-0.029434 -0.004566 0.025126 
-0.001162 0.028380 0.010469 
-0.027689 0.002901 0.005513 
0.012594 0.025821 0.049052 
-0.024322 -0.015415 0.044286 
-0.026003 -0.014099 0.060198 
0.017461 -0.024821 0.033868 
0.018979 0.022327 0.016487 
0.027166 0.011048 0.062060 
0.002783 -0.031119 0.042850 
-0.031237 -0.002191 0.045688 
-0.024178 -0.017223 0.033552 
0.027580 0.007023 0.007523 
-0.018871 0.019760 0.002524 
0.006047 -0.026406 0.022491 
-0.020924 0.015469 0.004323 
-0.002390 -0.027815 0.045047 
-0.012601 -0.024160 0.029664 
-0.026859 0.005954 0.036402 
0.019982 0.024821 0.059268 
0.023578 0.016986 0.037854 
0.006476 -0.009654 0.000000 
-0.007585 0.028061 0.048972 
-0.029636 0.007385 0.039729 
0.014136 0.021476 0.012592 
-0.026957 -0.003721 0.028121 
0.022794 0.013550 0.016778 
0.011161 -0.025169 0.029111 
-0.027591 -0.000249 0.021431 
0.002854 0.028385 0.054161 
-0.025056 0.012297 0.040383 
0.021960 -0.015507 0.014447 
0.000410 -0.029091 0.015092 
0.012241 -0.025281 0.004806 
0.011697 -0.023140 0.010359 
0.013988 -0.024323 0.002551 
0.019841 -0.016771 0.009269 
0.028840 -0.011538 0.048458 
0.024559 -0.017669 0.056584 
-0.003187 -0.027234 0.035743 
-0.020116 0.020194 0.047750 
-0.021599 -0.021662 0.032971 
-0.008307 -0.029274 0.037733 
-0.021483 -0.010727 0.001000 
-0.029869 -0.000000 0.036292 
0.029048 0.004659 0.058897 
-0.026158 -0.005039 0.023525 
-0.030981 -0.000000 0.042658 
0.003485 0.005030 0.001000 
-0.025203 0.004323 0.008239 
0.004635 0.013376 0.001000 
0.024375 -0.005245 0.001573 
-0.026404 0.013076 0.017919 
0.000610 0.028705 0.059277 
0.028334 0.009267 0.027035 
-0.025972 0.009425 0.039856 
0.011988 0.028390 0.041260 
0.009653 0.027627 0.018982 
-0.026562 0.000949 0.000000 
0.023551 -0.015946 0.006787 
0.004400 0.028307 0.011993 
-0.017715 -0.020792 0.034385 
0.027361 -0.003824 0.033740 
-0.006449 0.008140 0.000000 
0.006268 0.029163 0.025363 
-0.028906 -0.003441 0.051879 
-0.002777 0.006564 0.000000 
-0.012300 -0.027196 0.062626 
-0.019359 -0.019561 0.034744 
0.000608 -0.031840 0.060160 
-0.030375 0.004915 0.040325 
-0.017426 0.020541 0.029401 
-0.003578 -0.030569 0.035910 
-0.028291 0.011523 0.037133 
0.018380 0.018271 0.013221 
-0.017513 -0.022101 0.006457 
0.014147 -0.022885 0.028018 
0.025445 0.011984 0.044033 
-0.014036 0.025984 0.063345 
0.028853 -0.004059 0.053833 
0.018304 0.026314 0.061844 
0.023156 -0.012796 0.000000 
0.009895 -0.029293 0.046392 
0.004306 -0.024863 0.001000 
-0.029217 -0.001617 0.017831 
-0.019594 0.018928 0.002089 
-0.031681 -0.000776 0.056334 
-0.024177 -0.013469 0.000671 
0.028135 0.000751 0.009761 
0.028653 0.008373 0.027330 
0.024125 0.015481 0.009453 
0.009479 0.028377 0.034826 
0.025823 0.003748 0.000000 
-0.019168 0.023053 0.026678 
0.029799 -0.009165 0.054171 
-0.018563 0.024465 0.038176 
-0.025724 -0.003037 0.009431 
-0.018215 0.007553 0.001000 
0.000555 0.008950 0.001000 
0.023695 -0.017021 0.028811 
0.006841 0.006430 0.000000 
-0.016913 0.015801 0.001000 
0.018657 0.023623 0.029297 
0.007561 -0.028138 0.050208 
0.015215 0.024512 0.056226 
0.008811 -0.027871 0.018500 
0.011570 -0.011309 0.000000 
0.005445 0.010143 0.001000 
0.030885 -0.004148 0.046427 
0.027466 -0.004307 0.037138 
0.015929 -0.006713 0.000000 
0.009382 -0.026504 0.029468 
-0.014321 0.028190 0.055129 
0.021334 -0.019968 0.016469 
-0.021449 -0.022195 0.036616 
0.026763 -0.008243 0.005064 
-0.000076 0.031415 0.049965 
-0.020870 0.009849 0.001000 
0.019119 -0.006721 0.001000 
0.026187 -0.010360 0.046598 
0.023901 -0.014300 0.000804 
0.024195 -0.013912 0.001329 
-0.015032 -0.020169 0.000000 
-0.029363 -0.003947 0.059886 
0.022613 0.018840 0.019752 
0.016978 0.021851 0.040215 
-0.000977 0.022925 0.001000 
-0.006425 -0.025495 0.007923 
0.023600 0.019180 0.033002 
-0.022437 0.005281 0.000000 
-0.025808 -0.017598 0.047772 
-0.018875 0.025683 0.058235 
0.021554 -0.018919 0.011903 
0.022342 0.019461 0.058287 
0.003622 -0.013551 0.000000 
0.025941 0.014041 0.017309 
-0.027638 -0.005320 0.043668 
-0.029418 -0.000193 0.017219 
-0.027199 0.011590 0.021887 
-0.016296 0.018697 0.000832 
-0.003564 0.001704 0.000000 
-0.000185 -0.025367 0.005871 
-0.017930 -0.023511 0.022497 
0.022903 -0.020857 0.037804 
-0.015492 -0.024040 0.053078 
-0.000373 0.030914 0.038365 
0.015167 -0.020430 0.000000 
0.026496 -0.012287 0.015689 
-0.012191 0.029092 0.059733 
0.010126 0.024819 0.016128 
-0.012952 0.027494 0.032559 
-0.019045 0.022384 0.019027 
-0.001275 0.029187 0.015951 
-0.021064 0.022781 0.038528 
0.012909 0.021290 0.000694 
0.028761 -0.003742 0.051311 
0.017290 0.021922 0.004847 
-0.014888 0.026064 0.021382 
-0.012307 -0.024260 0.000000 
0.027158 0.010250 0.058557 
0.010799 -0.022975 0.001350 
-0.015616 0.023523 0.048089 
-0.007563 -0.014787 0.001000 
-0.009123 -0.027549 0.035933 
-0.023798 0.020921 0.064000 
-0.010631 -0.027197 0.017627 
-0.019731 0.019843 0.040718 
-0.030185 0.009439 0.063969 
-0.003704 0.027044 0.000355 
0.029408 -0.001552 0.050247 
0.024372 -0.006955 0.008832 
0.027494 0.001109 0.003951 
-0.013598 -0.015234 0.001000 
0.016317 0.004335 0.000000 
-0.010512 0.028525 0.035665 
-0.014170 0.025599 0.059990 
-0.030368 -0.000000 0.049817 
-0.005104 -0.019299 0.000000 
0.009937 0.029228 0.045789 
0.022414 -0.013463 0.011537 
-0.017335 0.025911 0.046742 
-0.014763 0.024313 0.050024 
-0.007660 -0.027648 0.010612 
-0.020416 -0.018043 0.027316 
0.023089 -0.016689 0.025597 
0.006019 0.030978 0.058866 
-0.023681 -0.014590 0.032567 
-0.028170 -0.008561 0.021453 
-0.024839 -0.017839 0.043952 
0.027417 0.004282 0.003333 
0.028566 -0.001720 0.040180 
-0.020043 0.021794 0.019940 
-0.028264 0.012498 0.042327 
0.026426 0.011483 0.054448 
0.004302 0.028956 0.063291 
-0.003696 0.008807 0.000000 
0.000893 -0.022103 0.000000 
0.026945 -0.015987 0.048688 
0.018483 0.018675 0.018314 
0.009910 -0.026917 0.010870 
0.014709 0.021074 0.013005 
-0.026227 0.016383 0.042155 
-0.009507 0.028684 0.034881 
0.030186 -0.001556 0.027692 
-0.017046 -0.026057 0.046055 
-0.016763 -0.027238 0.060356 
-0.003724 0.031140 0.047716 
-0.011093 0.014874 0.001000 
0.026807 -0.007621 0.042849 
-0.006346 -0.028177 0.011797 
-0.022661 0.018518 0.016759 
-0.015053 0.026182 0.025133 
0.020418 -0.023457 0.041003 
-0.018027 -0.026056 0.055468 
0.004514 -0.027234 0.035746 
0.011420 -0.022532 0.001711 
0.000527 -0.027583 0.041323 
-0.018022 0.024895 0.038976 
-0.024288 0.016342 0.047816 
0.028276 0.006361 0.056269 
0.028979 0.000483 0.015409 
0.013218 -0.025698 0.010661 
-0.030489 -0.000895 0.030285 
-0.031085 -0.000762 0.042035 
0.025852 0.009628 0.039182 
0.028630 0.013890 0.062225 
0.014676 -0.022900 0.032729 
0.007658 -0.029935 0.048391 
0.019638 0.020350 0.007955 
-0.017113 0.018843 0.008988 
0.008824 0.025801 0.000454 
0.023646 -0.013655 0.000000 
0.013510 -0.020862 0.001061 
-0.027944 0.008736 0.019131 
-0.031459 -0.000842 0.051007 
0.001607 -0.027000 0.000507 
0.007924 -0.027208 0.007094 
0.028133 -0.007005 0.057186 
0.011039 -0.018837 0.000000 
-0.013144 -0.017581 0.000000 
0.022878 0.019514 0.063505 
0.023786 -0.016874 0.043651 
0.022590 -0.022292 0.061172 
0.027967 0.008119 0.016757 
-0.011657 -0.028809 0.048659 
0.021756 0.021406 0.032041 
0.012551 -0.028036 0.038380 
-0.027349 -0.007227 0.048109 
0.024683 0.017699 0.051421 
0.009000 -0.019935 0.000000 
-0.003445 0.010008 0.001000 
0.021037 -0.022031 0.031139 
0.028349 0.006648 0.058429 
