
# .PCD v.6 - Point Cloud Data file format
FIELDS x y z 
SIZE 4 4 4 
TYPE F F F 
COUNT 1 1 1 
WIDTH 1646
HEIGHT 1
VIEWPOINT 0.000000 0.000000 0.000000 1.000000 0.000000 0.000000 0.00000
POINTS 1646
DATA ascii
0.033688 0.015309 0.039077 
-0.032640 0.020417 0.048242 
0.002232 0.036680 0.037518 
0.024576 -0.026692 0.029679 
0.035861 -0.008555 0.000672 
-0.038887 -0.001142 0.045749 
0.035482 0.006992 0.025381 
0.011286 -0.030269 0.000000 
0.033156 0.004123 0.000000 
-0.037821 0.009517 0.069906 
0.019436 -0.033635 0.064200 
-0.012714 0.024183 0.001000 
-0.009960 -0.037372 0.047210 
0.038881 0.008328 0.022480 
-0.032332 -0.019160 0.003711 
0.038961 0.010841 0.034269 
-0.025800 -0.026895 0.000000 
-0.011839 0.036495 0.007452 
-0.035825 -0.004134 0.016840 
-0.027627 0.023548 0.017713 
0.024215 0.031653 0.070000 
-0.019447 0.032430 0.049762 
-0.011603 0.034791 0.013321 
-0.036738 -0.001089 0.015412 
0.026801 -0.031645 0.045183 
0.020116 -0.032844 0.061178 
-0.025428 -0.027855 0.048721 
0.015139 -0.032007 0.000000 
-0.006965 0.025194 0.001000 
0.003845 -0.039633 0.020157 
0.020053 -0.030722 0.037823 
-0.037253 0.001405 0.024095 
-0.031043 -0.023049 0.010056 
-0.020188 -0.032204 0.053610 
-0.007734 -0.038454 0.015356 
0.029327 0.005221 0.001000 
0.002547 -0.037136 0.001228 
-0.008365 0.039883 0.039736 
-0.013585 0.038096 0.064765 
0.033159 0.011398 0.013413 
0.038942 -0.012899 0.042604 
0.021837 -0.018580 0.001000 
-0.021627 0.029805 0.038203 
-0.001552 0.036196 0.030744 
0.035771 0.002924 0.010443 
0.032424 -0.023568 0.043869 
-0.033689 -0.025240 0.066690 
0.011416 0.040664 0.066682 
-0.012312 0.037716 0.027038 
-0.035755 0.008321 0.035395 
-0.028827 0.016138 0.001000 
0.022885 0.028897 0.000000 
-0.002271 0.038049 0.056688 
-0.030501 0.023064 0.037212 
-0.013297 -0.034878 0.027560 
0.032447 0.014448 0.017679 
-0.031434 0.021578 0.006503 
-0.035116 0.004640 0.009276 
0.003542 -0.015446 0.001000 
-0.002356 -0.008277 0.000000 
0.026860 -0.008181 0.000000 
-0.022090 -0.035622 0.061673 
0.021992 0.036064 0.065000 
0.018730 -0.033420 0.056188 
0.039525 -0.006381 0.025017 
-0.001532 -0.041448 0.049822 
0.040710 0.000877 0.037904 
0.000616 -0.026623 0.000000 
0.014566 0.033973 0.028511 
0.015001 0.033452 0.026411 
-0.001512 0.025266 0.001000 
0.034495 -0.019163 0.068353 
0.000793 -0.040759 0.038949 
-0.030678 0.027299 0.034587 
0.036709 0.008450 0.049367 
-0.007311 0.037832 0.053643 
-0.029793 -0.014626 0.001000 
-0.025152 0.027590 0.043213 
-0.023430 0.027437 0.026363 
0.012149 -0.030924 0.001000 
0.012113 -0.036782 0.029471 
0.034319 0.010279 0.024432 
0.024909 0.028039 0.048154 
0.014717 -0.038159 0.040160 
-0.034026 0.018794 0.060064 
0.021782 0.010500 0.000000 
0.036342 -0.002105 0.014612 
-0.030144 0.029771 0.067809 
0.007872 -0.038764 0.066697 
-0.001701 0.037927 0.004173 
0.020070 -0.032197 0.053847 
0.011863 -0.033120 0.000000 
0.008389 -0.030609 0.000000 
0.032864 0.023497 0.065749 
-0.003376 -0.034417 0.005842 
-0.031736 0.018631 0.000000 
0.034456 -0.014378 0.001677 
-0.038707 0.015048 0.049694 
-0.007923 0.034054 0.000750 
0.029917 0.025574 0.014315 
0.019448 -0.034613 0.019036 
0.026679 -0.024828 0.025582 
0.039355 -0.015366 0.068617 
-0.021114 0.036281 0.054270 
0.035000 -0.001894 0.001000 
0.009850 0.040751 0.056530 
-0.030302 -0.001219 0.000000 
0.032419 0.021418 0.049820 
0.037383 -0.009244 0.062496 
-0.014195 0.035930 0.046030 
0.021963 0.028089 0.023845 
0.040894 0.000157 0.041777 
0.035392 0.012261 0.002350 
-0.013275 -0.002059 0.001000 
0.039462 -0.000000 0.038448 
0.003600 0.006210 0.001000 
-0.019264 -0.001298 0.000000 
-0.007819 -0.018226 0.000000 
0.014398 0.031651 0.001251 
0.006625 0.039163 0.020475 
-0.040164 -0.000000 0.054132 
-0.041598 -0.003567 0.059538 
0.014967 -0.031664 0.006287 
0.021773 0.031781 0.063112 
-0.006836 -0.041581 0.059111 
0.012287 -0.037413 0.018328 
-0.015616 -0.032824 0.023439 
0.036722 0.009083 0.052501 
0.036442 -0.013229 0.067920 
0.022139 -0.028377 0.028785 
-0.030363 0.023629 0.042592 
0.027107 0.028285 0.068545 
-0.017006 0.034044 0.006429 
0.008697 0.036405 0.033674 
0.001166 0.037642 0.050982 
0.040774 -0.000029 0.039248 
-0.038259 -0.010461 0.070000 
0.039892 -0.002501 0.066161 
0.035612 -0.006290 0.001000 
0.020540 0.037204 0.069331 
0.021529 0.030056 0.042569 
-0.036341 -0.020435 0.045517 
0.035611 -0.001210 0.000195 
-0.010735 -0.000302 0.000000 
0.001280 -0.039541 0.016577 
0.028342 0.023900 0.028827 
0.022361 -0.002958 0.000000 
-0.030383 -0.022105 0.019495 
-0.005212 0.032888 0.000000 
-0.032362 0.020348 0.044028 
0.038999 0.012783 0.043065 
-0.029990 0.021789 0.014021 
-0.037724 0.018045 0.050393 
-0.026866 -0.027611 0.058457 
-0.030453 0.024714 0.056051 
-0.023471 0.030504 0.062494 
0.002150 0.030177 0.000000 
-0.017385 0.034280 0.053305 
-0.036427 -0.014481 0.018339 
-0.015468 0.016001 0.001000 
0.031121 0.024224 0.056538 
-0.025481 0.031360 0.031402 
-0.033916 -0.025079 0.069229 
0.001105 0.017636 0.000000 
0.031316 0.027943 0.051230 
-0.036668 0.007947 0.046441 
-0.012220 0.038011 0.024699 
-0.033750 0.015907 0.042732 
0.036504 -0.008160 0.045130 
-0.035889 0.005754 0.025298 
-0.003915 -0.031614 0.000000 
0.011968 -0.008426 0.000000 
0.019165 -0.019052 0.001000 
-0.003718 0.040295 0.029203 
0.030070 0.028791 0.070000 
-0.037279 -0.019636 0.059530 
-0.035212 0.009209 0.031947 
0.006845 -0.035272 0.017808 
-0.026237 0.024843 0.020660 
0.011670 -0.035081 0.000000 
-0.032639 0.023639 0.047365 
0.034049 0.009719 0.000000 
-0.001800 0.035292 0.018093 
-0.035931 -0.011279 0.051675 
-0.036505 0.011089 0.005745 
-0.008315 0.041507 0.070000 
-0.034536 -0.007314 0.013632 
0.022894 -0.028667 0.000000 
-0.004195 0.039148 0.017039 
-0.027387 0.026057 0.001997 
-0.033293 -0.024293 0.058216 
0.040890 0.007915 0.052755 
-0.035549 0.001090 0.001000 
0.012991 -0.038907 0.068927 
-0.032924 -0.023943 0.049747 
-0.030263 0.026543 0.023479 
-0.031106 0.028487 0.059427 
0.022601 0.031517 0.013447 
-0.010866 0.035304 0.000093 
-0.021422 -0.029682 0.000000 
0.033837 -0.000723 0.000000 
-0.009004 0.001111 0.000000 
0.000442 -0.038871 0.068198 
-0.032911 0.016743 0.034891 
-0.030791 -0.026336 0.029427 
0.041830 0.000232 0.055539 
-0.037376 0.013988 0.028178 
-0.040186 0.010114 0.053653 
-0.014798 0.034329 0.033371 
-0.039417 -0.001142 0.018841 
0.026015 -0.027557 0.002576 
0.001933 0.040474 0.032945 
0.021718 0.034005 0.030593 
0.035410 -0.006556 0.001000 
-0.007852 -0.036773 0.038819 
0.021731 0.035983 0.057810 
-0.035140 -0.015648 0.060993 
-0.028368 0.021532 0.000815 
-0.039067 0.012821 0.044579 
0.035066 0.015437 0.008030 
-0.035284 0.013114 0.051181 
0.038288 0.016841 0.050457 
0.001162 0.041422 0.049490 
0.006259 -0.026288 0.001000 
0.039835 -0.004680 0.023088 
-0.033113 0.024113 0.061058 
-0.031796 -0.021457 0.041279 
0.001314 -0.038708 0.009259 
-0.014506 -0.022562 0.001000 
0.010015 -0.002866 0.001000 
-0.038222 0.000700 0.005499 
0.037726 -0.012810 0.024837 
0.017554 0.035454 0.020796 
0.037865 0.018063 0.054302 
-0.024925 0.027956 0.045489 
-0.035159 0.002847 0.001514 
0.023777 0.016588 0.001000 
-0.019309 -0.028172 0.001880 
0.042567 -0.000838 0.067098 
0.007483 -0.034900 0.012595 
-0.033739 -0.021623 0.026805 
0.011983 -0.034422 0.012482 
0.022287 -0.035367 0.052630 
-0.008448 0.008410 0.001000 
-0.012801 0.039203 0.059537 
0.021929 0.029170 0.036262 
-0.035100 0.006004 0.015419 
0.019479 -0.031871 0.045560 
-0.037774 0.009972 0.012735 
0.002039 0.034648 0.009068 
-0.029469 0.024559 0.006347 
0.036137 -0.011050 0.053479 
0.033074 0.005073 0.001000 
-0.024929 0.027463 0.039775 
0.008420 0.010341 0.001000 
0.009361 -0.035900 0.001081 
-0.033291 -0.014394 0.029253 
0.007578 0.040818 0.054629 
0.027790 -0.024258 0.000000 
0.009392 -0.035739 0.024344 
0.021355 0.028179 0.019697 
-0.039643 -0.002300 0.020498 
-0.025831 0.030678 0.024317 
0.000204 -0.041942 0.056247 
0.014732 0.036997 0.028078 
-0.015888 0.035450 0.054101 
0.022539 -0.035543 0.062129 
-0.016072 -0.034887 0.008535 
-0.024252 -0.025765 0.014514 
-0.029784 0.023744 0.038873 
-0.040679 -0.000000 0.050241 
0.032454 -0.017246 0.030833 
0.000336 -0.035403 0.019638 
0.034514 -0.015315 0.004178 
0.007707 -0.037038 0.004670 
-0.028034 0.025684 0.046192 
0.021307 0.036264 0.056860 
0.038651 0.001348 0.043397 
0.016113 0.038032 0.042229 
-0.031877 0.015175 0.013094 
0.031058 -0.022777 0.019681 
-0.037241 -0.009106 0.006830 
0.035247 0.013870 0.054189 
0.032659 0.017980 0.001344 
0.035979 0.013169 0.061160 
0.037105 0.011435 0.068839 
-0.002808 -0.013984 0.000000 
-0.040424 0.006284 0.041496 
-0.007353 -0.023489 0.001000 
-0.032777 -0.023833 0.044725 
-0.032341 0.023537 0.056256 
-0.025259 0.027444 0.042440 
-0.007661 0.015589 0.001000 
0.032131 -0.023560 0.039992 
-0.017360 -0.030663 0.013650 
0.041410 -0.001128 0.052992 
0.015150 -0.037031 0.030637 
-0.026056 0.023223 0.001057 
-0.021922 0.031614 0.061891 
-0.004445 0.035562 0.021863 
0.017885 -0.038107 0.058277 
-0.037818 -0.001487 0.003679 
0.018010 0.025229 0.000000 
-0.032880 -0.023914 0.065466 
0.012056 -0.035918 0.005587 
-0.022867 0.031475 0.014716 
-0.037213 -0.006042 0.045183 
-0.007411 0.036379 0.033310 
0.012607 0.037766 0.035496 
0.039810 0.011105 0.052739 
0.038963 -0.000000 0.011043 
-0.012830 0.039574 0.059774 
-0.023201 0.027053 0.020258 
0.016854 -0.034198 0.006908 
-0.019681 0.010690 0.000000 
-0.005624 -0.035299 0.018183 
0.004620 -0.025917 0.001000 
0.031774 -0.021116 0.007994 
-0.030313 -0.021423 0.020359 
-0.000055 -0.038217 0.059038 
0.025718 0.004582 0.000000 
0.039662 -0.000226 0.019058 
-0.038621 -0.000258 0.037901 
-0.015557 0.031736 0.011157 
-0.016674 -0.025680 0.001000 
0.017791 -0.037895 0.051547 
0.012685 -0.038120 0.035706 
0.031891 -0.027728 0.063641 
-0.007803 -0.022723 0.001000 
0.031586 0.022758 0.023852 
0.029830 -0.021726 0.007277 
-0.005329 0.011972 0.000000 
-0.022858 -0.019746 0.000000 
-0.038550 -0.016508 0.055100 
0.029656 0.023803 0.004635 
0.008689 -0.041506 0.070000 
0.037133 0.013967 0.023982 
0.034834 0.005157 0.007744 
-0.034380 -0.017910 0.060899 
0.008659 0.022339 0.001000 
-0.027943 0.025478 0.042993 
0.007235 -0.031497 0.000000 
0.007865 0.024097 0.000000 
-0.037632 -0.003617 0.039731 
-0.032805 -0.023935 0.040819 
-0.037919 -0.000000 0.006364 
0.004713 0.039678 0.020991 
-0.019933 0.016536 0.000000 
0.004217 0.036282 0.001000 
-0.005773 -0.034422 0.005903 
0.004892 -0.041086 0.050874 
-0.021545 0.027243 0.000000 
0.038714 0.016826 0.061418 
0.034808 -0.009785 0.028970 
-0.010845 0.038716 0.030181 
0.029636 0.022252 0.000000 
0.012450 0.037327 0.023838 
-0.022628 -0.019749 0.001000 
-0.037120 -0.019694 0.056141 
-0.032660 0.025482 0.054110 
-0.041867 -0.003960 0.066547 
0.026069 -0.027995 0.004791 
-0.021933 -0.026564 0.001000 
-0.039441 0.014377 0.064421 
-0.034007 -0.014955 0.041892 
0.028508 -0.011663 0.001000 
-0.023073 -0.029842 0.051287 
0.017411 0.030361 0.011775 
0.037918 -0.007974 0.064061 
0.033053 0.024053 0.053203 
0.006624 -0.005820 0.000000 
0.010095 -0.007274 0.000000 
0.029326 -0.017162 0.001000 
-0.014468 0.031870 0.004075 
0.026735 -0.020760 0.000000 
0.035743 -0.004309 0.016514 
0.039869 0.013003 0.066607 
-0.009552 -0.012649 0.001000 
-0.023928 -0.032936 0.042569 
-0.019921 -0.012070 0.001000 
0.020574 0.017323 0.001000 
-0.038599 -0.017449 0.065417 
0.033693 0.013571 0.031042 
-0.017618 0.036920 0.037520 
-0.027978 -0.029450 0.027488 
0.010106 0.034057 0.000793 
-0.004728 0.035184 0.000000 
-0.013535 -0.004141 0.000000 
0.016418 0.035426 0.059115 
-0.015925 -0.013455 0.001000 
-0.035981 -0.021080 0.045579 
0.025771 0.028911 0.064493 
-0.030826 -0.023860 0.014586 
0.034704 0.018707 0.019147 
-0.038780 -0.000930 0.009181 
-0.024815 0.029581 0.063493 
-0.031064 -0.028812 0.066786 
0.010841 0.007300 0.000000 
0.017035 0.033757 0.046126 
-0.033002 0.022815 0.031574 
-0.039958 -0.000000 0.032210 
-0.039859 -0.004822 0.024354 
0.039176 -0.007521 0.023942 
0.019478 -0.023378 0.000000 
-0.020745 0.035551 0.036604 
-0.003109 0.038028 0.007248 
0.036367 0.008406 0.002107 
0.009199 -0.039698 0.039771 
-0.033209 0.010949 0.012022 
-0.038537 0.006340 0.065100 
-0.001699 -0.039277 0.017940 
-0.031207 -0.025094 0.026550 
0.027521 0.010942 0.001000 
-0.016716 0.033558 0.002495 
0.020037 0.030375 0.033950 
0.027986 -0.026178 0.005239 
-0.033541 -0.009825 0.011417 
0.037629 -0.007796 0.007332 
-0.006613 -0.033293 0.000000 
0.035791 0.007432 0.001000 
-0.040629 -0.011471 0.066486 
-0.019716 0.034917 0.022045 
0.026082 0.030271 0.021246 
-0.013666 0.027919 0.000000 
-0.030248 0.020288 0.014149 
-0.015959 -0.038740 0.070000 
-0.035624 0.014535 0.062571 
-0.020797 0.036172 0.045848 
-0.019667 0.037345 0.061637 
0.033337 -0.010337 0.010952 
-0.026551 0.024729 0.000000 
0.038953 0.000720 0.044704 
-0.036490 0.003104 0.021340 
-0.014886 -0.036525 0.057903 
-0.031309 -0.025209 0.069317 
-0.037733 0.010298 0.013306 
-0.035871 -0.012900 0.058394 
-0.029221 0.020454 0.001000 
-0.019305 -0.028764 0.008282 
0.000620 -0.030550 0.000000 
0.022261 -0.000487 0.000000 
0.030293 0.011765 0.001000 
0.034895 0.012101 0.040995 
0.034687 -0.006039 0.009800 
-0.015016 -0.036802 0.061993 
-0.003693 -0.042056 0.069462 
0.016614 0.038401 0.051910 
0.006045 -0.034813 0.011379 
-0.023559 0.013923 0.001000 
-0.013063 -0.034646 0.000220 
0.001632 -0.042292 0.062194 
0.014953 0.033039 0.021582 
-0.018597 0.028992 0.000000 
-0.016803 -0.016778 0.000000 
-0.029556 0.030318 0.066725 
-0.019455 0.033767 0.065427 
-0.009125 -0.041024 0.058118 
-0.005469 0.034648 0.009069 
-0.001164 0.037688 0.003094 
-0.016358 -0.031016 0.009621 
0.031075 -0.022415 0.017178 
-0.032416 0.021936 0.052199 
-0.035496 0.021229 0.041114 
0.007061 -0.040485 0.046520 
0.024921 -0.029688 0.066005 
0.016928 -0.038907 0.067108 
-0.037722 0.008312 0.008100 
0.035725 0.013348 0.058435 
0.015937 0.035576 0.056843 
0.028832 -0.024659 0.042043 
-0.039759 -0.000000 0.036601 
0.017175 0.031174 0.019421 
0.023823 0.026770 0.024142 
0.012366 -0.037781 0.029890 
-0.009056 0.034653 0.009149 
0.025452 -0.025172 0.019125 
-0.036078 -0.002396 0.012268 
-0.000756 0.035195 0.016731 
-0.009067 0.010388 0.001000 
0.020779 0.036370 0.050749 
0.034573 0.014792 0.003397 
-0.003491 -0.037793 0.053109 
-0.032016 0.023211 0.030181 
0.032049 -0.013855 0.000000 
0.021393 -0.031698 0.059156 
0.030269 -0.020287 0.014436 
0.003035 -0.036831 0.000000 
-0.031628 -0.020993 0.005622 
0.004265 -0.037167 0.044336 
0.004842 -0.041718 0.066335 
0.032497 -0.025458 0.049865 
-0.034439 -0.009561 0.022761 
-0.002399 0.038895 0.012467 
0.032984 0.018382 0.043566 
0.018319 0.032036 0.037965 
0.000715 0.039230 0.012217 
0.025927 -0.026879 0.043502 
0.025625 -0.026675 0.038485 
-0.036159 -0.002231 0.012641 
-0.007894 0.035294 0.018120 
0.033415 -0.020810 0.060927 
-0.032587 0.023786 0.057162 
0.036788 0.006881 0.043146 
-0.012331 0.038348 0.030396 
0.021320 -0.013254 0.001000 
0.012012 0.035420 0.002439 
-0.026693 0.025012 0.026626 
0.030077 0.020140 0.011062 
-0.011575 -0.035211 0.011125 
0.041400 0.002766 0.054399 
0.029749 0.019431 0.003158 
-0.008786 -0.041969 0.069199 
-0.039000 0.011196 0.036427 
-0.023091 -0.029165 0.043557 
0.032040 0.023212 0.045141 
0.006934 -0.022742 0.000000 
0.022753 -0.026719 0.014359 
0.036049 0.016130 0.023957 
-0.028789 0.026291 0.009557 
-0.030009 0.029924 0.068268 
0.022770 -0.024786 0.000000 
0.000471 0.034757 0.010604 
0.012737 -0.029289 0.001000 
-0.011443 -0.040359 0.070000 
0.034355 -0.005667 0.003418 
0.035933 0.008528 0.000293 
-0.025794 -0.031226 0.031716 
0.006756 0.036797 0.039162 
-0.032214 0.017415 0.028264 
-0.012676 -0.038731 0.048917 
-0.003666 -0.036904 0.040659 
0.008548 0.001909 0.001000 
0.036573 -0.020522 0.052695 
0.029240 0.010760 0.001000 
-0.018220 0.021510 0.001000 
0.011628 -0.037530 0.015118 
0.033707 0.025031 0.065186 
-0.010000 0.036196 0.030745 
0.022423 -0.025756 0.000076 
0.024661 -0.029603 0.007437 
-0.017897 0.025584 0.001000 
-0.030956 -0.022531 0.029726 
0.035738 0.018293 0.028233 
-0.030853 -0.026165 0.029100 
0.031696 -0.023066 0.044053 
-0.025180 0.031153 0.026407 
0.030037 -0.029787 0.065415 
-0.033975 -0.012726 0.031038 
-0.010236 0.041138 0.063663 
0.036022 0.009365 0.044010 
0.032049 0.022379 0.019346 
-0.038335 -0.011252 0.070000 
-0.009967 0.025792 0.000000 
0.023807 -0.020160 0.000000 
0.038869 0.004998 0.015082 
-0.040325 -0.007087 0.042993 
-0.014196 0.033852 0.000000 
-0.036145 -0.019301 0.038085 
-0.016115 -0.033442 0.000440 
-0.012407 0.037916 0.041323 
0.012603 0.037423 0.042223 
0.021814 -0.026787 0.007095 
0.033221 -0.024239 0.068756 
0.032974 -0.020513 0.053365 
0.036511 0.004321 0.027325 
0.021467 0.030155 0.043128 
0.011926 0.037727 0.052179 
-0.022514 0.031213 0.062399 
-0.037090 0.013272 0.019171 
-0.029997 0.023896 0.042505 
-0.040651 0.003549 0.036665 
-0.014620 0.039393 0.064753 
-0.039295 0.014724 0.062884 
-0.019607 -0.036944 0.050447 
0.040921 -0.003186 0.042332 
0.016169 -0.033488 0.036235 
-0.009607 0.039093 0.031314 
-0.033708 -0.020028 0.061378 
-0.024633 0.026765 0.029052 
0.039323 -0.014197 0.060176 
-0.001824 0.019248 0.000000 
0.004227 -0.035290 0.018066 
-0.039062 -0.003559 0.016437 
0.004168 -0.041853 0.067045 
0.029501 0.023526 0.002797 
-0.019726 0.033487 0.064535 
-0.040549 0.000317 0.034533 
0.028370 0.025034 0.042540 
0.033142 0.017280 0.040631 
0.028561 -0.025134 0.045374 
-0.015052 -0.014196 0.000000 
-0.014756 0.035604 0.046891 
-0.013949 -0.035155 0.035688 
-0.023282 -0.034279 0.055006 
0.017175 0.031128 0.000000 
0.028309 0.024258 0.000000 
0.023443 0.030272 0.060352 
-0.038308 0.014154 0.040230 
0.026772 -0.029963 0.021411 
0.009911 -0.014868 0.000000 
-0.040808 0.001603 0.039963 
0.024553 -0.028422 0.000671 
-0.009797 0.038107 0.016789 
-0.002518 -0.035331 0.018633 
-0.033095 -0.013395 0.021837 
0.032942 -0.025585 0.059582 
-0.027753 0.026286 0.050756 
-0.035199 -0.005954 0.016574 
0.036109 -0.006437 0.031560 
-0.000763 -0.034965 0.013503 
0.037554 -0.013138 0.024721 
0.015414 0.032985 0.000000 
-0.033962 -0.009399 0.015323 
-0.010285 0.035439 0.020149 
0.036249 0.008570 0.043472 
-0.026401 -0.028738 0.067538 
0.032639 -0.023729 0.050170 
0.039944 -0.008582 0.041305 
-0.026756 -0.025465 0.032456 
-0.038670 0.001590 0.044801 
-0.032651 -0.025662 0.052352 
0.003096 0.020882 0.001000 
0.030032 0.023596 0.039717 
0.033606 0.010289 0.014503 
-0.006615 -0.003739 0.000000 
0.038780 0.015430 0.054067 
-0.019722 -0.035563 0.031289 
-0.024977 -0.026689 0.031162 
-0.035865 0.006583 0.000000 
-0.033677 -0.021398 0.067331 
0.001606 0.036992 0.000000 
0.015721 -0.033695 0.000337 
0.035047 -0.008848 0.000000 
0.015193 -0.032825 0.021211 
0.019224 0.029168 0.013159 
0.022817 -0.027004 0.018286 
-0.022818 0.031434 0.013799 
-0.037000 0.000107 0.000350 
-0.032524 0.024413 0.040218 
-0.021008 -0.026842 0.000758 
0.013940 -0.034734 0.031645 
-0.023682 0.001621 0.000000 
0.022290 -0.027634 0.021249 
-0.034046 -0.010438 0.021349 
-0.012934 -0.034871 0.024633 
0.023102 0.002275 0.001000 
-0.022412 0.012464 0.000000 
0.030972 -0.020737 0.001167 
-0.012046 -0.037629 0.050805 
0.026098 -0.027145 0.048117 
0.011671 -0.038892 0.068488 
0.013254 -0.039738 0.070000 
0.023350 0.028291 0.038163 
-0.035508 -0.011994 0.049083 
0.005119 0.037249 0.002380 
-0.018033 0.009160 0.000000 
-0.033557 -0.012153 0.022510 
0.035520 0.021807 0.048251 
0.009474 -0.041140 0.070000 
0.036596 0.008052 0.045915 
-0.004364 -0.041784 0.064372 
-0.032892 -0.010693 0.006395 
0.018634 0.030375 0.022442 
0.018439 0.036872 0.070000 
-0.033380 -0.023546 0.043226 
0.007838 -0.039857 0.070000 
-0.022580 0.027018 0.015005 
0.030891 -0.023990 0.051783 
0.040903 0.000131 0.041961 
-0.028286 -0.029596 0.032255 
0.024621 -0.024203 0.000475 
-0.026277 0.028973 0.069194 
-0.003651 0.031202 0.000000 
-0.025063 -0.031666 0.032759 
-0.008087 0.035789 0.025052 
0.027549 -0.024451 0.028563 
-0.020268 -0.023377 0.001000 
0.033361 0.025882 0.068670 
0.033019 -0.024019 0.052911 
-0.021203 0.036627 0.065569 
-0.016273 -0.037338 0.035381 
0.003559 -0.040401 0.031417 
0.036197 0.020129 0.041998 
-0.040639 -0.007014 0.047139 
0.016498 0.037847 0.041398 
0.036472 -0.000990 0.001000 
0.003232 0.035595 0.022325 
0.028324 0.025954 0.053086 
-0.011664 0.036136 0.014919 
-0.027350 0.022823 0.006853 
0.033460 -0.012004 0.020467 
0.037876 -0.003827 0.007880 
-0.022524 -0.032975 0.028239 
-0.037084 0.018870 0.044499 
-0.024344 0.027482 0.034883 
-0.036187 -0.021358 0.058174 
0.036051 -0.003681 0.017895 
-0.031909 0.020403 0.037944 
-0.012248 -0.008880 0.000000 
-0.006013 -0.038733 0.066261 
0.019036 0.029862 0.019792 
-0.031455 -0.022873 0.040693 
-0.001655 0.000676 0.000000 
-0.003996 -0.035211 0.016950 
-0.005491 -0.036340 0.032754 
0.021753 0.035314 0.044875 
0.022567 -0.025885 0.002836 
-0.027380 -0.031371 0.045600 
-0.005738 0.019248 0.000000 
0.041556 0.002875 0.058459 
0.029982 0.021656 0.007497 
-0.037440 0.000144 0.020832 
-0.021341 0.035792 0.047454 
-0.004892 0.000146 0.001000 
0.030280 0.002319 0.000000 
0.002796 -0.038841 0.012780 
-0.011416 0.037063 0.042888 
-0.032178 0.008762 0.001000 
-0.001734 0.035816 0.001000 
0.005197 0.037012 0.042163 
-0.007009 -0.041245 0.055007 
-0.018822 -0.015789 0.000000 
0.026391 0.029752 0.070000 
0.028423 -0.024405 0.035519 
-0.002271 -0.040424 0.031901 
0.017016 0.034643 0.055512 
0.015365 -0.037670 0.037110 
0.006241 0.034177 0.002479 
-0.015647 -0.039317 0.069458 
-0.026783 0.028291 0.065663 
0.023005 0.025627 0.003528 
-0.003039 0.035057 0.000000 
0.021909 0.033764 0.030073 
-0.035937 -0.019812 0.037955 
-0.035583 0.020285 0.033994 
-0.034634 -0.022242 0.042706 
0.026147 -0.024900 0.021868 
0.010112 -0.039223 0.035626 
-0.028160 0.029384 0.028705 
-0.015422 -0.038450 0.045455 
0.003923 -0.041031 0.044406 
0.039966 -0.000000 0.035079 
0.028273 -0.023690 0.025734 
0.032137 0.013766 0.000000 
0.040169 -0.001165 0.026557 
0.024836 -0.028965 0.004619 
-0.011244 0.014926 0.001000 
-0.022700 -0.030318 0.053584 
0.003258 -0.037683 0.051566 
0.038671 0.009822 0.025124 
-0.012400 0.038184 0.049016 
0.009695 0.024848 0.001000 
0.031239 -0.022681 0.010123 
-0.031561 0.017496 0.019502 
-0.014550 -0.039223 0.070000 
-0.017760 0.032814 0.040142 
0.037568 -0.000572 0.024622 
-0.033095 0.024095 0.055153 
-0.023585 0.012167 0.000000 
-0.000624 0.040371 0.030785 
-0.017967 -0.031536 0.027886 
0.004647 -0.017726 0.000000 
0.017631 0.033615 0.006319 
-0.038893 0.007846 0.020968 
0.006145 -0.015684 0.000000 
-0.012255 -0.037981 0.024519 
-0.028319 -0.031122 0.055444 
-0.033182 0.021307 0.059982 
0.016145 -0.034245 0.004904 
-0.009155 0.036920 0.005440 
0.030062 0.021642 0.017868 
-0.039190 -0.005108 0.068500 
-0.033487 -0.021200 0.021542 
-0.001021 0.035020 0.014274 
-0.041379 -0.009556 0.063733 
0.004099 0.040273 0.029144 
0.040100 -0.001175 0.062879 
0.005909 -0.035018 0.014247 
-0.024562 0.027206 0.033566 
-0.040186 0.010874 0.058597 
0.036976 0.003553 0.001000 
-0.035780 0.009761 0.042465 
0.026401 -0.025492 0.000000 
0.039577 -0.002808 0.020039 
0.029661 -0.023390 0.034083 
0.012170 0.002903 0.000000 
-0.035549 -0.016470 0.018328 
-0.011439 0.035154 0.011107 
-0.038561 0.014576 0.043579 
-0.012750 0.038806 0.061265 
-0.035275 -0.015477 0.062079 
0.040627 -0.000000 0.060621 
0.029425 0.029920 0.052982 
-0.018242 -0.017477 0.000000 
0.012702 -0.009186 0.001000 
0.038550 -0.001490 0.008651 
-0.004441 0.034592 0.008288 
0.019055 -0.029423 0.014744 
-0.025822 -0.030453 0.021735 
-0.005060 -0.033784 0.000000 
0.038687 0.001917 0.046569 
-0.010043 0.038229 0.019362 
0.009918 -0.034733 0.010266 
-0.010959 0.038322 0.024045 
0.032675 -0.019806 0.045871 
0.006521 0.035778 0.024890 
0.039232 -0.012090 0.044055 
0.023899 0.029062 0.051006 
-0.032549 -0.011130 0.001000 
0.012290 -0.037242 0.017639 
-0.024738 -0.027852 0.042644 
-0.027530 -0.024780 0.031240 
-0.033094 0.024094 0.060270 
-0.024928 -0.025835 0.020778 
-0.015741 0.002962 0.000000 
-0.036631 -0.006311 0.000941 
0.006713 -0.034056 0.000790 
-0.033205 -0.023452 0.040395 
0.030820 0.022220 0.014777 
-0.019587 -0.033187 0.059824 
0.027633 -0.027104 0.060080 
-0.014730 -0.028343 0.000000 
-0.038415 -0.002171 0.043945 
-0.019336 0.031843 0.000602 
-0.004701 0.041822 0.065360 
-0.011796 -0.038832 0.036118 
0.006426 -0.035098 0.015366 
-0.020460 -0.031471 0.004004 
0.001078 0.002607 0.000000 
0.033632 0.016375 0.002874 
-0.006546 0.036940 0.041162 
-0.021180 0.030069 0.037376 
0.035366 -0.010277 0.039081 
0.004821 0.041094 0.050702 
-0.031624 -0.022968 0.038143 
-0.038065 0.003940 0.047302 
0.009067 -0.036026 0.028366 
0.033854 0.015930 0.044301 
-0.035602 -0.022235 0.062993 
-0.031106 0.001214 0.001000 
-0.033592 -0.024592 0.066028 
-0.027358 0.001561 0.000000 
-0.012116 -0.038050 0.024512 
-0.025493 -0.025579 0.022734 
0.011899 -0.038237 0.026552 
-0.003575 -0.038653 0.013574 
-0.016835 0.001259 0.000000 
0.003497 0.017136 0.001000 
0.037739 0.010619 0.014512 
0.010252 0.016922 0.001000 
0.015262 0.036347 0.022692 
-0.028601 -0.031230 0.065615 
-0.010986 -0.037592 0.050288 
0.004803 -0.021981 0.001000 
-0.032628 -0.022188 0.056339 
-0.038070 -0.011927 0.023862 
-0.036545 0.002772 0.020568 
0.037849 -0.004328 0.046089 
-0.038437 -0.000000 0.027519 
0.014939 -0.034892 0.041419 
0.036670 -0.009997 0.056036 
-0.003648 -0.038265 0.010852 
0.015342 0.036807 0.028993 
-0.032975 -0.020196 0.051899 
-0.018677 0.037986 0.065432 
-0.012452 0.038571 0.035585 
-0.024794 0.026822 0.031117 
-0.027324 -0.022407 0.002132 
-0.006191 0.031825 0.001000 
0.017019 0.032889 0.036653 
-0.012968 0.037299 0.051277 
0.008450 -0.010433 0.001000 
0.032874 -0.014371 0.000000 
-0.011845 0.037239 0.019342 
-0.033295 0.013671 0.025926 
0.028608 0.027482 0.016631 
-0.011477 -0.035641 0.022972 
0.033152 0.017676 0.042611 
-0.019290 0.037754 0.067368 
0.035919 -0.006220 0.027886 
-0.040503 0.007640 0.050000 
0.026559 0.027914 0.006631 
0.030974 0.022591 0.026789 
-0.031818 -0.020321 0.036290 
-0.028082 -0.031378 0.055959 
0.012260 0.025726 0.000000 
0.032240 0.021704 0.017283 
-0.042348 0.000618 0.061523 
-0.015357 -0.000581 0.001000 
0.021536 -0.036579 0.069493 
0.012672 -0.038765 0.048855 
-0.002719 -0.038898 0.015288 
-0.007234 0.040081 0.039242 
-0.025848 0.018865 0.001000 
-0.020920 0.036332 0.051599 
0.037969 -0.012757 0.027865 
-0.019530 -0.037328 0.059415 
-0.018840 -0.032063 0.040466 
0.021612 -0.029754 0.039988 
-0.002689 -0.035633 0.022855 
-0.001497 -0.034350 0.000000 
0.017775 -0.029407 0.003565 
-0.010310 0.039567 0.042224 
-0.030732 -0.021612 0.002555 
0.012989 0.038383 0.035286 
0.032507 0.024819 0.042838 
0.014285 0.036507 0.053532 
-0.030903 -0.022307 0.014229 
0.011678 0.037990 0.021726 
0.041557 0.004699 0.058488 
-0.016171 -0.030499 0.002539 
0.017360 0.032002 0.029845 
-0.030021 -0.019802 0.008697 
-0.035695 -0.021774 0.056187 
-0.025323 -0.033064 0.058752 
-0.027866 -0.031910 0.065931 
-0.032791 -0.019945 0.048157 
0.012708 -0.039107 0.044874 
-0.008231 0.036626 0.036764 
-0.036935 -0.002772 0.000000 
-0.036707 0.019493 0.043608 
0.036648 0.006439 0.039121 
-0.013049 0.036698 0.045379 
0.036614 -0.010979 0.006116 
-0.033296 -0.025713 0.064054 
0.021072 0.036745 0.064771 
-0.041685 -0.002259 0.060254 
0.036572 -0.007682 0.043863 
0.037347 0.019658 0.061562 
-0.006016 -0.041050 0.049890 
-0.037860 0.018444 0.059139 
-0.040206 0.001265 0.027331 
0.031874 -0.023525 0.054688 
-0.038644 -0.000000 0.013590 
0.021246 0.007082 0.001000 
-0.039569 0.010834 0.044711 
0.004292 -0.034206 0.002879 
0.017041 0.031295 0.019659 
0.035829 -0.003316 0.001000 
-0.040552 0.003099 0.034600 
0.021224 -0.036071 0.050223 
0.008967 0.037881 0.010722 
-0.033374 0.014470 0.030767 
-0.030133 -0.023833 0.042963 
-0.009949 0.038158 0.058208 
0.034228 0.010613 0.024728 
-0.030641 -0.027893 0.039103 
0.005098 -0.022691 0.001000 
-0.029851 0.017772 0.000000 
-0.017088 0.029530 0.001000 
0.038958 0.016549 0.065979 
-0.012713 -0.021452 0.000000 
0.003892 0.041512 0.056599 
0.035218 0.004110 0.008239 
-0.036106 -0.006908 0.033722 
0.015552 -0.005501 0.001000 
-0.009002 -0.041667 0.065681 
-0.023109 0.007036 0.001000 
-0.008568 0.035432 0.020042 
-0.008185 0.031079 0.000000 
-0.013091 -0.038687 0.067313 
-0.018124 0.033636 0.052253 
0.004063 0.034354 0.004958 
0.028242 -0.011535 0.001000 
-0.031912 -0.013082 0.003818 
-0.026610 0.025237 0.028522 
-0.017044 -0.034872 0.016952 
-0.000628 0.035606 0.022487 
-0.031721 0.021772 0.041692 
-0.023011 -0.032629 0.029727 
0.022177 -0.031964 0.016730 
0.037846 0.018110 0.054427 
-0.010743 -0.025027 0.000000 
-0.021369 -0.033655 0.023246 
-0.037747 0.005775 0.051403 
-0.039048 0.009384 0.029620 
0.022697 0.031762 0.070000 
0.036883 0.005074 0.036047 
0.000994 -0.040113 0.025378 
0.017470 -0.031238 0.022505 
-0.003547 0.040144 0.026029 
0.039421 -0.000000 0.017586 
-0.013418 -0.038960 0.045677 
-0.014393 0.036321 0.051828 
0.004940 -0.025192 0.001000 
-0.041400 -0.008723 0.061486 
0.012749 -0.038373 0.039252 
0.026884 0.032189 0.055567 
0.008994 0.038211 0.058958 
-0.035995 0.009420 0.043885 
0.000933 0.006827 0.000000 
0.011928 0.030776 0.000000 
-0.005685 0.035877 0.026277 
-0.003058 0.034400 0.005596 
-0.011817 0.036879 0.013350 
-0.011935 -0.035336 0.007020 
-0.022973 0.031118 0.010461 
-0.040727 0.009689 0.057924 
0.038566 -0.016661 0.056517 
-0.032920 0.016359 0.000000 
0.010723 -0.039434 0.041732 
0.012448 0.037948 0.034559 
-0.033833 -0.011998 0.025657 
0.011595 0.026296 0.001000 
-0.037082 -0.020484 0.065422 
-0.024777 -0.031716 0.031466 
0.026987 0.026366 0.046500 
-0.013339 0.034205 0.020575 
0.006037 -0.016301 0.001000 
0.031824 -0.018025 0.025655 
0.010828 -0.031971 0.000000 
-0.035319 -0.022345 0.060006 
0.024932 0.033525 0.061167 
-0.003492 -0.031112 0.001000 
-0.030677 0.028479 0.048051 
-0.008167 0.036035 0.028496 
0.036905 0.019794 0.051868 
-0.026425 -0.032053 0.050900 
-0.000100 -0.038137 0.057922 
0.011174 -0.034447 0.006086 
0.000330 -0.035868 0.026152 
-0.026804 -0.028210 0.009102 
0.023271 -0.033929 0.046605 
0.000120 0.037586 0.050206 
-0.030697 0.016261 0.001641 
-0.034371 0.010840 0.027777 
-0.019425 -0.016652 0.001000 
0.008995 0.022562 0.000000 
0.040259 0.007204 0.041890 
-0.031405 -0.026077 0.036212 
0.022152 -0.026748 0.009533 
-0.040826 -0.009541 0.056491 
0.039415 0.002669 0.060266 
0.032336 -0.015158 0.019435 
-0.003454 -0.036853 0.039937 
0.004541 -0.041345 0.055791 
0.031756 0.023020 0.042770 
-0.030914 0.025798 0.027389 
-0.001066 0.027374 0.001000 
0.001039 -0.038044 0.056615 
0.034325 -0.007740 0.012666 
-0.035623 0.011469 0.002205 
0.035976 0.002495 0.000000 
0.026805 0.029867 0.020844 
0.018370 0.036321 0.031526 
0.024243 0.028882 0.051847 
-0.040125 0.011330 0.060772 
-0.038096 -0.002022 0.038784 
-0.014607 -0.000776 0.000000 
0.012296 -0.036678 0.021614 
-0.036045 -0.021759 0.064271 
-0.036515 -0.009323 0.003805 
-0.023640 0.011387 0.000000 
0.011177 -0.038411 0.061759 
0.027057 0.029298 0.018488 
-0.024050 -0.029174 0.002921 
0.028108 -0.031461 0.058799 
-0.042631 0.001123 0.067694 
0.029656 -0.022651 0.025257 
-0.010453 -0.023576 0.001000 
0.026325 -0.030707 0.028169 
0.013634 0.037499 0.058960 
-0.026053 0.033132 0.065700 
-0.005031 0.000943 0.000000 
0.015373 -0.038428 0.044545 
-0.020363 -0.028881 0.017842 
-0.010526 -0.025079 0.000000 
0.038491 0.012660 0.034014 
-0.026386 -0.031806 0.043982 
0.001880 -0.035169 0.000000 
0.004645 0.038870 0.068173 
-0.033437 0.007895 0.000000 
0.000672 -0.038190 0.058666 
0.008963 -0.032367 0.000000 
-0.004183 -0.030006 0.000000 
0.035499 0.013383 0.005356 
-0.019106 0.001063 0.001000 
0.041606 -0.008482 0.064876 
0.012717 -0.037290 0.018085 
-0.015300 0.009133 0.000000 
-0.000192 -0.035342 0.018784 
-0.033160 -0.014264 0.026803 
-0.027311 0.023545 0.014910 
0.012339 0.037025 0.039334 
0.015231 -0.036432 0.023670 
0.019524 0.034314 0.017730 
0.019484 0.037273 0.057384 
-0.018359 -0.000254 0.000000 
0.027784 -0.031525 0.054855 
-0.026600 -0.030314 0.024589 
0.040012 0.001862 0.064857 
-0.013953 -0.027019 0.000000 
-0.026805 0.005588 0.000000 
0.019835 0.037279 0.062112 
0.039005 0.012439 0.041725 
0.021180 0.005869 0.000000 
-0.037216 0.008255 0.055545 
0.007224 -0.037747 0.007863 
-0.033286 -0.024199 0.050463 
-0.032442 -0.013353 0.001000 
0.041108 0.010152 0.065890 
0.030607 -0.006479 0.001000 
-0.032048 0.017866 0.028040 
-0.027661 0.030838 0.039355 
-0.031672 -0.024791 0.067609 
-0.018672 0.032612 0.045105 
0.038377 0.014563 0.040103 
-0.010920 -0.035563 0.001318 
0.032408 -0.021902 0.051919 
0.014644 -0.037133 0.029372 
0.036904 0.019772 0.051555 
0.008163 0.003067 0.001000 
-0.030633 0.025281 0.064236 
0.039791 0.008033 0.036432 
-0.003957 -0.039849 0.021943 
-0.015414 -0.036330 0.023310 
0.037229 -0.003151 0.031910 
0.008990 -0.040799 0.054392 
-0.015268 0.039048 0.059999 
0.028207 0.025461 0.046224 
0.020374 -0.031627 0.050160 
-0.004281 0.009636 0.000000 
0.006763 -0.038570 0.063984 
-0.009008 0.035549 0.021685 
-0.017855 0.020217 0.001000 
-0.018510 -0.032305 0.040497 
0.032680 0.022948 0.029586 
0.040598 -0.000000 0.038044 
0.001523 0.036472 0.000000 
-0.000793 -0.037677 0.051481 
-0.041339 -0.004114 0.052811 
0.019914 -0.031391 0.000010 
-0.016392 -0.035032 0.013100 
-0.028922 0.011434 0.001000 
0.022634 0.006734 0.000000 
-0.019665 -0.029002 0.013681 
0.041781 -0.006583 0.067154 
-0.022328 -0.033696 0.033755 
0.019546 0.018999 0.001000 
-0.009664 -0.022322 0.001000 
-0.000579 -0.038579 0.064108 
-0.035587 0.022328 0.063808 
-0.014861 0.031400 0.002051 
0.020299 0.034788 0.023920 
-0.010480 0.036083 0.029162 
-0.011478 -0.014959 0.000000 
0.029725 -0.021589 0.009536 
-0.012898 -0.032946 0.000000 
0.029003 -0.022637 0.000000 
-0.038895 0.002908 0.054098 
-0.036178 -0.004826 0.001000 
-0.037830 -0.000000 0.006216 
0.040142 0.005199 0.031009 
0.019630 0.029926 0.025657 
0.000341 -0.034180 0.002518 
-0.040029 -0.004609 0.026813 
-0.022583 -0.002681 0.001000 
0.032119 0.023159 0.033367 
0.033883 -0.012842 0.030290 
0.019823 0.015293 0.001000 
-0.005339 0.036389 0.033443 
-0.017811 -0.035198 0.067739 
0.024029 0.034489 0.063771 
-0.030542 0.016778 0.001888 
0.033521 -0.024107 0.052162 
-0.007589 -0.036993 0.041903 
-0.003048 -0.028992 0.000000 
0.023720 -0.031860 0.026086 
-0.010735 0.029722 0.001000 
-0.034613 0.015537 0.053085 
-0.033353 -0.017596 0.003906 
-0.034870 -0.004874 0.006928 
0.024278 -0.030634 0.013083 
0.029836 -0.021627 0.014427 
0.019450 -0.033109 0.058649 
-0.019746 -0.028369 0.007444 
0.032345 -0.024858 0.040833 
0.032894 -0.023921 0.065892 
0.004378 0.036838 0.000000 
0.029122 -0.025837 0.058462 
-0.012966 -0.039871 0.067794 
0.007090 0.036430 0.034017 
-0.023486 0.029011 0.045216 
0.012795 -0.038488 0.040373 
0.027494 0.031991 0.060981 
0.041579 -0.000890 0.054426 
0.037417 -0.010647 0.010097 
0.015562 -0.018781 0.000000 
0.011400 -0.011026 0.000000 
0.001616 0.038364 0.006913 
-0.016892 -0.030032 0.003124 
0.041051 0.003654 0.045330 
-0.023863 0.025349 0.006941 
-0.013059 -0.038306 0.062925 
-0.002422 -0.040475 0.032978 
-0.031674 0.023414 0.051562 
0.013628 0.033282 0.013490 
0.003965 -0.020050 0.000000 
-0.011737 0.035523 0.022317 
0.003253 -0.037688 0.051637 
0.032202 0.023241 0.037100 
0.025387 0.027627 0.047571 
-0.036129 -0.011345 0.054749 
-0.040045 0.011886 0.063339 
0.007217 0.041894 0.068626 
-0.014501 -0.037840 0.032158 
-0.036499 0.006002 0.000493 
-0.028597 0.030148 0.041327 
0.029842 0.030039 0.066909 
0.035433 -0.007006 0.024754 
0.001564 0.026060 0.000000 
0.033827 0.010078 0.016613 
-0.010834 -0.039247 0.039047 
-0.000986 -0.041241 0.047134 
0.021898 0.035130 0.044371 
0.028685 -0.022388 0.000000 
0.008244 0.040335 0.048357 
0.032844 -0.022118 0.022826 
-0.014838 -0.032498 0.013794 
0.034501 -0.001169 0.001000 
0.037540 -0.000937 0.025932 
0.012621 -0.039180 0.050585 
-0.002839 0.021276 0.000000 
0.035403 0.015022 0.061743 
0.012165 0.036953 0.016628 
-0.009820 -0.039908 0.046941 
0.030481 0.028726 0.049378 
-0.034536 0.017780 0.062471 
-0.025215 -0.032133 0.040370 
0.017289 0.032014 0.029406 
-0.019819 0.032291 0.007200 
0.012393 -0.038086 0.048765 
0.013009 -0.038523 0.064933 
0.029739 -0.024850 0.052110 
-0.012488 -0.036245 0.036054 
-0.039554 0.012882 0.057641 
-0.018774 -0.029686 0.014128 
-0.032914 0.025998 0.063446 
0.022971 0.001647 0.001000 
-0.038322 -0.004153 0.051884 
-0.003156 -0.021326 0.000000 
-0.012428 -0.033916 0.010294 
0.021726 -0.031268 0.006787 
-0.024639 -0.029977 0.009979 
0.027544 0.022585 0.000000 
0.042909 -0.000274 0.069702 
0.014712 -0.021481 0.000000 
-0.014862 0.016938 0.000000 
-0.037000 -0.002541 0.000314 
0.037109 0.019340 0.051245 
0.031376 0.016856 0.013920 
-0.040789 -0.000000 0.042116 
0.017084 -0.031246 0.019480 
-0.030953 0.022693 0.019762 
-0.001363 0.036324 0.032537 
-0.038321 0.006692 0.011246 
0.037331 -0.010238 0.066411 
0.038676 0.001545 0.044668 
-0.022787 -0.027584 0.022772 
0.037044 0.003050 0.028847 
-0.034248 0.016148 0.050836 
-0.013725 0.035666 0.039476 
-0.006805 -0.002530 0.001000 
-0.005902 -0.036485 0.034795 
0.002455 -0.038965 0.069516 
0.034951 -0.017983 0.069239 
0.008822 -0.031924 0.000000 
-0.033665 0.008087 0.005048 
-0.035833 0.010441 0.001994 
-0.036493 0.007178 0.040398 
0.023504 0.026948 0.023522 
0.032344 -0.020196 0.008654 
-0.031005 0.021248 0.002721 
0.030839 0.022509 0.033723 
-0.003950 0.040982 0.070000 
-0.035752 -0.002290 0.007213 
0.007280 0.041947 0.069315 
-0.040861 -0.008488 0.053864 
-0.008327 0.027089 0.001000 
0.027710 0.031343 0.047905 
-0.028305 -0.028231 0.019749 
0.030430 0.002498 0.000000 
0.021833 -0.010649 0.001000 
0.011166 0.040333 0.055369 
0.030242 -0.001448 0.001000 
-0.037186 -0.000000 0.001820 
-0.001986 -0.037448 0.048273 
-0.016147 -0.035993 0.023493 
0.033652 -0.022898 0.039275 
-0.009433 0.039973 0.045059 
0.033906 0.014969 0.040542 
-0.033548 -0.016560 0.001967 
0.038293 0.018213 0.067385 
-0.024460 0.026882 0.028895 
0.040029 -0.009315 0.045404 
0.033253 0.009763 0.007108 
0.031976 0.017337 0.024576 
-0.028712 -0.030067 0.041676 
-0.032034 0.023965 0.061143 
-0.039677 -0.001465 0.058312 
0.004438 0.035571 0.000000 
0.038495 -0.011285 0.028309 
0.015105 0.016673 0.000000 
-0.039373 -0.005776 0.021723 
0.010287 -0.038051 0.056720 
-0.036076 -0.014280 0.067706 
0.010501 -0.035975 0.027656 
0.028790 0.022913 0.020940 
-0.026516 -0.032487 0.062171 
0.019131 -0.030500 0.027978 
0.011499 -0.035339 0.018749 
-0.020793 -0.008708 0.000000 
-0.022397 -0.005226 0.001000 
-0.037129 -0.006140 0.044459 
0.002246 -0.012626 0.000000 
-0.027324 -0.020066 0.000000 
0.035452 0.006395 0.022163 
0.037054 0.000107 0.015258 
0.015403 -0.035003 0.007672 
0.021751 0.032715 0.070000 
0.011140 0.037768 0.016738 
-0.032489 -0.011693 0.005413 
0.014088 -0.022668 0.000000 
0.027901 0.024315 0.029963 
0.031169 0.022895 0.041144 
0.012965 -0.012423 0.001000 
-0.036099 0.000489 0.003660 
0.035975 -0.004935 0.022675 
-0.031345 0.023130 0.021345 
0.022671 0.034610 0.047649 
0.025658 0.032332 0.046786 
0.035872 0.004766 0.020449 
0.030768 0.020746 0.023571 
-0.028510 0.029462 0.033206 
0.040168 0.006946 0.038911 
-0.017526 0.032846 0.038658 
0.037226 0.002836 0.030406 
0.022827 -0.026206 0.008883 
-0.011963 -0.037461 0.048447 
-0.038487 0.007212 0.013059 
-0.022349 -0.028818 0.033009 
0.006175 -0.016034 0.001000 
0.037040 -0.014820 0.029296 
-0.005703 -0.037809 0.008140 
0.021756 0.001005 0.001000 
-0.011487 -0.034183 0.005811 
0.035148 0.023004 0.060921 
0.002451 -0.042124 0.063158 
-0.040979 -0.006209 0.049470 
-0.017065 0.038389 0.054953 
-0.011828 0.028714 0.000000 
-0.036561 -0.019148 0.040937 
0.031532 -0.022899 0.039640 
0.021083 -0.033870 0.022780 
-0.032902 -0.023927 0.048709 
-0.025391 0.025374 0.019452 
0.036696 0.003986 0.028348 
-0.016472 -0.033691 0.039563 
0.009882 0.034733 0.010259 
-0.034863 0.016462 0.060901 
0.011494 0.036483 0.034761 
-0.022544 0.032325 0.022387 
0.038690 -0.000663 0.040750 
-0.015498 -0.032871 0.023021 
0.001891 -0.040916 0.042240 
0.012846 -0.038394 0.034437 
-0.033749 0.020337 0.063396 
0.025848 -0.004188 0.001000 
-0.031020 0.015380 0.002056 
0.019561 -0.031793 0.001500 
0.041522 -0.003634 0.057561 
-0.026103 0.027913 0.004569 
-0.008275 0.039453 0.031896 
-0.034625 -0.009473 0.024953 
-0.034132 -0.022494 0.040067 
0.020246 -0.027382 0.000714 
-0.028488 -0.004379 0.001000 
-0.034723 -0.015970 0.056650 
0.030663 0.024494 0.055804 
-0.007706 0.036423 0.033918 
0.024475 0.018261 0.001000 
-0.009118 0.000574 0.000000 
0.001607 -0.038899 0.068583 
0.000915 -0.042142 0.058847 
-0.022802 0.030676 0.006539 
-0.014876 0.038860 0.052549 
0.020272 0.037309 0.068559 
0.011805 -0.022422 0.001000 
-0.040609 0.005847 0.043556 
0.009165 0.039802 0.041367 
-0.020275 -0.032405 0.056709 
-0.036164 -0.012729 0.061704 
-0.026697 -0.014210 0.001000 
0.026111 0.024378 0.001000 
0.012928 -0.037602 0.023926 
0.032310 0.011109 0.000177 
-0.024641 -0.027028 0.032187 
-0.035707 -0.009172 0.000161 
0.008957 0.036359 0.002691 
-0.002409 0.042313 0.067797 
-0.007510 -0.039483 0.029740 
0.034348 -0.024497 0.069229 
0.031771 -0.024865 0.069392 
-0.039930 -0.002270 0.022508 
-0.035433 0.018749 0.025024 
-0.036490 -0.003572 0.023527 
0.020702 -0.031201 0.048220 
-0.002660 -0.039111 0.016776 
0.008591 -0.037453 0.048337 
-0.011758 0.040388 0.063932 
-0.006523 0.000952 0.001000 
-0.013680 -0.036459 0.013186 
-0.027003 -0.026804 0.003630 
0.040031 0.008418 0.042204 
0.031083 -0.026407 0.034009 
0.023425 -0.025219 0.002295 
0.038281 -0.016236 0.046355 
-0.021006 0.006128 0.000000 
-0.000414 -0.038944 0.009666 
-0.030817 -0.027711 0.039410 
0.008259 -0.036964 0.041491 
-0.028507 0.027193 0.067934 
-0.001024 0.035436 0.020101 
-0.010648 0.037708 0.051918 
-0.039235 -0.015752 0.068008 
0.037461 -0.000000 0.014065 
-0.012439 0.037787 0.050371 
0.021958 -0.007209 0.001000 
-0.040007 -0.008911 0.043817 
-0.026212 -0.033052 0.070000 
0.038349 0.015890 0.045848 
0.031183 -0.005783 0.000000 
-0.005431 -0.003320 0.001000 
-0.010278 0.038817 0.067444 
-0.013749 0.016090 0.001000 
0.033585 0.008925 0.007843 
-0.041069 0.004445 0.048100 
0.035764 -0.018075 0.027756 
-0.010016 -0.037875 0.014300 
0.029372 -0.023471 0.001905 
0.031582 -0.022943 0.044698 
-0.014161 0.023907 0.001000 
0.006229 -0.037948 0.008768 
0.015553 -0.031794 0.001000 
-0.025589 0.024696 0.013385 
0.027132 -0.022410 0.000723 
0.001338 0.036121 0.029693 
-0.012732 0.024782 0.001000 
0.024445 -0.025924 0.019420 
0.033789 -0.018424 0.055028 
-0.034838 -0.004311 0.003854 
0.037245 -0.006568 0.005604 
0.015925 0.037446 0.036316 
-0.029792 -0.020975 0.010974 
-0.033435 -0.015029 0.000000 
-0.015091 0.017341 0.000000 
0.035881 0.006530 0.028808 
-0.036025 -0.010675 0.003124 
0.018780 0.034437 0.015777 
-0.016071 -0.000325 0.001000 
0.041777 0.007218 0.064191 
-0.041044 -0.009547 0.059345 
-0.010166 -0.036463 0.034482 
0.035924 0.015070 0.069266 
-0.037210 -0.019895 0.061078 
-0.023759 -0.034008 0.056295 
-0.025082 -0.020038 0.000000 
-0.041905 0.002214 0.055928 
-0.003671 0.035284 0.000000 
0.007332 -0.012570 0.001000 
-0.035410 0.002895 0.005250 
0.033862 0.012083 0.026460 
-0.007737 -0.041048 0.054338 
0.024020 -0.025458 0.010242 
-0.029474 0.030240 0.062560 
0.040152 -0.000000 0.054415 
0.033424 -0.012076 0.020286 
0.015290 -0.005732 0.001000 
-0.026584 -0.032229 0.057553 
-0.041183 -0.006068 0.051752 
-0.018481 0.036310 0.036024 
-0.025785 -0.002729 0.000000 
-0.007503 0.038336 0.011969 
0.022743 0.033598 0.037080 
-0.031645 -0.022942 0.046091 
-0.036813 -0.013281 0.015345 
-0.038603 -0.000753 0.039955 
0.002044 -0.037953 0.055344 
0.036587 0.019262 0.041634 
-0.002499 0.034981 0.013728 
-0.029370 -0.026772 0.016994 
0.039328 -0.012832 0.050337 
-0.023237 0.024418 0.001000 
0.033425 0.015488 0.036229 
0.017958 -0.027834 0.001000 
-0.032379 0.021839 0.051222 
0.007371 -0.038408 0.061711 
-0.031020 -0.022800 0.011177 
0.010991 0.036021 0.028291 
0.014133 0.038935 0.049676 
0.008426 0.040428 0.049558 
-0.015630 -0.037076 0.030488 
0.038103 -0.005182 0.053632 
-0.012290 -0.037459 0.032950 
0.011635 -0.035733 0.022222 
0.010706 -0.035618 0.022656 
0.021131 -0.036504 0.059659 
-0.020692 0.034211 0.022544 
0.023646 -0.006608 0.001000 
-0.021208 -0.033105 0.019795 
-0.031427 -0.022820 0.038959 
-0.028323 -0.000366 0.001000 
-0.010027 -0.040181 0.053032 
0.038789 0.001454 0.045838 
0.041024 -0.008100 0.057312 
-0.040869 0.010145 0.062732 
0.036377 -0.007798 0.041661 
-0.031874 -0.012986 0.002831 
0.041095 -0.006210 0.057968 
-0.005294 0.027723 0.001000 
0.034629 0.023824 0.063418 
-0.002439 0.003669 0.001000 
0.007077 -0.034663 0.009283 
0.032458 -0.024476 0.039749 
0.037546 0.009069 0.063961 
-0.032475 -0.025478 0.047714 
0.041204 -0.004842 0.053680 
-0.013505 0.037976 0.033193 
0.001799 -0.003241 0.000000 
-0.003786 -0.035473 0.020625 
0.031615 -0.023195 0.019432 
-0.009065 0.015301 0.000000 
-0.036338 0.016126 0.026447 
-0.029301 -0.030187 0.056703 
0.026932 0.027117 0.054564 
0.036256 0.021552 0.061407 
0.013184 0.018226 0.001000 
-0.014133 0.039322 0.059736 
0.041286 0.002286 0.051447 
0.036099 0.010791 0.051743 
-0.012327 -0.037473 0.038437 
0.024389 -0.033896 0.060709 
-0.026022 -0.029118 0.068649 
0.040332 0.005240 0.035181 
-0.007481 0.019717 0.000000 
0.025898 -0.033198 0.070000 
-0.035931 0.022088 0.066239 
0.031676 -0.022302 0.013575 
0.022890 0.035569 0.069636 
-0.025634 -0.018539 0.000000 
-0.013228 -0.037970 0.027903 
0.035306 0.016688 0.068156 
-0.006709 0.036710 0.001743 
-0.012313 -0.037359 0.042078 
-0.023052 -0.034720 0.058979 
-0.019898 -0.031402 0.000016 
0.016243 -0.018802 0.001000 
-0.022548 0.014786 0.001000 
0.012243 -0.037236 0.016379 
0.023701 0.029360 0.052616 
0.023458 0.033690 0.045932 
0.017561 0.029435 0.002053 
0.036692 0.012686 0.068894 
-0.032685 0.025896 0.058798 
0.001098 0.037537 0.049513 
0.015149 0.029930 0.001000 
-0.008474 -0.041443 0.061389 
-0.005691 0.041865 0.066497 
0.031032 -0.026560 0.034359 
-0.037796 -0.008950 0.066909 
0.035155 0.010088 0.035248 
-0.038394 -0.000000 0.008419 
-0.006834 0.040354 0.042609 
0.021266 0.035459 0.041117 
0.036064 -0.010373 0.049307 
0.015507 -0.030721 0.001000 
0.034521 0.011711 0.033947 
0.029943 0.023520 0.038052 
-0.019301 -0.030702 0.029292 
0.037138 -0.006119 0.044483 
0.001993 -0.006877 0.000000 
-0.041312 0.005510 0.059971 
-0.022378 0.034174 0.039298 
-0.033128 -0.002749 0.001000 
0.025916 -0.032506 0.056072 
0.033793 0.024178 0.056618 
-0.038390 0.008877 0.017532 
-0.025521 0.017042 0.000000 
0.012007 -0.035795 0.003593 
-0.006820 -0.037116 0.043630 
0.011770 0.040355 0.063228 
-0.033435 0.018816 0.051900 
0.018102 0.035368 0.021512 
-0.030023 0.018412 0.002241 
0.036663 -0.016337 0.029983 
0.018562 0.033138 0.007608 
-0.027862 0.024815 0.034552 
0.037192 0.000349 0.018318 
-0.005506 0.041427 0.055115 
0.023493 -0.030830 0.066766 
-0.016671 -0.038800 0.062660 
-0.013565 0.039275 0.054824 
0.012478 -0.037609 0.050807 
-0.022615 0.022317 0.001000 
0.008371 0.040067 0.042757 
-0.033783 -0.014722 0.037659 
0.010242 0.024115 0.000000 
-0.031647 -0.021984 0.041649 
0.031120 0.022716 0.028260 
0.013530 0.025559 0.000000 
-0.035587 0.010936 0.001444 
-0.017988 -0.037054 0.040205 
0.017588 0.031179 0.022838 
0.036847 -0.006548 0.042421 
0.016484 0.028893 0.000000 
-0.008186 -0.039566 0.033556 
-0.040501 -0.011579 0.064555 
-0.036437 -0.016666 0.029470 
0.034723 -0.013758 0.046326 
0.039321 0.014227 0.060315 
-0.001922 0.025191 0.000000 
0.031803 0.015672 0.014381 
0.009480 -0.036231 0.002706 
0.034491 -0.012537 0.037378 
-0.001488 -0.042428 0.064793 
-0.004216 -0.036481 0.034735 
-0.028317 -0.030100 0.037872 
0.037101 -0.011212 0.067741 
-0.016350 0.025928 0.000000 
-0.039129 0.007416 0.022756 
-0.033674 -0.008540 0.000000 
-0.029370 0.019760 0.000000 
0.035902 0.010101 0.045760 
-0.025222 -0.028725 0.057063 
-0.019081 0.030477 0.025125 
0.025042 -0.025655 0.021357 
-0.030898 0.020919 0.026195 
-0.024863 0.029648 0.008408 
0.002646 0.041331 0.048309 
0.022059 0.029751 0.043559 
0.019342 -0.022564 0.000000 
0.010281 0.006821 0.001000 
0.034470 -0.017204 0.058864 
0.030627 0.016624 0.002361 
-0.001823 -0.004103 0.000000 
-0.018328 -0.038239 0.067472 
