
# .PCD v.6 - Point Cloud Data file format
FIELDS x y z 
SIZE 4 4 4 
TYPE F F F 
COUNT 1 1 1 
WIDTH 1648
HEIGHT 1
VIEWPOINT 0.000000 0.000000 0.000000 1.000000 0.000000 0.000000 0.00000
POINTS 1648
DATA ascii
0.009364 0.020803 0.030454 
-0.021757 -0.003975 0.025685 
0.016060 0.015002 0.020813 
-0.002803 0.000136 0.001000 
0.013846 0.022197 0.041308 
-0.024268 -0.006010 0.063889 
-0.000306 -0.022876 0.042571 
0.013052 0.021693 0.073224 
-0.022334 -0.009404 0.053551 
-0.012450 -0.016675 0.013198 
0.013552 0.008371 0.000000 
-0.019354 0.013641 0.033948 
0.019517 0.012830 0.032875 
-0.015334 0.006349 0.000000 
-0.026649 -0.000639 0.043105 
0.022192 0.016287 0.059401 
0.003608 -0.023251 0.048118 
0.018406 -0.016080 0.051122 
-0.023263 0.000572 0.005684 
0.024777 -0.000509 0.021438 
0.020439 -0.006900 0.021445 
-0.006855 0.003702 0.000000 
-0.009938 -0.025397 0.060596 
-0.022913 -0.010767 0.065454 
-0.010953 0.017736 0.011466 
-0.022000 0.000483 0.000897 
0.004731 0.024379 0.064807 
-0.003916 0.023032 0.006034 
-0.020423 -0.007907 0.025378 
-0.022813 -0.002719 0.033540 
-0.018823 -0.019249 0.047004 
-0.004784 -0.027196 0.068137 
0.019294 0.016075 0.023198 
-0.020459 0.019149 0.068509 
-0.019909 -0.013984 0.036705 
0.027160 -0.005269 0.072823 
-0.009825 0.016416 0.001000 
0.017035 0.021301 0.055419 
-0.005383 0.010726 0.000000 
-0.026788 -0.005831 0.066489 
0.007793 -0.023963 0.039776 
-0.018420 -0.017579 0.066589 
-0.011788 0.022963 0.036732 
0.003495 0.023065 0.007035 
-0.008000 0.024901 0.047133 
-0.014626 -0.019431 0.060565 
0.024605 -0.002987 0.056697 
-0.013910 -0.017818 0.039305 
0.019608 -0.014463 0.021204 
0.009604 -0.021389 0.006087 
0.009226 -0.024668 0.046914 
-0.010629 0.021568 0.056134 
0.001098 0.005651 0.000000 
-0.018750 -0.015187 0.012663 
-0.013430 -0.018672 0.044897 
-0.014005 -0.005908 0.001000 
0.003803 -0.024546 0.067285 
0.015974 0.017926 0.048457 
0.024028 -0.011664 0.051042 
-0.022488 0.003355 0.032137 
0.023086 -0.004456 0.044042 
-0.019301 -0.019936 0.063314 
0.026496 -0.009926 0.073421 
0.008353 0.015484 0.001000 
0.013800 0.023041 0.054230 
0.011781 0.002274 0.001000 
0.005845 -0.024832 0.071512 
0.021256 -0.016137 0.041749 
0.015416 0.019746 0.067616 
-0.010481 -0.018043 0.010570 
0.025576 -0.008877 0.056424 
-0.009808 0.019261 0.019228 
0.023284 0.008008 0.016441 
0.002935 -0.023247 0.048051 
0.013699 -0.022615 0.044632 
0.024310 0.000462 0.042723 
-0.017714 0.010030 0.000703 
-0.021652 -0.017534 0.064891 
0.008000 0.024281 0.037082 
0.014523 0.023532 0.070136 
-0.008210 -0.010278 0.000000 
-0.023506 0.010060 0.033290 
0.020996 0.014854 0.052805 
0.011793 0.021090 0.054700 
-0.013325 -0.019351 0.051172 
0.009715 -0.026473 0.071632 
-0.004942 -0.022674 0.005894 
0.022439 0.007952 0.049423 
0.022814 0.003439 0.036517 
0.011513 -0.024150 0.052885 
-0.022094 0.012806 0.063296 
0.018546 -0.013197 0.012916 
-0.004417 0.025486 0.035216 
0.012150 -0.007074 0.000000 
-0.018031 -0.013132 0.018403 
0.011870 0.022363 0.072051 
-0.002643 0.024032 0.059672 
-0.013105 -0.020638 0.062919 
-0.011620 -0.018515 0.028203 
0.023416 0.011149 0.072817 
-0.004068 0.012568 0.000000 
-0.009365 0.009918 0.001000 
0.001606 -0.021215 0.017979 
0.007248 0.022377 0.020103 
-0.002223 0.023441 0.006483 
-0.004926 0.027299 0.073179 
0.014363 0.020820 0.072831 
-0.021569 0.012189 0.016077 
-0.012559 0.024375 0.065805 
-0.006925 -0.018403 0.000000 
0.006091 -0.023870 0.057276 
0.005641 0.022635 0.039002 
0.021082 -0.016182 0.040849 
-0.020549 -0.013956 0.049264 
0.008668 0.021769 0.037262 
-0.020267 -0.002602 0.001663 
0.006492 0.022100 0.031081 
-0.005277 0.024728 0.022849 
0.023176 -0.006324 0.052125 
-0.006657 -0.015593 0.000000 
0.016970 0.021542 0.060326 
-0.001723 0.024658 0.068939 
-0.017590 -0.015843 0.043315 
0.023647 -0.003497 0.047025 
0.020972 0.015486 0.047596 
-0.020293 0.003625 0.006190 
-0.009481 0.019419 0.017911 
-0.018564 -0.001609 0.001000 
0.019015 -0.015408 0.016665 
0.014544 0.022588 0.048870 
-0.021143 0.010931 0.045095 
0.024813 0.004486 0.064707 
0.019598 -0.017604 0.037617 
-0.002103 -0.024350 0.064378 
0.003786 0.022160 0.031971 
-0.024109 -0.013190 0.066760 
0.018564 0.014952 0.038882 
-0.025214 -0.002726 0.027588 
0.026666 -0.000998 0.045979 
0.009891 0.022911 0.062554 
-0.023973 0.011676 0.050357 
0.010722 0.019084 0.019364 
-0.013019 0.019602 0.007864 
0.007991 -0.022277 0.039165 
-0.017636 -0.018211 0.067907 
-0.024026 0.009257 0.037258 
0.009743 -0.017813 0.000099 
-0.009410 0.014946 0.001000 
-0.006874 0.024704 0.069619 
-0.012133 -0.018956 0.001882 
0.021079 0.003836 0.016740 
-0.017528 -0.019662 0.037495 
-0.000274 0.026101 0.037522 
0.020228 0.005308 0.012305 
-0.027789 0.002519 0.071042 
-0.009334 -0.021190 0.039010 
0.008029 0.025059 0.065690 
0.023389 -0.003742 0.044845 
0.020217 0.003768 0.005836 
-0.005992 -0.025995 0.074000 
-0.021600 -0.008575 0.041785 
-0.024793 -0.001074 0.051201 
0.022231 -0.008496 0.048973 
0.019241 0.017504 0.032822 
0.020533 0.007436 0.024814 
0.016740 0.020411 0.040055 
-0.002689 -0.021503 0.022251 
0.021767 -0.007426 0.039513 
-0.002247 -0.023999 0.059181 
-0.000090 -0.024248 0.062876 
-0.007797 -0.023481 0.034229 
0.024483 -0.007410 0.071612 
0.021032 0.007622 0.031544 
-0.022129 -0.010035 0.011338 
-0.019465 -0.014242 0.021664 
0.023676 0.008930 0.067685 
0.010913 0.021173 0.048375 
-0.008352 -0.025704 0.061029 
-0.023950 0.004304 0.014743 
0.016290 -0.017595 0.052712 
-0.026576 -0.007978 0.063522 
-0.008015 0.021259 0.026428 
-0.007338 0.023504 0.022535 
-0.006624 0.025491 0.043237 
0.021765 0.007229 0.003957 
-0.010183 0.013271 0.000000 
0.022521 -0.011151 0.062227 
0.011019 0.023149 0.074000 
0.022681 0.002918 0.004442 
-0.010418 -0.017830 0.007196 
-0.009388 0.024365 0.042388 
-0.020371 -0.014831 0.041866 
-0.015012 -0.020209 0.026915 
-0.023845 0.006840 0.061955 
-0.021280 0.016903 0.051132 
0.001887 0.026878 0.058292 
0.008873 0.025536 0.055924 
0.006225 0.026828 0.069179 
-0.024856 0.010131 0.052793 
-0.000359 0.020552 0.008164 
0.000548 0.023627 0.053674 
0.004842 0.022325 0.034411 
-0.020299 0.012919 0.010747 
0.015593 -0.015243 0.023989 
-0.017796 0.012700 0.003583 
-0.011732 -0.003673 0.000000 
0.012858 -0.024141 0.065314 
0.024657 -0.012247 0.065406 
-0.023792 -0.004352 0.052117 
0.020745 -0.011640 0.043014 
0.009469 0.018037 0.000105 
0.019266 0.006443 0.005102 
0.006446 -0.026631 0.063660 
-0.015518 -0.013741 0.000000 
-0.022081 -0.003587 0.028074 
0.007687 0.020481 0.012105 
0.018119 -0.011016 0.009606 
-0.005163 0.008691 0.001000 
0.023351 -0.011544 0.073508 
0.021864 -0.010629 0.011864 
0.019734 0.013943 0.035938 
0.018586 -0.008450 0.004969 
0.023662 -0.010054 0.034649 
-0.011564 -0.025039 0.074000 
-0.002001 -0.024570 0.018122 
-0.002782 0.023647 0.053971 
0.000918 0.024085 0.060459 
-0.003238 -0.026314 0.050395 
0.018145 -0.007369 0.001000 
0.007885 -0.024246 0.028970 
0.021384 0.001214 0.000000 
0.019894 0.005728 0.009908 
-0.023644 -0.005712 0.055394 
0.013587 0.018913 0.041280 
0.026538 0.000000 0.060355 
-0.002828 -0.024946 0.024140 
0.015444 0.022959 0.067668 
0.019929 -0.016618 0.035334 
-0.022723 0.010886 0.063644 
0.002783 -0.022534 0.003576 
-0.025824 -0.004692 0.042308 
-0.009465 0.018505 0.006083 
-0.021844 0.016853 0.064132 
0.023643 -0.000104 0.033021 
0.006136 0.026713 0.065956 
-0.015606 -0.007209 0.000000 
0.006781 0.022595 0.038412 
0.000803 0.027270 0.074000 
0.013253 -0.024272 0.070842 
0.008838 -0.022559 0.051418 
0.000500 -0.023106 0.045968 
0.003935 0.021030 0.015239 
0.019251 0.016627 0.059463 
-0.025835 -0.003275 0.042539 
0.007539 -0.022696 0.032996 
0.025869 -0.001308 0.065427 
0.005196 -0.027160 0.072487 
-0.023110 0.011113 0.069062 
-0.021442 0.015302 0.064807 
0.002663 0.024739 0.070144 
-0.011837 0.023770 0.049526 
0.004681 -0.024757 0.022204 
0.004284 -0.022130 0.001171 
-0.015346 0.013750 0.005446 
0.020317 0.003011 0.003958 
0.020356 -0.018368 0.056130 
-0.013393 0.023774 0.064121 
0.004016 -0.008402 0.000000 
-0.027149 0.001618 0.062082 
0.009863 -0.001604 0.001000 
0.007353 -0.026243 0.056295 
-0.021230 -0.007864 0.034780 
0.017529 -0.011953 0.006090 
-0.015490 -0.023246 0.073737 
-0.021808 0.015754 0.049222 
-0.020870 -0.004465 0.000000 
0.022055 0.015906 0.050832 
-0.021740 -0.010082 0.049028 
-0.013139 0.022730 0.041307 
0.010630 -0.018922 0.023287 
0.013638 0.020608 0.063928 
0.016058 -0.018880 0.064362 
0.016172 0.015092 0.022480 
0.018682 0.007923 0.000000 
-0.009015 -0.022429 0.010210 
-0.005408 0.022422 0.035840 
-0.001694 -0.025974 0.036304 
0.025338 0.010976 0.064615 
-0.023977 0.001383 0.042402 
0.009607 0.020830 0.004079 
0.020617 0.015122 0.043279 
-0.020831 0.015294 0.032872 
-0.017837 -0.021700 0.071893 
0.007953 -0.024765 0.054316 
0.004571 -0.022193 0.032457 
0.018737 0.009410 0.010778 
-0.021403 0.009527 0.042978 
-0.019727 0.015007 0.048827 
-0.022897 -0.000000 0.018149 
0.006167 -0.023390 0.012121 
0.013139 0.020514 0.058498 
0.011225 -0.017381 0.009715 
0.001982 0.023882 0.057459 
-0.004469 0.021692 0.025036 
0.012563 -0.018547 0.037897 
-0.020736 -0.017604 0.050753 
0.017741 0.004492 0.000000 
-0.000799 -0.027100 0.056263 
0.006952 -0.023773 0.018086 
-0.013846 0.019038 0.051396 
-0.022178 0.009884 0.053479 
0.015582 -0.018080 0.053019 
-0.015826 0.014013 0.000000 
-0.020911 -0.013738 0.052740 
-0.014574 0.017349 0.000816 
0.025794 -0.009237 0.060476 
0.007076 -0.025164 0.039755 
-0.006886 -0.026150 0.062106 
-0.026724 -0.005113 0.057984 
-0.004373 -0.020124 0.001835 
-0.019080 0.015567 0.050301 
-0.016321 -0.013418 0.010064 
-0.026739 -0.007566 0.066698 
-0.004732 0.026190 0.051318 
-0.024806 0.000395 0.048559 
0.002846 0.024438 0.016002 
-0.021567 -0.013439 0.059402 
-0.017962 -0.019724 0.042697 
0.012427 -0.023395 0.048015 
0.016803 0.017439 0.049053 
0.017674 0.019553 0.037889 
0.005861 -0.026881 0.070675 
-0.022237 -0.016000 0.073089 
-0.024662 -0.000544 0.047406 
0.020153 0.003614 0.004415 
-0.018353 0.015407 0.009607 
-0.005602 -0.026484 0.055840 
-0.008172 0.024317 0.067034 
0.008230 -0.022886 0.013738 
0.007808 -0.025708 0.052858 
-0.021034 0.010467 0.042090 
0.017276 0.021821 0.068480 
-0.000591 0.025620 0.033579 
0.018913 0.011889 0.002143 
-0.019433 0.018372 0.043957 
-0.024378 0.009965 0.046400 
-0.005394 0.024177 0.018417 
-0.015974 -0.018672 0.016030 
0.013524 0.021625 0.028130 
0.012602 -0.016389 0.011105 
-0.016344 -0.019363 0.025291 
-0.020065 0.018680 0.056435 
-0.022937 -0.012081 0.038251 
0.023072 -0.012343 0.073162 
0.007682 -0.023410 0.035197 
0.015523 -0.017284 0.044458 
0.015907 -0.014395 0.017358 
0.012500 -0.022079 0.073706 
0.009058 -0.022538 0.053390 
0.024648 -0.001110 0.019361 
0.022015 -0.015625 0.043683 
-0.001007 -0.024646 0.068756 
-0.019232 0.013724 0.018788 
-0.021224 -0.017744 0.059559 
0.001461 -0.026632 0.049342 
-0.016121 0.007085 0.001000 
-0.019930 0.005937 0.011207 
0.011776 0.025323 0.071768 
-0.013823 -0.022073 0.040121 
-0.021977 0.000936 0.015895 
0.012510 0.012420 0.001000 
-0.022866 -0.010787 0.027703 
0.015505 -0.006542 0.001000 
0.018847 -0.012986 0.025510 
-0.024481 0.011474 0.056045 
-0.021028 0.017046 0.048066 
0.020496 0.014461 0.050495 
-0.022722 -0.009802 0.018964 
0.011325 0.019123 0.024963 
0.016535 0.014112 0.016097 
-0.026005 0.006306 0.047772 
0.023200 -0.015146 0.069755 
-0.007533 0.022666 0.030857 
-0.018688 -0.014253 0.034242 
0.020383 -0.005674 0.015721 
0.018647 0.008350 0.000000 
0.006650 0.025689 0.074000 
-0.010759 -0.023002 0.029015 
0.025304 0.005601 0.032947 
0.006468 -0.026979 0.073399 
-0.016992 -0.015303 0.033827 
0.005872 -0.026160 0.050480 
-0.024928 0.011696 0.063870 
-0.011287 0.017291 0.009199 
-0.001569 -0.022045 0.000203 
-0.026709 0.001326 0.050225 
0.002380 0.025678 0.034905 
-0.013630 -0.015626 0.011855 
0.012974 -0.017259 0.026007 
0.008022 0.025044 0.055358 
-0.024709 0.008832 0.045785 
0.021718 -0.001906 0.016688 
0.009481 0.023541 0.067351 
0.024837 -0.010444 0.074000 
-0.006899 -0.021332 0.019709 
0.013870 -0.016140 0.001000 
-0.027513 -0.001617 0.067175 
-0.011478 0.023261 0.038999 
-0.022681 -0.016000 0.072298 
0.027164 0.002469 0.059822 
0.025071 0.003463 0.063978 
0.021934 0.009548 0.049345 
0.023973 0.007450 0.065729 
0.013883 0.017842 0.030978 
0.025409 0.002470 0.029885 
-0.012131 0.024648 0.065633 
0.018453 -0.013036 0.015446 
-0.012657 0.023316 0.048689 
-0.026007 -0.002666 0.072102 
-0.012388 0.002815 0.001000 
0.009370 0.006815 0.001000 
0.021845 -0.014944 0.037519 
0.020167 0.013674 0.015726 
-0.010760 -0.003034 0.001000 
0.019534 0.019280 0.057392 
0.006178 -0.023923 0.058053 
0.007485 0.023849 0.034593 
0.003231 -0.020962 0.014232 
0.026190 0.003833 0.051319 
0.015624 0.000718 0.001000 
0.020181 -0.014416 0.030722 
0.020757 -0.005037 0.017706 
0.021580 0.010663 0.008682 
0.012426 -0.015837 0.002275 
-0.011773 0.018326 0.027354 
0.007842 -0.023859 0.031390 
-0.020670 -0.017958 0.054783 
0.026627 -0.001899 0.049636 
0.007204 0.022797 0.041395 
-0.015870 0.009254 0.001000 
-0.007273 0.002626 0.000000 
0.021403 -0.012472 0.053879 
0.023001 -0.013300 0.048813 
0.022195 -0.015912 0.050651 
0.007117 0.003068 0.000000 
-0.011626 -0.021284 0.010029 
0.016202 0.017034 0.040660 
0.007515 0.023802 0.041435 
0.007151 0.004229 0.001000 
-0.005529 -0.020619 0.009161 
0.009103 0.021379 0.035813 
0.001303 0.016268 0.000000 
-0.021975 -0.002903 0.023963 
-0.011115 0.025520 0.068348 
0.015473 -0.019573 0.022967 
0.006821 0.022759 0.007512 
0.024544 0.008414 0.040770 
0.022294 0.010557 0.057341 
-0.010953 -0.022296 0.018812 
-0.027645 -0.000193 0.065856 
-0.027742 0.000317 0.069738 
-0.021353 0.008123 0.003292 
-0.021468 -0.006063 0.000812 
0.006124 -0.022958 0.043779 
-0.010764 -0.024646 0.053947 
0.015912 -0.021769 0.043764 
0.007167 -0.026829 0.069222 
0.000373 0.026962 0.048409 
0.022474 0.010109 0.017462 
0.026809 -0.007679 0.071324 
-0.010887 0.021861 0.060842 
0.007856 0.023964 0.027995 
-0.019066 0.013952 0.013949 
-0.013114 0.020617 0.062770 
0.001275 0.027927 0.072972 
-0.014134 0.023852 0.071830 
-0.003759 0.025011 0.025228 
0.021454 -0.002379 0.015383 
0.012183 0.018892 0.029161 
-0.021843 0.015888 0.070914 
0.011012 -0.002224 0.000000 
0.012708 0.024691 0.071619 
0.017749 -0.013025 0.015453 
-0.024841 0.007503 0.037441 
-0.001123 0.012388 0.001000 
-0.006605 -0.026136 0.058279 
-0.016380 0.013122 0.007419 
-0.018841 -0.013322 0.019203 
-0.010004 0.018005 0.005208 
-0.022185 0.015441 0.045973 
0.004287 0.024778 0.070712 
0.020658 -0.002579 0.006381 
0.019870 -0.011536 0.032268 
0.021243 0.005926 0.027363 
-0.008361 0.014691 0.001000 
0.022288 0.011500 0.022461 
-0.020600 0.015254 0.057115 
-0.026651 0.005812 0.064228 
-0.023273 -0.007495 0.057601 
-0.012688 -0.018156 0.000857 
-0.006706 0.023546 0.052477 
0.022209 -0.012562 0.063751 
-0.010494 0.021176 0.050675 
-0.020485 0.014613 0.048346 
-0.006340 -0.024799 0.030163 
-0.014309 -0.017865 0.042416 
0.015666 -0.022600 0.059687 
0.001702 0.024042 0.059817 
-0.020835 -0.012486 0.047209 
-0.021608 -0.013099 0.022658 
-0.020796 -0.003502 0.011885 
0.021209 0.006873 0.030829 
0.020085 -0.004466 0.007071 
-0.008672 0.023629 0.063360 
-0.022352 0.012934 0.066825 
0.016575 0.017724 0.011388 
-0.020583 0.017428 0.046310 
-0.022000 -0.003011 0.000232 
0.026298 0.006272 0.054331 
0.026596 0.000000 0.054276 
-0.001417 0.024714 0.020421 
0.021172 -0.015476 0.055599 
-0.007046 0.024047 0.021749 
-0.020293 0.012839 0.042089 
-0.014208 0.019731 0.060888 
0.021833 -0.002927 0.000000 
-0.019850 -0.019459 0.064325 
-0.016456 -0.022153 0.058793 
-0.002359 0.020702 0.010387 
-0.005062 0.013086 0.001000 
0.022218 -0.003966 0.031330 
-0.007654 -0.024708 0.037442 
-0.014902 0.016912 0.036546 
-0.021601 0.015800 0.063716 
0.019709 -0.017876 0.041636 
-0.019495 -0.018917 0.051763 
0.014981 -0.017672 0.003973 
0.017900 -0.013260 0.018857 
-0.003622 -0.026876 0.058270 
-0.015813 0.021949 0.044337 
-0.025253 -0.003180 0.030310 
0.017172 0.017069 0.010933 
0.022106 0.007483 0.043746 
0.009110 -0.025108 0.051731 
-0.022029 -0.002284 0.022079 
-0.022085 -0.016000 0.055491 
0.012605 0.024155 0.063142 
0.020258 0.003558 0.005472 
0.012263 -0.017976 0.027890 
0.000847 -0.021748 0.025872 
0.018526 0.013310 0.023416 
-0.010940 0.019849 0.038284 
0.019871 0.015204 0.050880 
0.021680 0.000000 0.003438 
0.018862 -0.013824 0.030988 
-0.025785 0.001055 0.063358 
-0.022459 -0.016000 0.066702 
0.025972 0.001607 0.035654 
0.000809 -0.020566 0.008377 
0.022909 -0.001278 0.028798 
0.023753 0.000026 0.007888 
0.009570 -0.014620 0.000000 
0.008000 0.024867 0.067281 
0.025353 -0.005041 0.073150 
0.018116 -0.016588 0.014633 
0.022630 0.000394 0.021722 
-0.019191 -0.015274 0.017835 
0.021425 0.017331 0.062448 
0.021430 -0.015551 0.065029 
-0.011898 -0.019555 0.003614 
0.012253 0.020162 0.006438 
0.020667 0.015333 0.035211 
0.004555 0.008155 0.001000 
0.007749 -0.023743 0.047491 
0.008544 0.026087 0.063659 
0.021280 -0.015640 0.045090 
-0.017803 -0.010758 0.004796 
-0.018913 -0.013210 0.005055 
0.019009 -0.012829 0.003772 
0.022023 -0.010075 0.009963 
-0.025651 -0.000320 0.058672 
-0.014507 0.020505 0.070799 
0.000831 0.021189 0.017596 
0.020712 0.017342 0.047530 
0.009061 -0.023080 0.060333 
-0.026864 -0.000000 0.051871 
0.000475 -0.020821 0.000000 
-0.010303 0.025765 0.067462 
-0.010321 0.021133 0.048353 
-0.003825 -0.020770 0.011402 
0.011880 0.022743 0.030824 
-0.008039 0.023555 0.019812 
-0.024678 -0.001157 0.019842 
0.025249 -0.003131 0.064851 
-0.012678 -0.021914 0.022371 
0.007509 0.023084 0.037863 
-0.006686 -0.023218 0.047632 
-0.004828 -0.024940 0.073111 
0.021107 -0.006960 0.000480 
0.022587 0.001302 0.024925 
-0.019005 -0.014012 0.009115 
0.021432 0.015640 0.042685 
0.026213 0.000000 0.064257 
-0.003649 -0.022762 0.040871 
0.008000 0.024676 0.054979 
0.008167 0.020531 0.016799 
-0.023035 0.007443 0.054594 
0.027416 -0.000392 0.057656 
-0.008083 -0.025895 0.058537 
-0.005847 -0.020878 0.001000 
-0.020573 -0.003235 0.008033 
-0.021114 -0.000834 0.000000 
-0.021508 0.011669 0.052151 
0.024233 -0.011724 0.054323 
0.013331 -0.001995 0.000000 
0.014141 -0.022775 0.050360 
0.010016 0.000742 0.000000 
0.024614 -0.007187 0.030402 
0.018487 0.020296 0.074000 
0.026827 -0.003322 0.059085 
0.019995 -0.016632 0.067263 
-0.016897 -0.016230 0.005069 
-0.007454 -0.022946 0.014747 
-0.020870 0.014755 0.056009 
0.000979 -0.027209 0.060984 
-0.010042 0.017878 0.000000 
-0.003300 -0.023579 0.009154 
-0.013808 0.012161 0.001000 
-0.011786 -0.017446 0.016268 
0.026271 0.005881 0.053597 
0.021905 0.015952 0.066868 
0.020526 -0.011439 0.039671 
0.005179 0.012829 0.000000 
0.015810 0.005852 0.000000 
0.026339 0.005604 0.055483 
-0.024662 -0.002661 0.019584 
-0.002970 -0.023680 0.009038 
-0.021805 0.016406 0.051898 
-0.012847 -0.023361 0.051309 
-0.001097 -0.021361 0.020147 
-0.024350 -0.005938 0.020957 
-0.013295 -0.018768 0.044992 
-0.004076 -0.020828 0.012254 
-0.017033 -0.020351 0.039529 
0.023215 0.008285 0.016717 
-0.024325 0.012557 0.063287 
0.005947 -0.023981 0.058912 
-0.012768 -0.017199 0.023139 
0.022156 -0.015705 0.047603 
-0.009069 -0.024014 0.070938 
-0.027137 -0.001124 0.060336 
-0.007624 0.023963 0.035622 
-0.023729 0.000666 0.036398 
-0.011419 0.016767 0.003859 
0.017569 0.012568 0.000088 
0.002275 -0.021194 0.017668 
0.024941 0.001898 0.024061 
0.018779 -0.013467 0.026773 
0.016621 -0.017879 0.057810 
-0.011012 -0.017032 0.003075 
0.014960 0.016790 0.029209 
-0.023045 0.003242 0.038555 
-0.019761 -0.011190 0.003082 
0.009476 0.022723 0.056591 
-0.024092 0.007891 0.025870 
0.013423 0.018390 0.033041 
-0.016658 -0.015242 0.030997 
0.007772 0.009435 0.000000 
-0.019922 0.015369 0.026497 
0.024672 0.000000 0.023025 
0.022016 -0.010485 0.053787 
0.003434 -0.019235 0.000000 
0.014404 -0.015415 0.017072 
-0.024232 -0.004550 0.017661 
0.002826 -0.010499 0.001000 
0.005883 0.021558 0.000099 
0.019013 0.015559 0.047817 
0.002942 -0.024248 0.062877 
-0.022544 -0.012764 0.068463 
-0.002679 0.026466 0.052526 
0.007836 0.024305 0.045354 
-0.023242 0.010006 0.066524 
-0.026041 -0.008281 0.059234 
0.014256 -0.020409 0.068165 
0.021611 0.017216 0.074000 
0.014761 -0.014338 0.006980 
-0.023115 0.008128 0.016238 
-0.000123 0.023550 0.052544 
0.004862 0.027300 0.071781 
0.024170 -0.009937 0.042129 
-0.017310 0.015809 0.041113 
-0.009538 0.023970 0.035352 
0.010780 -0.002143 0.001000 
-0.017211 -0.021043 0.049552 
-0.021558 0.001905 0.000000 
-0.019166 0.010722 0.000097 
0.005170 -0.026640 0.063911 
-0.021181 -0.015591 0.053258 
0.013628 0.019424 0.048321 
-0.026867 0.005563 0.070105 
0.005786 -0.021956 0.028956 
-0.025881 0.010671 0.070028 
0.025059 -0.010070 0.074000 
-0.020091 0.015618 0.029964 
-0.017789 -0.016141 0.047680 
-0.007848 0.024239 0.060203 
0.023505 0.009860 0.032210 
-0.017770 0.014940 0.004440 
0.007925 -0.024627 0.056696 
-0.023391 -0.006022 0.012130 
0.011541 -0.023025 0.033487 
0.022186 0.002188 0.023623 
-0.008488 0.025463 0.053918 
-0.021711 -0.013341 0.060739 
0.020584 0.001474 0.000934 
-0.001504 0.023237 0.047902 
-0.003035 0.023321 0.049156 
0.013715 -0.017210 0.031776 
0.016741 0.014329 0.019623 
-0.009607 0.023788 0.072159 
0.008184 -0.021621 0.032765 
0.017380 -0.019237 0.031478 
0.013638 -0.018245 0.003382 
-0.013285 -0.021910 0.029084 
-0.000412 -0.020925 0.013691 
0.020928 0.015801 0.037109 
0.023021 -0.007159 0.010070 
0.005812 -0.020289 0.000000 
-0.022060 -0.013885 0.040192 
-0.012353 0.015607 0.001000 
0.012787 0.024025 0.063034 
-0.007903 0.024154 0.035756 
0.023146 0.000000 0.012816 
0.014919 0.018087 0.006279 
0.001703 -0.020078 0.001162 
0.017831 -0.016049 0.008461 
-0.024024 -0.001648 0.009381 
-0.019340 -0.009098 0.016925 
0.013044 -0.016775 0.000000 
-0.022453 -0.015822 0.070715 
-0.006605 -0.025029 0.036641 
-0.021444 -0.015722 0.059002 
-0.013409 -0.021248 0.071179 
0.014663 0.022564 0.049316 
0.008057 0.025115 0.072201 
0.026375 -0.006311 0.060863 
-0.012340 0.023040 0.041937 
-0.008000 0.024975 0.046684 
0.024469 -0.005222 0.063350 
0.020889 0.018530 0.066875 
-0.011699 0.023265 0.040609 
-0.000230 0.024863 0.071977 
0.027433 0.003327 0.067591 
-0.007401 -0.025652 0.055123 
0.025642 -0.011172 0.070184 
-0.022243 -0.000000 0.014914 
0.014775 0.018209 0.042056 
-0.007592 0.023392 0.043943 
0.014132 -0.006065 0.000000 
0.007989 0.023858 0.058936 
0.021870 0.016488 0.056037 
0.001265 -0.024486 0.016771 
0.023020 0.004340 0.008098 
-0.027338 -0.000000 0.057766 
0.019274 -0.013630 0.008569 
-0.023566 -0.000000 0.014905 
-0.018497 0.016355 0.016192 
-0.020770 -0.018962 0.070255 
0.007359 -0.023413 0.015884 
-0.000975 -0.002442 0.000000 
-0.019232 -0.005932 0.002576 
0.019263 -0.010041 0.019544 
-0.004505 -0.022951 0.043673 
-0.007037 0.020978 0.002741 
-0.016244 -0.020459 0.034077 
0.007232 0.023690 0.020035 
0.024766 0.006477 0.029071 
0.010050 -0.025111 0.055526 
0.024575 -0.008819 0.042802 
0.019523 -0.012715 0.032511 
-0.007615 0.023619 0.019048 
0.002427 0.026844 0.057810 
0.018412 -0.020182 0.054323 
-0.019078 0.006562 0.003277 
-0.020133 0.002804 0.000841 
-0.027526 -0.000000 0.066317 
-0.025887 -0.003088 0.043633 
-0.014708 -0.020835 0.031644 
-0.020240 0.015034 0.032341 
0.022518 0.016000 0.060880 
0.025036 0.000302 0.051014 
0.003559 -0.020427 0.000000 
-0.020429 -0.005189 0.014290 
0.007017 -0.024604 0.029353 
-0.012983 -0.010288 0.001000 
-0.022432 0.014836 0.046924 
-0.001255 0.023890 0.008505 
-0.017533 -0.019189 0.032577 
-0.026265 0.002207 0.046022 
0.016188 0.018243 0.054421 
0.022411 0.012195 0.027248 
-0.012671 -0.016044 0.007405 
0.013697 -0.022056 0.074000 
0.026544 -0.000683 0.041215 
-0.024736 0.005975 0.025960 
-0.004814 -0.019599 0.000000 
-0.022445 0.003395 0.002001 
0.010497 0.018430 0.011357 
0.003630 -0.023503 0.051847 
0.020577 0.014583 0.028356 
-0.001012 0.010877 0.001000 
-0.008126 0.025251 0.071018 
-0.019855 -0.019759 0.068597 
-0.017892 0.012777 0.004266 
0.011384 -0.023846 0.046702 
0.026188 0.002713 0.047300 
0.020786 0.006283 0.023192 
-0.005869 -0.025578 0.039178 
0.016223 -0.019847 0.031417 
0.015070 -0.014373 0.010576 
0.001755 0.023670 0.007514 
0.012925 -0.022293 0.030358 
-0.017326 -0.012305 0.001534 
-0.025106 -0.005554 0.072126 
0.008602 -0.005195 0.001000 
-0.021491 -0.013398 0.058354 
-0.017444 0.017187 0.014047 
-0.006267 0.026455 0.058733 
-0.006386 -0.024639 0.027123 
0.009779 -0.018305 0.006730 
0.018739 -0.014083 0.032829 
-0.019284 -0.014782 0.016199 
0.020776 0.007488 0.028012 
-0.025710 -0.000000 0.044657 
0.024403 -0.006184 0.066126 
0.018079 0.013342 0.001499 
0.020847 0.018452 0.065301 
0.005011 -0.020323 0.004779 
-0.024718 -0.006866 0.072388 
-0.011318 0.018610 0.026338 
0.005620 -0.023649 0.054009 
-0.025533 0.002077 0.064312 
0.008976 -0.011085 0.000000 
-0.006423 0.002574 0.001000 
-0.017931 0.016226 0.049485 
0.024422 0.010156 0.047973 
0.000455 -0.024730 0.070007 
0.008366 0.023500 0.057416 
0.021971 0.011396 0.018239 
-0.023036 0.004104 0.006640 
0.007335 -0.025403 0.046787 
-0.011001 0.020901 0.051751 
-0.003790 0.026006 0.046159 
0.025937 0.000098 0.061286 
-0.019761 0.014329 0.032260 
0.007764 -0.001355 0.000000 
0.019651 0.019642 0.064112 
-0.020633 0.013036 0.014352 
-0.025465 0.010196 0.060878 
-0.020470 0.017400 0.045090 
0.009417 0.020201 0.001472 
0.012082 -0.020221 0.006908 
-0.012690 -0.024028 0.074000 
0.007153 0.021200 0.011294 
0.019416 -0.007040 0.009403 
-0.020348 0.014357 0.048358 
0.023304 -0.013231 0.053689 
0.003940 0.027193 0.062709 
-0.021936 -0.016838 0.059845 
-0.011450 -0.021372 0.059543 
-0.004717 0.023685 0.054533 
0.019597 -0.012960 0.007007 
0.008194 0.025388 0.069212 
0.011122 0.016506 0.001000 
0.020282 0.019452 0.070272 
-0.022744 -0.000579 0.003350 
0.022455 -0.011862 0.026581 
0.007545 0.022935 0.040317 
0.007117 0.019984 0.000780 
0.001338 -0.023123 0.046219 
0.004945 -0.008378 0.001000 
0.007676 -0.022771 0.017103 
0.005063 0.024639 0.022283 
-0.002576 -0.021659 0.024560 
0.010312 -0.018389 0.000000 
-0.015590 -0.019040 0.017909 
0.011836 0.022857 0.032379 
-0.014078 -0.018396 0.046343 
0.017576 0.011584 0.005279 
-0.007940 0.024457 0.049373 
-0.017217 -0.018928 0.072496 
-0.009210 -0.025888 0.062720 
0.002838 0.003057 0.000000 
-0.010097 0.023346 0.070858 
-0.011144 -0.017441 0.009651 
-0.000363 -0.026544 0.041214 
0.018245 0.011436 0.012656 
-0.002791 -0.023417 0.050579 
0.011002 -0.023081 0.031536 
-0.021534 0.012766 0.019400 
-0.016608 -0.004517 0.001000 
0.017862 0.014706 0.031409 
-0.010267 -0.021291 0.006929 
-0.009396 -0.008512 0.000000 
-0.003577 0.025101 0.027115 
0.023093 -0.012372 0.042909 
0.017862 -0.015552 0.006831 
-0.021455 -0.000300 0.000000 
0.023368 -0.010180 0.031412 
0.010498 -0.019647 0.031194 
-0.001239 0.024932 0.023907 
0.023924 0.000000 0.035612 
0.024271 0.012242 0.058870 
-0.018001 -0.019998 0.045994 
-0.019891 0.014238 0.026491 
-0.024880 -0.001791 0.055214 
0.019976 0.007075 0.016453 
0.015752 -0.022623 0.061137 
0.025279 0.006785 0.039096 
-0.007077 0.024048 0.021886 
-0.024258 -0.009145 0.038427 
-0.012110 -0.024463 0.062846 
0.022986 0.000529 0.004435 
0.005728 -0.023562 0.052720 
0.012607 -0.016686 0.000000 
-0.023478 -0.009710 0.029666 
-0.015454 0.014504 0.000000 
0.022524 0.003283 0.032297 
-0.010139 -0.022380 0.061237 
0.012362 0.016792 0.010004 
-0.022055 -0.011166 0.056771 
0.027477 -0.001311 0.059353 
0.018718 -0.013523 0.009298 
0.026212 -0.010492 0.073416 
0.011917 0.017116 0.009711 
0.019661 -0.006040 0.001000 
-0.026001 0.003611 0.046025 
0.020892 0.007271 0.000126 
0.012169 0.019268 0.033973 
0.010658 -0.020717 0.046481 
-0.009581 0.007339 0.001000 
-0.003165 0.010167 0.000000 
0.020238 0.012668 0.008718 
-0.018814 0.011372 0.000977 
-0.003519 -0.020678 0.010029 
0.019666 -0.012324 0.032759 
-0.025352 -0.000000 0.038439 
-0.007323 -0.020981 0.015811 
-0.025882 -0.006835 0.049360 
-0.003100 -0.024333 0.017397 
-0.005670 -0.022862 0.042356 
-0.012657 0.019892 0.052313 
0.024892 -0.003969 0.063728 
0.017762 -0.010008 0.001205 
0.002036 -0.011757 0.000000 
0.021238 0.017268 0.058611 
0.016820 0.017651 0.012770 
-0.004397 -0.025310 0.031502 
0.027271 0.003713 0.067125 
-0.010901 0.018454 0.020092 
-0.007105 0.022454 0.012453 
-0.024569 0.007832 0.035176 
0.011218 -0.016930 0.003877 
0.017673 -0.018489 0.026697 
0.018825 0.019405 0.049219 
-0.017892 0.019595 0.040612 
-0.024960 -0.003771 0.063798 
-0.022978 0.007076 0.009062 
-0.027285 0.001004 0.074000 
0.020243 -0.001954 0.001000 
-0.008888 -0.024849 0.048025 
0.023684 -0.013452 0.062552 
0.018557 -0.009132 0.007418 
-0.023617 0.007018 0.016475 
-0.014440 -0.023157 0.059383 
-0.005115 0.023492 0.051684 
-0.012216 -0.018395 0.032759 
0.015159 0.020382 0.073794 
0.024997 -0.003611 0.063650 
0.003551 -0.025259 0.030435 
-0.019023 -0.007073 0.004695 
-0.007908 0.019638 0.004642 
-0.023210 -0.011992 0.073495 
0.007029 -0.001813 0.000000 
-0.025294 0.000415 0.054663 
0.007915 0.023969 0.026301 
0.024395 0.003391 0.055706 
-0.024851 -0.000527 0.022615 
-0.006768 0.016583 0.000000 
0.000859 0.020188 0.001000 
-0.014087 -0.017538 0.000492 
-0.003685 0.022269 0.033580 
-0.013101 0.021559 0.022285 
-0.008634 -0.026267 0.068348 
-0.001516 -0.023051 0.045159 
0.013294 0.015207 0.002245 
-0.020056 0.007113 0.017602 
-0.024082 0.010025 0.042168 
-0.012594 0.016034 0.006495 
-0.021385 -0.017728 0.061585 
-0.014689 -0.019095 0.057534 
0.023123 0.006025 0.050392 
-0.017971 0.021432 0.066884 
-0.026919 0.008286 0.071740 
-0.011505 0.025390 0.070172 
0.020983 -0.016017 0.067469 
-0.021827 -0.011816 0.018181 
0.024164 0.003015 0.051417 
0.007407 -0.023228 0.047767 
-0.024851 0.006037 0.028100 
-0.001149 0.027259 0.063632 
0.005996 0.020740 0.010951 
-0.023457 0.009349 0.066642 
0.025531 -0.003701 0.070299 
0.024926 -0.001275 0.023811 
0.011454 -0.019188 0.035099 
0.018105 -0.016198 0.011424 
-0.011331 -0.025414 0.068887 
-0.001048 -0.020218 0.003220 
0.020754 0.015138 0.056804 
-0.000218 -0.025494 0.030191 
0.018167 0.020443 0.055310 
-0.023846 -0.004979 0.055082 
-0.024572 0.008962 0.044316 
0.010095 0.023768 0.037585 
0.023011 -0.000000 0.007113 
0.015390 0.017367 0.037727 
0.021080 -0.015468 0.062475 
-0.027814 0.000734 0.071401 
0.026484 0.000000 0.050115 
-0.012064 0.019396 0.004380 
0.014253 0.018615 0.007448 
0.005588 -0.022603 0.007213 
0.010963 -0.019992 0.003505 
0.017661 -0.012526 0.004965 
0.005215 -0.025949 0.044930 
-0.020434 -0.014045 0.048229 
0.005908 0.023398 0.014604 
0.012585 -0.017939 0.030714 
0.019801 -0.014765 0.046833 
0.022513 -0.003401 0.004409 
-0.022778 0.010147 0.022235 
0.018219 0.015665 0.042923 
0.007678 -0.026227 0.057942 
-0.016291 0.021732 0.046315 
0.019628 -0.008585 0.018372 
0.024837 0.007725 0.039685 
0.026145 -0.010628 0.073423 
0.006667 0.023371 0.014938 
-0.005129 0.022372 0.035113 
-0.009734 -0.020571 0.035187 
0.022388 -0.012310 0.064940 
-0.007218 -0.023784 0.019278 
0.023449 -0.000621 0.006521 
0.017653 0.020414 0.047871 
-0.007347 0.022559 0.026455 
0.010584 -0.022116 0.013969 
-0.007978 -0.024889 0.046146 
0.003687 -0.017154 0.000000 
0.023543 0.005528 0.013341 
-0.005153 0.023830 0.015636 
0.022369 -0.010864 0.059373 
0.013662 -0.021141 0.071754 
0.016389 -0.017413 0.051498 
-0.025580 0.001751 0.063665 
-0.012425 0.017537 0.000000 
-0.003996 0.010041 0.000000 
0.020896 0.017317 0.051951 
0.004095 -0.022481 0.036725 
-0.013339 0.015278 0.004456 
-0.022025 -0.003871 0.028559 
-0.000933 -0.010777 0.000000 
0.024340 -0.001343 0.046708 
0.004965 -0.016675 0.000000 
0.000339 0.022116 0.031319 
0.006536 0.026333 0.055313 
-0.010232 0.023658 0.035840 
0.018330 -0.013389 0.023022 
-0.019636 -0.014384 0.041833 
-0.022189 0.015834 0.057099 
0.002516 0.025068 0.025710 
-0.020938 -0.014735 0.044511 
-0.008332 -0.025663 0.059329 
-0.012576 0.021760 0.020181 
-0.020892 0.003273 0.012126 
-0.023663 0.012244 0.049991 
0.007667 -0.020166 0.000000 
0.023076 0.002403 0.035486 
0.026749 0.007262 0.066975 
-0.008595 0.019665 0.012002 
0.007346 -0.022114 0.010845 
0.022319 -0.008405 0.049681 
0.015239 0.018630 0.051494 
-0.000550 -0.027554 0.066629 
-0.007162 0.020179 0.003933 
-0.027348 0.000524 0.060645 
-0.022547 -0.009937 0.017240 
-0.019065 -0.013843 0.032516 
-0.008769 0.022801 0.013687 
-0.005332 0.026622 0.063424 
-0.025670 -0.006347 0.043816 
0.020880 0.006026 0.000000 
-0.005222 -0.001687 0.001000 
0.018207 -0.012874 0.016172 
-0.001529 -0.024016 0.059442 
-0.000789 0.020353 0.005226 
0.022343 0.016000 0.072582 
-0.022194 0.015623 0.060887 
-0.010252 -0.017519 0.001543 
0.018733 0.015426 0.044510 
0.013654 0.023704 0.065243 
0.021703 -0.015473 0.052864 
-0.006313 -0.020115 0.001703 
-0.003611 0.023801 0.056249 
-0.013461 0.009146 0.001000 
0.016999 0.018780 0.068291 
0.020822 -0.017632 0.055689 
0.019988 0.018092 0.047117 
-0.023397 -0.000000 0.015979 
-0.021218 -0.000435 0.004479 
-0.001022 0.021687 0.024971 
0.007051 0.021514 0.002428 
0.014911 -0.019561 0.019849 
-0.021277 0.015638 0.042200 
-0.016595 -0.015405 0.000041 
0.023942 0.002334 0.009640 
0.025557 0.007675 0.050416 
-0.021161 -0.008759 0.037279 
0.009900 -0.024455 0.047062 
-0.014873 -0.014150 0.005724 
0.012341 0.021275 0.013930 
-0.016734 -0.015292 0.000119 
-0.019829 0.007405 0.016002 
-0.016956 0.012638 0.006251 
0.004252 -0.026066 0.047836 
0.000704 0.026290 0.038540 
0.022789 -0.003243 0.005413 
-0.019744 0.010504 0.026956 
0.012233 -0.021880 0.069909 
-0.025455 -0.002183 0.063787 
-0.004613 0.006758 0.001000 
0.022236 -0.000200 0.016061 
-0.024021 -0.009143 0.033443 
-0.015038 0.005676 0.000000 
-0.013294 0.016921 0.024962 
0.003689 -0.022883 0.042668 
0.019955 -0.016701 0.036279 
-0.023847 0.009995 0.073647 
0.000651 -0.000113 0.001000 
0.019331 0.013651 0.025180 
0.021712 -0.016572 0.053941 
0.018027 -0.017224 0.019010 
-0.006663 0.024248 0.062871 
-0.006703 0.002980 0.001000 
-0.016876 -0.015291 0.000755 
0.024129 0.000118 0.011065 
0.009447 -0.021257 0.041012 
0.026302 -0.006696 0.064192 
0.006051 0.026958 0.072812 
0.000343 -0.016144 0.000000 
-0.003727 0.020680 0.010067 
-0.008985 -0.025052 0.051323 
0.018515 -0.019894 0.051724 
-0.000079 -0.010555 0.001000 
0.020319 0.013099 0.043367 
-0.007203 0.022092 0.030967 
-0.009575 0.022357 0.056355 
0.000885 0.021073 0.015879 
-0.020043 0.014509 0.039562 
-0.022854 -0.013670 0.047623 
-0.026173 -0.006158 0.050857 
0.013893 0.022973 0.053573 
0.026656 -0.001492 0.048142 
0.006120 0.024791 0.070906 
-0.007290 -0.025864 0.058100 
-0.025593 -0.004272 0.037454 
0.023408 0.014044 0.061879 
-0.008302 -0.026912 0.072768 
0.004139 -0.025299 0.031281 
0.018284 0.019291 0.041536 
-0.024554 -0.008405 0.039479 
-0.013520 0.022754 0.044473 
-0.011515 0.022602 0.027240 
0.022730 0.007629 0.051664 
0.026510 0.006062 0.060288 
0.013558 0.023550 0.061475 
0.001739 -0.022643 0.039117 
-0.007637 0.026913 0.071574 
0.019345 -0.014266 0.038707 
-0.014110 0.018505 0.047671 
0.026719 0.005713 0.066135 
0.025355 -0.011903 0.073278 
0.026649 0.007989 0.064407 
-0.015278 0.016217 0.031895 
0.023588 -0.005746 0.013701 
-0.021292 0.018454 0.072793 
-0.018519 -0.008953 0.006210 
-0.003713 0.022850 0.042178 
0.003912 0.025067 0.026408 
0.018335 -0.015152 0.041133 
0.015482 -0.009511 0.000000 
-0.018157 -0.013125 0.002618 
0.010663 -0.001288 0.001000 
-0.014706 0.018230 0.048779 
0.024638 0.000000 0.040661 
-0.024011 0.011488 0.049569 
0.020697 0.017371 0.047899 
0.008589 0.026910 0.071486 
-0.010865 -0.023928 0.044046 
-0.022901 -0.001532 0.029746 
0.002457 0.023099 0.045866 
0.011364 -0.018797 0.001000 
0.007182 0.025394 0.045686 
0.020830 0.008635 0.032893 
0.021311 -0.013025 0.054830 
-0.001129 0.023607 0.007231 
-0.006488 0.023352 0.011812 
0.001051 -0.027867 0.072132 
0.007613 0.019855 0.003267 
-0.012798 0.018714 0.041165 
0.023749 -0.005424 0.014996 
-0.007304 -0.023175 0.013479 
0.007456 0.021073 0.017915 
0.007453 0.023242 0.035443 
0.009410 -0.007312 0.000000 
0.008280 0.025561 0.056757 
-0.015357 0.015937 0.000000 
-0.017979 0.013062 0.017347 
0.005625 0.020301 0.004450 
-0.019733 -0.014295 0.032435 
-0.000868 0.023202 0.047384 
0.021835 -0.014970 0.068232 
0.021253 -0.015487 0.058383 
0.001717 -0.021998 0.029574 
0.022547 -0.013026 0.069477 
-0.017698 0.017172 0.057655 
-0.018957 0.020367 0.064536 
-0.012703 0.012707 0.001000 
-0.024285 0.003746 0.015935 
0.009556 0.024396 0.044650 
0.024196 -0.003553 0.053946 
0.003051 -0.023653 0.009023 
0.024213 0.008152 0.031079 
-0.003845 -0.020621 0.009189 
0.020595 -0.017989 0.055869 
-0.015461 0.016603 0.037062 
-0.026777 -0.000956 0.048679 
0.023670 -0.007338 0.018394 
0.017082 -0.022251 0.073238 
0.010041 -0.023580 0.034340 
-0.014518 0.020361 0.069398 
-0.016749 -0.018091 0.060826 
-0.007942 -0.024375 0.053352 
-0.020888 0.014374 0.026837 
-0.017652 -0.018627 0.072271 
-0.009468 0.023051 0.063685 
-0.007228 -0.024705 0.034390 
-0.010036 -0.000362 0.000000 
0.012578 0.021942 0.072497 
0.007957 0.020808 0.001291 
-0.006731 -0.024156 0.061514 
-0.022233 -0.007492 0.006288 
0.007238 0.022002 0.017823 
0.006132 0.024802 0.027826 
-0.023967 0.013066 0.074000 
0.017265 -0.017540 0.015436 
-0.021052 0.012762 0.050793 
-0.000147 0.005390 0.001000 
-0.021833 0.004410 0.000000 
0.019877 0.011433 0.003939 
0.027668 0.001632 0.064701 
0.021755 0.013305 0.026251 
0.023967 0.000000 0.034243 
0.023475 -0.004583 0.049222 
0.025714 -0.003834 0.039995 
0.003187 0.020734 0.010862 
0.008319 0.025637 0.061830 
-0.022499 -0.013298 0.041739 
0.005592 0.026403 0.053473 
-0.020382 -0.004647 0.011483 
-0.007685 -0.023327 0.049439 
0.024997 0.011961 0.067912 
0.008042 -0.023669 0.057445 
0.012388 -0.024610 0.067487 
-0.025195 0.007152 0.041199 
-0.015830 -0.021924 0.044811 
0.002448 -0.024580 0.018274 
-0.023948 0.008268 0.068457 
0.020343 -0.015646 0.031921 
-0.019382 0.006299 0.001000 
0.024985 0.000000 0.040979 
-0.014360 0.009646 0.001000 
0.017201 -0.011068 0.000000 
0.000391 0.021756 0.025996 
-0.023287 0.013948 0.058662 
0.020118 -0.003988 0.005518 
-0.026919 -0.000000 0.063977 
0.004942 0.024311 0.063804 
-0.018369 0.015910 0.012462 
0.021539 0.017800 0.069622 
0.026900 0.000000 0.052310 
-0.015522 -0.014583 0.016747 
-0.022947 -0.012248 0.039632 
-0.020949 -0.015405 0.049429 
-0.027353 0.002347 0.064940 
0.021345 -0.002837 0.015919 
0.023153 0.008583 0.060203 
0.019416 0.019102 0.053244 
0.009727 0.024730 0.049668 
-0.019915 0.016239 0.032475 
0.013077 -0.020917 0.016954 
0.011401 0.024387 0.055159 
-0.018807 0.013404 0.025981 
0.021680 0.002879 0.020218 
-0.019372 -0.014031 0.025344 
-0.018039 -0.018690 0.032652 
-0.001594 0.021127 0.016680 
0.018283 0.016439 0.014776 
-0.015832 -0.017605 0.006466 
-0.012711 0.017793 0.030136 
0.006483 0.024122 0.061010 
-0.018961 -0.018496 0.040304 
-0.002601 0.026776 0.056868 
0.020783 -0.015952 0.037147 
0.022000 0.003889 0.000554 
-0.001591 0.023594 0.053198 
-0.005080 0.003796 0.001000 
-0.016834 -0.013833 0.017708 
0.003768 0.014574 0.000000 
-0.007257 -0.022823 0.011808 
0.023674 0.008679 0.066732 
-0.000670 0.023502 0.051829 
0.021935 -0.002316 0.021055 
0.004833 0.026053 0.046743 
-0.025823 -0.000000 0.055993 
0.025953 0.000000 0.058329 
0.026253 0.009674 0.074000 
0.010155 0.024361 0.046947 
-0.007069 0.020396 0.003156 
0.027797 0.002663 0.069586 
0.004819 0.025487 0.035233 
-0.020542 0.001622 0.001013 
0.020265 -0.015133 0.029513 
0.021513 -0.001335 0.011814 
-0.019340 0.018115 0.040277 
-0.019012 0.016971 0.024969 
-0.005793 -0.026985 0.071648 
-0.001458 -0.005098 0.001000 
0.011458 0.020379 0.042556 
-0.009205 -0.023664 0.028724 
0.026268 -0.006280 0.057428 
-0.018435 -0.014848 0.038675 
-0.016993 0.005128 0.000000 
0.010279 0.023087 0.027834 
-0.005508 -0.022401 0.035536 
0.027330 -0.003279 0.065920 
0.024295 0.012050 0.057482 
-0.017155 -0.011957 0.001674 
0.017949 0.020474 0.053400 
-0.027313 0.003638 0.067367 
-0.017226 -0.018274 0.021004 
-0.008811 0.015674 0.000000 
-0.014091 -0.021098 0.028972 
-0.010207 -0.023108 0.027790 
-0.003391 0.002694 0.000000 
0.004653 -0.020232 0.003429 
-0.011341 -0.003866 0.001000 
-0.025114 0.003974 0.066371 
0.020777 -0.018243 0.061776 
-0.023800 -0.007085 0.018942 
0.008508 -0.026980 0.073449 
0.008069 0.015666 0.000000 
0.021027 0.013408 0.020480 
0.008174 -0.021047 0.025338 
-0.011159 -0.007751 0.001000 
0.026048 0.004962 0.047331 
-0.026713 -0.006778 0.065974 
-0.004989 -0.027270 0.072112 
0.008288 -0.021070 0.002571 
0.012695 0.021484 0.018432 
-0.005355 -0.022106 0.031171 
-0.001157 0.020902 0.013356 
0.021806 0.015224 0.059646 
0.020069 -0.014608 0.036164 
0.004006 -0.024899 0.072511 
0.019139 0.017176 0.028311 
0.007833 -0.023367 0.021587 
0.007781 -0.023907 0.043868 
0.025079 -0.004884 0.026650 
-0.021196 -0.001091 0.006901 
-0.021717 -0.012223 0.018493 
-0.020317 -0.005260 0.000000 
0.023328 -0.007610 0.015749 
-0.000739 -0.023039 0.044973 
-0.016567 -0.021809 0.051271 
-0.014326 -0.020920 0.030160 
0.018260 -0.013147 0.008317 
0.023580 -0.000369 0.033340 
0.024436 0.009210 0.043469 
-0.021983 -0.013114 0.027040 
-0.022877 0.009336 0.059728 
0.020068 0.007182 0.001000 
0.005683 -0.026914 0.071321 
0.020580 0.005214 0.016252 
-0.024158 0.007635 0.025579 
0.022861 0.015603 0.074000 
-0.017671 -0.012886 0.013508 
0.024230 -0.009473 0.040154 
0.005508 -0.021839 0.000837 
-0.025688 -0.003690 0.039449 
-0.023454 -0.013788 0.061045 
-0.016176 -0.002100 0.001000 
-0.014801 0.014840 0.013794 
0.007871 -0.024355 0.041423 
0.009805 0.020738 0.033328 
0.004815 0.022342 0.003081 
0.017528 -0.016387 0.008617 
-0.013925 0.014783 0.004126 
0.005063 -0.022945 0.043582 
0.001864 -0.023361 0.049745 
-0.021353 0.013834 0.026309 
0.027696 0.002369 0.066804 
0.007794 -0.023966 0.025309 
0.015100 0.018987 0.055000 
-0.022988 -0.011673 0.036466 
-0.001615 -0.022559 0.037869 
-0.020852 -0.014434 0.054614 
0.020319 0.012934 0.011021 
0.018383 -0.013168 0.015918 
0.014151 -0.022036 0.074000 
-0.000108 0.021531 0.022665 
0.003547 0.025695 0.039593 
-0.024853 -0.007455 0.039104 
-0.012764 -0.015869 0.006129 
-0.020680 -0.007256 0.000000 
-0.016936 -0.007399 0.000000 
-0.022825 0.009303 0.018483 
0.010268 0.023308 0.070940 
-0.022446 -0.011413 0.062312 
0.018257 -0.013153 0.007705 
0.008370 -0.023284 0.055884 
0.019461 -0.005130 0.002107 
-0.027041 -0.004703 0.063051 
0.019380 0.010239 0.000080 
-0.004864 -0.025072 0.026518 
-0.018916 0.011503 0.001004 
-0.018615 -0.013536 0.008532 
-0.001788 0.010059 0.001000 
-0.014579 -0.009219 0.000000 
-0.010946 -0.022474 0.021634 
-0.010231 0.022100 0.011838 
0.020288 -0.010557 0.003840 
0.019084 0.010208 0.018044 
0.026483 0.009418 0.070552 
-0.022307 0.011231 0.059993 
-0.013036 -0.020612 0.014179 
0.003739 -0.022551 0.037750 
-0.016642 -0.017511 0.010220 
-0.022471 -0.002741 0.029406 
-0.006996 0.026514 0.060396 
0.007585 -0.023716 0.028608 
0.018496 -0.012150 0.000255 
-0.001089 -0.020790 0.011690 
0.013171 -0.024169 0.068625 
-0.003005 -0.027902 0.072625 
0.010912 -0.019317 0.031204 
0.023409 0.006660 0.056129 
0.011743 0.012261 0.001000 
0.026341 0.004526 0.055545 
0.003711 -0.025813 0.042081 
-0.007401 -0.024720 0.035921 
-0.003982 0.007569 0.001000 
0.020061 0.015697 0.056851 
0.024709 -0.007736 0.037120 
0.022223 0.000497 0.017126 
-0.018181 0.016531 0.014697 
0.017498 0.018560 0.069621 
0.022823 -0.010970 0.028079 
-0.022585 0.008369 0.052687 
-0.012200 -0.020216 0.006538 
0.002625 -0.027786 0.071001 
0.007644 -0.023222 0.045354 
-0.016846 -0.002769 0.001000 
-0.021464 -0.017407 0.058193 
-0.020606 -0.014611 0.048295 
0.003975 -0.001173 0.000000 
0.002035 -0.022599 0.038459 
-0.000402 0.022388 0.035335 
0.023106 0.012354 0.041435 
0.024145 -0.005406 0.060199 
0.007279 0.021721 0.020630 
0.026259 -0.001959 0.044154 
-0.020515 0.015258 0.032739 
-0.015181 0.023010 0.062820 
-0.007920 -0.024599 0.050802 
0.024168 0.010506 0.046052 
0.005041 -0.026379 0.056610 
-0.016120 -0.014903 0.023976 
-0.018797 -0.012784 0.024182 
-0.023248 -0.004150 0.044791 
-0.024081 -0.000168 0.010290 
0.025043 0.003048 0.025910 
-0.025031 -0.001552 0.056092 
-0.012203 -0.020183 0.006422 
0.007780 -0.023901 0.040230 
0.021632 0.004854 0.027751 
-0.002293 0.012253 0.001000 
0.004454 -0.020718 0.010622 
-0.016356 0.017944 0.056727 
-0.017815 -0.013274 0.018437 
0.000644 -0.024716 0.020449 
0.009900 -0.023060 0.066625 
-0.023124 -0.002858 0.006346 
0.020421 -0.011607 0.039057 
0.021805 0.006894 0.038003 
-0.026017 -0.000000 0.057043 
-0.000577 -0.026572 0.074000 
0.026344 0.007633 0.074000 
-0.017668 -0.012689 0.001000 
-0.022921 -0.015667 0.067124 
0.003711 -0.020996 0.014736 
0.015864 0.008068 0.000000 
-0.004791 -0.014459 0.000000 
-0.017875 -0.012826 0.001805 
0.025231 0.003305 0.029847 
-0.003190 0.025691 0.039501 
-0.019494 -0.016142 0.025549 
0.020469 0.009963 0.003422 
-0.025459 -0.001447 0.060945 
-0.020963 -0.018289 0.063533 
-0.020413 0.011565 0.038797 
-0.008739 -0.021244 0.033630 
0.002968 -0.024753 0.021044 
0.012913 0.019837 0.007876 
0.013261 -0.005446 0.000000 
0.026827 -0.005816 0.069163 
0.020920 0.014931 0.040620 
-0.004159 -0.022656 0.003376 
-0.012021 0.015609 0.001000 
0.007290 -0.021450 0.014967 
-0.011671 -0.001728 0.001000 
0.021101 0.017865 0.062997 
0.026811 0.006354 0.068717 
0.010946 -0.021244 0.054897 
-0.003246 0.026434 0.053222 
0.021967 -0.017343 0.071695 
-0.019813 -0.013252 0.037940 
0.016324 0.018169 0.054586 
-0.019145 -0.009687 0.016842 
0.014594 0.016942 0.027904 
-0.008730 -0.026460 0.069579 
-0.025943 -0.001358 0.066502 
0.002236 0.012705 0.000000 
0.009109 0.005259 0.000000 
-0.026376 -0.005541 0.052259 
0.009775 -0.007502 0.000000 
0.015626 0.021686 0.042058 
-0.017954 0.021354 0.064388 
0.021714 -0.008146 0.004930 
0.000602 0.024532 0.017516 
-0.012465 -0.019441 0.046421 
0.005376 0.022243 0.033190 
-0.019043 0.013975 0.011955 
0.026382 -0.005860 0.056696 
0.025892 -0.003929 0.043734 
0.018271 0.019927 0.048779 
0.007035 0.026809 0.068657 
-0.021210 0.015605 0.039842 
-0.023770 -0.014378 0.072858 
-0.018534 -0.016842 0.059783 
0.009128 -0.024961 0.050048 
0.018819 0.017282 0.063996 
-0.018621 -0.011758 0.000031 
0.022945 0.009924 0.062707 
-0.024037 0.000436 0.039247 
-0.017729 -0.011181 0.005597 
0.018169 -0.012297 0.014936 
-0.007170 0.022520 0.011600 
-0.022429 -0.003987 0.034019 
-0.025488 0.002952 0.067024 
0.003058 -0.023745 0.055426 
-0.018073 -0.012855 0.000912 
0.014035 -0.016992 0.031660 
0.020174 0.008266 0.023761 
-0.009926 0.018763 0.014086 
0.026243 0.005331 0.052794 
-0.021443 -0.008732 0.040516 
-0.014159 0.021197 0.027488 
0.005411 0.021538 0.022768 
0.014226 -0.014628 0.005217 
0.016072 -0.019817 0.029942 
-0.022309 0.012512 0.028075 
-0.020535 0.015932 0.063639 
-0.011640 -0.021262 0.009876 
0.004823 -0.020760 0.011254 
0.026390 -0.005178 0.056923 
-0.002229 0.024746 0.070237 
0.014738 0.023189 0.065745 
0.020671 0.014632 0.039106 
0.006512 0.026616 0.063256 
0.023830 -0.004768 0.015023 
0.007021 0.017978 0.000000 
0.005110 0.024274 0.019483 
0.008788 0.004795 0.000000 
0.022224 0.014323 0.042985 
-0.016936 0.010682 0.001000 
0.015945 -0.018505 0.059762 
0.014364 0.021779 0.039105 
0.021546 0.014977 0.064844 
0.008284 0.022985 0.049967 
-0.012574 0.020578 0.058802 
0.003990 -0.026048 0.047337 
0.020403 -0.016393 0.037572 
-0.014336 0.021569 0.031337 
0.021656 -0.003363 0.021912 
-0.001720 -0.026989 0.059848 
-0.012155 0.002764 0.000000 
0.023044 -0.004150 0.007925 
-0.022811 0.003378 0.036222 
-0.009780 0.020618 0.036257 
-0.018363 0.015997 0.012851 
0.020247 -0.016896 0.040000 
0.013348 -0.020265 0.013902 
0.014909 0.022982 0.063306 
0.005682 0.022582 0.005236 
-0.001059 0.002512 0.001000 
-0.003376 0.024950 0.073255 
-0.001521 -0.023923 0.058062 
0.013851 0.019682 0.053585 
-0.012074 0.020063 0.050220 
0.000921 -0.023712 0.054942 
-0.014523 -0.017717 0.042307 
-0.026913 -0.006400 0.071557 
0.014512 -0.019577 0.017713 
-0.014414 0.019701 0.061946 
0.022836 -0.005549 0.045228 
0.022334 0.005331 0.038368 
0.021716 -0.015704 0.048403 
0.005561 -0.025702 0.039736 
-0.010019 0.026345 0.072372 
-0.023693 -0.003430 0.010360 
-0.025487 -0.001333 0.060818 
-0.025424 0.000740 0.057610 
0.010423 0.026172 0.074000 
-0.004843 0.026111 0.049111 
-0.011680 0.022823 0.033051 
-0.019615 0.011260 0.028220 
0.019017 0.013580 0.016178 
