
# .PCD v.6 - Point Cloud Data file format
FIELDS x y z 
SIZE 4 4 4 
TYPE F F F 
COUNT 1 1 1 
WIDTH 1647
HEIGHT 1
VIEWPOINT 0.000000 0.000000 0.000000 1.000000 0.000000 0.000000 0.00000
POINTS 1647
DATA ascii
0.020708 -0.001192 0.001000 
0.021598 -0.015617 0.030434 
0.019529 0.014327 0.004185 
0.024364 0.001162 0.003276 
0.013817 -0.021963 0.059185 
0.019875 -0.011241 0.014666 
-0.022528 0.017321 0.045337 
0.021484 0.015589 0.034377 
-0.024362 0.016756 0.067161 
-0.016780 -0.021253 0.073123 
-0.028922 -0.001473 0.058560 
-0.005989 -0.007571 0.000000 
0.004149 -0.014137 0.000000 
0.021351 0.018024 0.073207 
-0.012336 0.025068 0.037649 
0.027229 -0.000000 0.045094 
-0.019283 -0.004586 0.000000 
0.022987 -0.000477 0.002131 
0.013848 -0.024924 0.045327 
-0.007813 0.023769 0.027510 
0.000911 0.026272 0.019177 
0.022668 -0.018643 0.065364 
0.001953 -0.022340 0.005099 
-0.010091 -0.022125 0.001533 
-0.001460 -0.028914 0.058209 
-0.021591 0.007825 0.020012 
-0.012639 -0.022678 0.057930 
-0.006403 0.027744 0.044989 
0.019187 -0.013844 0.008266 
-0.007061 0.018114 0.001000 
-0.025113 0.006163 0.013002 
0.000081 0.023359 0.020382 
-0.024159 0.004815 0.037637 
0.026809 0.012181 0.071347 
-0.021934 0.013505 0.010986 
0.019737 -0.011055 0.012293 
0.007587 0.001767 0.001000 
-0.023971 0.009522 0.013687 
0.002074 -0.025287 0.049299 
0.027364 -0.002719 0.067083 
0.019543 0.017670 0.018708 
-0.020939 0.010030 0.022112 
-0.025197 0.003687 0.012146 
0.021754 0.007515 0.020557 
0.021094 0.015562 0.024344 
0.001779 -0.012078 0.001000 
-0.023364 -0.001021 0.009456 
0.008514 -0.025967 0.055252 
0.016549 -0.024870 0.073363 
-0.020524 0.009674 0.015554 
-0.013926 -0.016566 0.002625 
0.015423 0.023094 0.034360 
0.020879 -0.014963 0.012581 
-0.023812 0.014405 0.037069 
0.024575 -0.016945 0.072841 
-0.009953 -0.021934 0.026566 
0.023135 -0.010860 0.013251 
0.025102 -0.014264 0.051670 
0.002933 0.027970 0.046334 
0.023536 0.010220 0.053284 
0.011781 -0.015039 0.001000 
-0.020545 0.005790 0.001000 
-0.005550 0.028345 0.056658 
0.010001 0.001327 0.001000 
-0.027948 -0.000963 0.066480 
-0.019572 -0.022218 0.072065 
0.005439 -0.026209 0.025480 
0.023703 -0.009719 0.053162 
-0.017599 -0.010103 0.001000 
-0.005736 -0.026152 0.026411 
0.002211 -0.027186 0.029096 
0.008058 -0.024344 0.036279 
-0.027162 0.008000 0.044174 
-0.021377 -0.008206 0.019168 
0.021586 -0.012930 0.041652 
-0.017952 -0.013983 0.009398 
-0.005343 0.027314 0.037045 
0.000088 -0.026739 0.021286 
-0.002614 0.024430 0.036450 
0.023212 -0.008688 0.043163 
-0.005160 0.022537 0.000000 
-0.004957 -0.025826 0.020825 
0.017908 0.015544 0.000000 
0.013106 -0.020559 0.040167 
-0.011785 -0.023720 0.022362 
0.024038 0.010086 0.016315 
0.003388 0.021895 0.001000 
0.018628 0.021400 0.047384 
-0.013811 -0.018864 0.027529 
0.009593 0.022150 0.023350 
-0.022407 0.017494 0.045917 
-0.009850 0.025463 0.065490 
0.016338 -0.015143 0.008853 
-0.028955 0.004836 0.062883 
-0.028899 -0.001508 0.058241 
-0.001855 0.022085 0.001272 
-0.020034 -0.014722 0.031444 
0.029206 -0.000000 0.057629 
-0.026437 0.013256 0.071965 
0.004539 -0.023828 0.027415 
-0.018322 0.012987 0.003708 
-0.008837 0.023680 0.035971 
0.004363 -0.029298 0.068054 
0.013632 -0.017365 0.008940 
-0.018722 0.011182 0.000291 
-0.024882 0.008718 0.017975 
-0.021469 0.007193 0.000000 
-0.025192 0.002228 0.038107 
0.015424 0.018031 0.027101 
0.002048 -0.020125 0.000000 
-0.003160 0.026024 0.017618 
0.009300 -0.023364 0.036673 
0.007608 -0.023326 0.005470 
-0.007943 0.023294 0.023341 
-0.024025 -0.009661 0.015252 
0.016097 0.021105 0.018615 
0.028107 0.006016 0.049998 
-0.008216 -0.024769 0.023234 
0.013233 -0.026219 0.064650 
0.027213 -0.010836 0.059251 
-0.009049 0.028812 0.072828 
0.012886 -0.021101 0.044065 
0.009316 0.026784 0.045170 
0.022163 -0.008536 0.030260 
0.021497 0.015798 0.047351 
-0.003175 -0.027135 0.029262 
0.020277 0.020805 0.062150 
-0.027544 -0.003984 0.074416 
0.012817 0.026397 0.065747 
-0.023785 0.001257 0.015858 
0.022384 -0.019362 0.071437 
0.028670 0.000888 0.046258 
0.021758 -0.012026 0.004628 
-0.023427 0.009903 0.050690 
0.013639 0.020830 0.041677 
-0.006911 -0.007858 0.001000 
0.024862 -0.006686 0.054205 
0.015672 -0.021569 0.068406 
-0.028466 0.001294 0.044740 
-0.015852 -0.020816 0.062229 
-0.020548 -0.011778 0.024755 
-0.007474 0.024414 0.011869 
-0.008301 0.026786 0.071790 
-0.016887 -0.014103 0.002178 
-0.015778 -0.017628 0.030118 
0.023972 0.017359 0.067354 
0.006093 0.005643 0.001000 
-0.027340 -0.007523 0.045329 
0.008701 0.026158 0.055697 
-0.027931 -0.010117 0.065921 
-0.024895 -0.001144 0.029190 
0.014692 0.008043 0.001000 
-0.021745 -0.016035 0.035538 
-0.023986 0.003028 0.000790 
-0.015830 -0.021889 0.022906 
-0.025525 0.003284 0.013957 
0.028251 -0.006227 0.056152 
-0.000171 -0.029807 0.071198 
-0.014871 0.017325 0.019942 
-0.015512 0.022810 0.033305 
0.019804 0.008644 0.001608 
0.022979 0.017896 0.059248 
-0.003100 0.011595 0.001000 
0.005164 -0.022393 0.005899 
0.004359 0.025636 0.054539 
0.010521 -0.023834 0.016084 
0.004259 -0.024921 0.043816 
-0.008755 0.017385 0.000000 
0.022085 -0.014206 0.016342 
-0.005733 0.027923 0.045310 
0.025360 -0.005972 0.017211 
-0.027793 -0.009937 0.062478 
-0.017350 0.017958 0.005886 
0.021215 0.004962 0.000000 
-0.011885 -0.019292 0.014563 
-0.022388 -0.018189 0.055077 
-0.012724 0.018053 0.008325 
0.014871 0.009426 0.000000 
0.011139 -0.026518 0.050234 
0.019208 -0.014409 0.022508 
-0.025393 -0.008284 0.021282 
-0.001330 -0.029079 0.061630 
-0.022258 0.013552 0.052079 
-0.014524 -0.015652 0.000000 
0.016492 -0.020915 0.067740 
-0.024008 -0.013656 0.072987 
0.025641 0.008929 0.072568 
0.023647 0.001072 0.013238 
0.024320 -0.012158 0.026009 
-0.005156 -0.027241 0.038656 
-0.016741 -0.018838 0.048923 
-0.006081 0.028001 0.047392 
0.024594 -0.012322 0.074335 
-0.025557 -0.014724 0.064464 
0.021606 0.007722 0.019700 
0.015588 0.021788 0.069100 
-0.016064 -0.025264 0.074552 
-0.007311 0.017632 0.001000 
-0.025430 -0.015519 0.071240 
0.023551 0.007354 0.041623 
-0.011267 0.018760 0.002838 
0.010964 -0.027011 0.056322 
0.027865 0.001295 0.034513 
-0.010641 -0.024924 0.066048 
0.027442 0.000920 0.059950 
-0.019700 -0.009090 0.002445 
0.009539 -0.028155 0.065690 
0.004132 0.025418 0.051272 
0.019728 -0.009146 0.003067 
-0.028436 0.008216 0.063446 
-0.018898 0.011343 0.001000 
-0.011930 0.025046 0.033795 
0.000578 0.029569 0.068962 
0.006683 0.026961 0.074414 
0.022513 0.012821 0.012777 
0.020123 -0.019492 0.042763 
0.011497 0.021770 0.034799 
0.026724 -0.008056 0.037249 
0.027336 -0.011100 0.067622 
0.022417 0.016603 0.066894 
-0.011909 -0.024918 0.074956 
0.020338 0.014870 0.031385 
0.016791 0.022615 0.040460 
0.024200 -0.017243 0.069883 
-0.010524 -0.024921 0.065182 
0.025643 -0.009589 0.027851 
0.022936 0.016949 0.061783 
-0.008136 0.024697 0.026209 
-0.009622 -0.000195 0.001000 
0.026372 -0.001822 0.019979 
-0.015823 -0.024096 0.052238 
0.019503 0.016346 0.008322 
0.002208 -0.024238 0.002145 
0.022974 0.004251 0.020108 
-0.010397 -0.022781 0.040232 
-0.020606 -0.021014 0.069673 
0.023836 0.008145 0.048215 
-0.014612 -0.022412 0.024195 
0.028271 -0.007103 0.064793 
-0.004263 0.026286 0.022654 
-0.003307 0.028799 0.059618 
-0.025170 0.014741 0.058157 
-0.014625 0.012415 0.001000 
0.019152 -0.014028 0.009261 
0.006340 0.028144 0.051034 
0.021645 0.015916 0.035162 
0.003336 0.028245 0.050430 
0.016916 0.023700 0.057812 
0.024021 -0.003749 0.003562 
-0.003896 -0.008063 0.001000 
-0.024838 -0.008844 0.062826 
-0.024962 0.014702 0.054227 
-0.016054 -0.016463 0.020532 
-0.000821 0.018737 0.001000 
-0.021419 0.006419 0.011097 
0.021231 -0.020412 0.069993 
-0.008319 -0.025297 0.032125 
0.022589 -0.016109 0.034441 
-0.026666 -0.000000 0.026400 
0.024819 0.010578 0.069769 
-0.011205 0.021199 0.000000 
-0.006785 0.023876 0.028133 
-0.009185 -0.021895 0.019022 
0.026086 -0.000000 0.033975 
0.020763 0.010001 0.019937 
0.009692 -0.021138 0.015159 
0.006759 -0.026077 0.061155 
0.019631 0.014380 0.011798 
0.018742 0.016702 0.039944 
0.023180 -0.002662 0.015051 
-0.014473 0.016461 0.006506 
-0.026488 0.011643 0.057316 
-0.027561 -0.000653 0.031175 
-0.017931 0.021321 0.038775 
0.018641 0.016275 0.035220 
0.023007 0.016032 0.038573 
0.013587 -0.004262 0.001000 
-0.010761 -0.023658 0.016566 
-0.029211 0.004262 0.064687 
0.013138 0.017298 0.002962 
-0.021973 -0.016030 0.046210 
-0.010601 -0.021456 0.027144 
0.004623 -0.008903 0.001000 
0.005443 -0.013286 0.001000 
0.024496 0.007746 0.012292 
0.012440 0.021372 0.038009 
-0.008016 0.028242 0.059792 
0.009445 0.026789 0.045970 
-0.023528 -0.008981 0.048071 
-0.008144 0.023952 0.032637 
0.021710 0.015710 0.028084 
-0.018472 0.019926 0.029378 
0.020109 -0.016971 0.054260 
0.012076 0.003641 0.000000 
-0.026195 0.007550 0.073359 
0.018427 -0.020068 0.030446 
0.023266 -0.006287 0.033553 
-0.009047 0.022679 0.026599 
-0.022564 0.004673 0.017016 
0.027254 0.007277 0.041723 
-0.007971 -0.010261 0.000000 
-0.015378 0.023718 0.043002 
-0.020016 0.011881 0.018960 
-0.022933 0.014653 0.029569 
-0.024957 0.012779 0.037729 
-0.021923 0.003151 0.000000 
-0.018927 -0.020795 0.043938 
-0.008614 0.002085 0.000000 
-0.002917 -0.029339 0.065739 
0.003853 -0.029005 0.061069 
-0.009710 -0.022097 0.000608 
-0.014773 0.021733 0.063668 
0.017297 -0.018518 0.008168 
0.019484 0.014027 0.007876 
-0.007076 -0.019700 0.000000 
0.024164 0.017740 0.074838 
-0.016987 -0.014709 0.009765 
-0.022310 0.014049 0.019561 
0.028843 -0.000000 0.053860 
-0.005297 0.023866 0.027992 
0.025576 0.014461 0.062044 
0.003329 0.023391 0.020865 
-0.020838 -0.015439 0.029976 
-0.025632 -0.011804 0.040158 
-0.020921 0.016746 0.022335 
-0.014718 -0.018871 0.034933 
0.003014 -0.026363 0.065451 
-0.022654 0.014753 0.061678 
-0.027873 0.003767 0.045603 
0.025683 -0.000873 0.037735 
0.023374 0.007018 0.038167 
-0.002767 -0.004799 0.001000 
-0.002729 0.024958 0.008619 
-0.020199 -0.009581 0.011057 
0.019591 0.020539 0.075000 
0.005638 -0.003481 0.000000 
-0.021919 0.014329 0.051324 
0.005505 0.024162 0.032430 
0.017383 -0.018961 0.011753 
-0.001843 -0.029992 0.074892 
-0.008146 0.021186 0.001395 
0.009000 -0.027193 0.056554 
-0.018568 -0.019665 0.070040 
-0.008163 -0.024499 0.020403 
-0.010260 0.025542 0.069471 
0.023076 0.000486 0.001000 
-0.025712 -0.006110 0.020396 
0.018199 -0.020903 0.037121 
-0.002825 -0.026763 0.071451 
0.026250 -0.012218 0.057069 
-0.028223 -0.005001 0.050120 
0.003704 -0.026960 0.029294 
0.015275 0.021917 0.021103 
-0.023073 0.013307 0.026655 
-0.022231 0.014703 0.021772 
-0.006566 0.028437 0.059237 
0.016797 0.020580 0.065075 
0.006856 0.025580 0.053693 
-0.021009 -0.012226 0.032000 
-0.025173 -0.000000 0.026660 
-0.003696 0.013596 0.000000 
0.022052 -0.016052 0.040481 
0.016399 0.016875 0.023774 
-0.028847 0.007891 0.070712 
-0.010863 0.025782 0.037159 
0.023152 -0.018242 0.066505 
0.022917 0.014681 0.027838 
0.022393 0.001041 0.001000 
-0.023955 0.005551 0.038625 
-0.005213 0.025784 0.021175 
-0.000443 -0.029955 0.074376 
0.009793 0.022827 0.006821 
-0.007014 -0.023150 0.001353 
0.002898 -0.024143 0.032148 
0.028248 0.006700 0.053938 
-0.014214 -0.023584 0.075000 
0.000556 -0.026179 0.014828 
-0.023208 0.017208 0.055065 
-0.027850 -0.004292 0.043707 
-0.009026 0.026486 0.069428 
-0.012118 -0.018482 0.007569 
-0.015801 0.015455 0.007416 
0.008711 -0.026354 0.063498 
0.021158 0.010137 0.025118 
0.017196 0.016427 0.025668 
0.025532 0.001629 0.039485 
0.022800 -0.008967 0.039495 
0.022859 -0.006942 0.031605 
-0.011874 -0.020134 0.023978 
0.022341 0.013037 0.012515 
0.025016 -0.007877 0.060921 
-0.000770 0.005446 0.000000 
0.026886 0.009707 0.050397 
-0.002242 0.021717 0.000000 
-0.005743 -0.026395 0.065924 
0.011562 0.024608 0.026869 
-0.028989 -0.006781 0.074694 
-0.025051 0.011038 0.074376 
-0.017730 -0.010306 0.000000 
-0.011653 0.020623 0.027465 
0.001738 -0.023724 0.025854 
-0.019327 0.010626 0.005173 
0.019794 -0.016853 0.050860 
-0.022140 0.008890 0.031460 
0.027280 -0.005116 0.039078 
0.016617 -0.003498 0.001000 
0.018730 0.017265 0.045066 
-0.018333 0.013904 0.011311 
-0.023885 0.004597 0.033161 
0.009564 0.022895 0.006745 
0.020383 -0.018259 0.068951 
0.011740 -0.024794 0.028795 
-0.000559 -0.024154 0.001383 
0.024514 -0.005237 0.044106 
-0.025862 -0.004800 0.018543 
-0.012126 0.023514 0.017940 
-0.007359 -0.024424 0.011528 
-0.010487 -0.026705 0.052619 
0.004095 0.024338 0.035067 
0.011626 0.019905 0.015663 
0.013269 0.021470 0.046050 
0.020122 0.011615 0.019107 
-0.025337 0.005273 0.014394 
-0.010350 0.026226 0.041649 
0.021586 -0.015674 0.024956 
0.023859 0.001212 0.016563 
-0.009737 -0.021534 0.020049 
0.002449 0.002722 0.001000 
0.020576 0.000708 0.001000 
-0.024419 -0.000000 0.016262 
-0.025071 -0.015294 0.062691 
0.005166 0.025527 0.017434 
-0.021548 -0.015472 0.017357 
-0.010938 -0.020232 0.016430 
-0.013677 0.023634 0.030195 
-0.000537 -0.029641 0.069964 
-0.022823 -0.001214 0.003627 
-0.004206 0.027515 0.036329 
-0.013561 -0.020733 0.005448 
0.016565 -0.014195 0.000234 
-0.002538 -0.023409 0.021131 
0.000093 0.023967 0.029502 
0.008034 0.024153 0.011221 
-0.013125 0.020247 0.036817 
0.012011 0.026247 0.054017 
0.028683 -0.000000 0.056643 
-0.010634 0.006237 0.000000 
-0.015326 -0.024939 0.060829 
0.019695 -0.009023 0.002070 
-0.015523 0.025281 0.068785 
0.016462 0.016617 0.021862 
-0.005564 0.024335 0.035031 
-0.021082 -0.008729 0.001000 
-0.010166 0.023402 0.045117 
-0.022793 -0.013589 0.020380 
-0.022798 -0.000987 0.000000 
-0.003356 0.005440 0.001000 
-0.017637 0.020689 0.073594 
-0.013426 0.021231 0.005665 
0.008110 0.025285 0.020823 
0.002990 0.029026 0.061359 
0.022482 -0.009768 0.003299 
0.005450 -0.028814 0.064668 
-0.008020 0.025672 0.055078 
0.009146 -0.024306 0.016005 
-0.010184 -0.004718 0.000000 
-0.021418 0.009420 0.025208 
0.016246 -0.025120 0.074173 
-0.017620 -0.002724 0.000000 
0.000609 -0.026734 0.022876 
0.028802 0.007505 0.069448 
0.022819 0.016121 0.069247 
0.024434 -0.001801 0.026585 
0.019257 -0.014049 0.001866 
-0.018334 0.019806 0.026540 
0.003259 0.027235 0.030171 
0.015907 0.002481 0.000000 
0.015863 -0.020834 0.014578 
-0.006857 -0.000060 0.000000 
-0.020419 -0.018527 0.071869 
0.007979 -0.021951 0.008495 
-0.015702 -0.012484 0.000000 
0.004532 -0.004539 0.000000 
0.021032 -0.013106 0.035906 
0.021831 -0.019403 0.064275 
-0.019402 -0.013381 0.017971 
0.004291 -0.024794 0.041903 
-0.004288 -0.025171 0.011738 
0.023862 0.015460 0.044832 
0.000679 0.025595 0.053921 
0.017444 0.020255 0.066672 
0.025150 0.015448 0.065737 
-0.004858 0.024471 0.037072 
0.001081 -0.026673 0.070092 
0.017145 0.020704 0.023794 
0.003335 0.027245 0.030380 
0.021158 0.010217 0.025454 
-0.017722 0.021903 0.042869 
-0.022073 0.016258 0.043954 
0.008550 -0.025585 0.054846 
-0.018508 -0.013352 0.007399 
-0.018825 0.012119 0.006010 
-0.012632 -0.026759 0.074147 
0.014284 0.019499 0.032054 
-0.002182 0.029297 0.075000 
-0.013341 0.017118 0.003463 
-0.007847 -0.023750 0.010814 
0.016607 -0.019333 0.052880 
-0.015254 -0.015966 0.008131 
-0.007745 0.018689 0.001000 
-0.008555 0.024935 0.018702 
0.027016 0.002533 0.062254 
-0.011682 0.018861 0.007818 
0.014685 0.025915 0.070476 
0.011031 -0.017127 0.001000 
-0.001795 -0.029094 0.062318 
0.014855 0.020756 0.050947 
-0.003157 -0.025734 0.056017 
0.026168 -0.002675 0.018340 
-0.010827 0.027521 0.071344 
-0.011700 0.026915 0.069821 
-0.016441 -0.014753 0.005394 
0.022054 0.006883 0.021266 
-0.017042 -0.017259 0.035413 
0.021355 -0.005823 0.001000 
0.027892 -0.000458 0.063356 
-0.026596 -0.001589 0.021771 
-0.022081 -0.016266 0.039260 
-0.013307 0.017897 0.011949 
-0.009200 0.002412 0.000000 
0.009824 -0.011935 0.001000 
0.010431 0.026574 0.048443 
-0.007668 0.023989 0.025037 
0.004374 0.022715 0.001000 
-0.015168 -0.018305 0.032515 
0.022974 0.018435 0.066722 
-0.015886 0.020105 0.055416 
-0.004836 -0.026615 0.069231 
0.000461 0.028889 0.059443 
0.021929 0.003400 0.002959 
-0.007894 -0.024234 0.022767 
0.005503 0.026935 0.074018 
-0.008993 0.026993 0.053195 
-0.025641 -0.006069 0.060760 
-0.028113 -0.007940 0.057638 
0.026990 -0.004559 0.070304 
-0.012146 0.002899 0.000000 
-0.019468 0.022293 0.071667 
-0.017939 -0.015708 0.001000 
0.012981 -0.023918 0.072641 
-0.005284 -0.023191 0.017862 
-0.026083 -0.005582 0.024320 
0.022640 0.007967 0.000000 
0.022557 -0.016299 0.035363 
-0.024147 -0.016778 0.075000 
0.022313 -0.016342 0.054919 
-0.000197 -0.022985 0.014775 
-0.006428 -0.026494 0.067409 
-0.023355 -0.008669 0.044755 
0.020393 -0.014811 0.026605 
-0.018431 0.020233 0.032311 
-0.009527 0.024925 0.056424 
-0.004061 -0.026856 0.029603 
0.000269 0.028725 0.057156 
0.008366 0.019710 0.001000 
0.028619 0.006421 0.064341 
-0.022649 0.014927 0.062336 
0.016905 -0.022673 0.042353 
0.023340 0.017340 0.074287 
0.021113 0.011040 0.028316 
-0.026515 0.003208 0.059178 
-0.012676 0.025079 0.040585 
0.000735 0.029654 0.070155 
0.013701 -0.015540 0.000000 
-0.015874 -0.021612 0.020891 
-0.010934 -0.022206 0.038709 
-0.019178 -0.014684 0.025020 
-0.023850 0.015806 0.047905 
-0.007428 0.028336 0.058377 
-0.016981 0.001807 0.001000 
0.023694 -0.006050 0.037759 
0.013366 0.024962 0.043877 
-0.020377 0.014683 0.034747 
0.020766 -0.015005 0.022787 
0.028285 -0.001920 0.045357 
-0.001496 0.024856 0.042839 
0.024780 -0.001435 0.007016 
0.026671 0.003138 0.022370 
-0.006587 -0.009567 0.001000 
0.009106 0.022678 0.025458 
0.004110 0.026954 0.074303 
0.018824 -0.017848 0.014376 
-0.017851 0.018098 0.008767 
0.023251 0.004898 0.026689 
0.026023 -0.005264 0.061906 
-0.027524 -0.003242 0.036536 
-0.026192 0.014333 0.074368 
0.011546 -0.025289 0.033617 
0.013067 0.026372 0.067387 
0.020028 -0.009637 0.009186 
0.021546 -0.015185 0.015813 
-0.025510 -0.000000 0.030788 
0.001524 0.026617 0.021936 
0.018955 0.020346 0.039307 
0.000764 -0.025505 0.052572 
0.014212 -0.020228 0.044798 
0.019353 -0.011695 0.010442 
-0.020866 0.005061 0.000000 
0.019116 -0.015813 0.035757 
0.024635 -0.012882 0.034787 
0.011906 -0.026094 0.047887 
0.017745 0.019827 0.064188 
-0.020001 -0.009210 0.000000 
0.021227 0.020055 0.064940 
0.009106 -0.026135 0.033303 
0.022413 0.002856 0.006389 
-0.007073 -0.026145 0.028188 
0.020196 0.014649 0.006856 
0.011749 -0.020607 0.028166 
0.011499 0.019688 0.012686 
0.027196 -0.010646 0.057426 
-0.007702 -0.023754 0.018830 
0.026314 -0.011779 0.051677 
0.012523 0.023140 0.023203 
0.014418 0.025901 0.067732 
0.015779 0.024604 0.060266 
-0.020008 -0.014542 0.024296 
0.020113 0.014591 0.005071 
0.018164 -0.014324 0.014274 
0.020648 -0.014710 0.038030 
0.028093 -0.006715 0.056289 
-0.017304 -0.017074 0.001702 
0.013442 -0.025341 0.048156 
0.015474 -0.023348 0.039636 
0.006187 -0.028191 0.054094 
0.022478 0.018042 0.054289 
0.019418 -0.006580 0.001000 
-0.016735 -0.016212 0.000000 
0.009715 -0.018759 0.001000 
0.016760 0.024201 0.064483 
-0.028606 0.007026 0.063973 
0.014760 0.024237 0.043615 
0.004401 -0.023364 0.020454 
-0.015227 0.020833 0.009481 
-0.013045 0.021390 0.005476 
0.020514 0.014952 0.032396 
-0.020276 -0.017247 0.058172 
0.021056 0.015494 0.026397 
0.009510 0.027769 0.062524 
-0.003021 -0.028241 0.050472 
-0.026894 0.001836 0.057498 
0.021557 -0.006009 0.010851 
0.022747 0.010561 0.008410 
-0.004337 -0.022645 0.009678 
-0.024978 -0.015540 0.063866 
0.024412 -0.012601 0.073354 
0.024599 -0.011365 0.024057 
0.006949 -0.008007 0.000000 
-0.024982 -0.001558 0.032267 
-0.028190 0.001895 0.043083 
-0.001895 0.027269 0.030908 
0.013894 0.002006 0.001000 
-0.021363 -0.015363 0.017715 
0.022166 -0.016195 0.035680 
-0.005993 0.008241 0.000000 
0.019132 -0.013845 0.011473 
0.026467 -0.012388 0.065503 
-0.022865 0.010797 0.009892 
0.001267 -0.026144 0.018058 
-0.029540 -0.000000 0.072499 
-0.008375 0.021702 0.009339 
-0.026517 0.003817 0.061708 
-0.023712 0.015760 0.045489 
-0.024680 -0.007516 0.013154 
-0.020785 0.015299 0.036484 
-0.028287 -0.004089 0.051024 
-0.008720 -0.027555 0.053469 
0.008378 0.026019 0.041006 
-0.011621 -0.024881 0.030516 
0.019956 0.018694 0.032146 
-0.016838 0.005172 0.001000 
0.021247 0.020265 0.068166 
-0.007307 0.023324 0.011530 
0.006084 0.022490 0.007349 
0.024927 -0.013373 0.041595 
-0.009317 0.023305 0.008780 
0.005090 0.026289 0.064339 
-0.020810 -0.016085 0.050439 
-0.023126 -0.017126 0.055726 
-0.017217 0.014582 0.010131 
0.016415 0.019510 0.008666 
0.010345 0.022446 0.033073 
-0.017496 -0.023543 0.061672 
0.021021 0.013138 0.003538 
-0.017703 0.001045 0.001000 
0.003031 -0.022178 0.002676 
-0.028627 -0.000000 0.056771 
-0.019644 -0.013774 0.022425 
0.006165 0.025461 0.016380 
0.022489 -0.007813 0.031098 
0.028916 -0.002199 0.075000 
-0.012912 0.025910 0.053832 
-0.001099 0.025728 0.014824 
-0.022457 0.012869 0.014204 
0.018392 -0.013578 0.001000 
0.016656 0.018069 0.036791 
-0.002159 -0.027602 0.032085 
0.004641 -0.029257 0.069527 
0.004456 0.025597 0.017660 
0.020809 0.019451 0.050651 
0.021453 0.005994 0.000000 
0.002459 -0.001982 0.001000 
-0.007197 0.028469 0.060119 
0.029217 -0.000000 0.068262 
-0.000090 -0.023575 0.001000 
-0.008220 0.026029 0.034466 
-0.019371 0.002791 0.001000 
0.020815 -0.017544 0.028958 
-0.020633 0.016231 0.015916 
0.002059 -0.023621 0.024315 
0.009895 0.022319 0.002556 
-0.018618 0.013715 0.011451 
0.028139 0.004141 0.050884 
-0.021893 -0.015980 0.046283 
0.028652 -0.004841 0.064726 
-0.021426 0.017451 0.034643 
0.006476 0.025744 0.056153 
0.009622 0.021017 0.010770 
-0.023543 -0.012623 0.021402 
0.012747 0.022378 0.052294 
-0.008707 -0.026451 0.055638 
0.024986 -0.000000 0.020574 
0.026335 -0.001287 0.047871 
-0.011525 -0.021585 0.037156 
0.027075 -0.000000 0.027359 
0.021976 0.016089 0.059263 
0.018992 -0.013850 0.010633 
0.019787 -0.014597 0.010650 
-0.009180 0.021549 0.015058 
-0.026266 -0.010824 0.044922 
0.018623 -0.017682 0.011442 
0.019636 -0.018841 0.030253 
-0.008601 -0.025866 0.052255 
-0.001816 0.029035 0.061494 
0.007802 -0.024005 0.022827 
0.025490 0.011765 0.038197 
-0.001735 -0.022032 0.000487 
0.020911 -0.015420 0.024853 
-0.023457 -0.011598 0.015788 
0.006650 -0.025543 0.053141 
0.015621 -0.023930 0.047180 
-0.016918 -0.022446 0.040000 
-0.010439 0.024231 0.018447 
0.008722 -0.026639 0.061814 
-0.027363 -0.004975 0.036234 
0.014569 -0.024226 0.042659 
-0.015908 0.020274 0.010456 
-0.022061 -0.019641 0.070828 
-0.004567 -0.011116 0.000000 
0.017711 -0.019940 0.022203 
0.007174 -0.022458 0.001566 
0.002296 0.022791 0.011858 
-0.017550 -0.021190 0.075000 
0.008664 -0.025328 0.021906 
0.021555 -0.017815 0.072844 
-0.000103 -0.028742 0.044161 
0.019061 0.019423 0.070435 
0.029759 0.001856 0.068262 
-0.021389 -0.006804 0.012575 
-0.022093 0.007382 0.024153 
0.002496 -0.029870 0.073178 
-0.025366 0.012503 0.041387 
0.022861 -0.014524 0.063152 
-0.003066 -0.029138 0.063232 
-0.027507 0.001712 0.064576 
0.010887 0.024594 0.022232 
-0.018568 -0.019339 0.066811 
-0.015590 -0.013835 0.001000 
0.007353 0.024490 0.011195 
-0.024960 -0.000785 0.028272 
0.020085 -0.014451 0.011758 
-0.010190 0.021480 0.023625 
0.017367 0.022665 0.047449 
0.020328 -0.019398 0.043987 
0.007630 0.023969 0.023619 
-0.023674 0.005491 0.034826 
0.023420 0.017420 0.061290 
0.004144 -0.026018 0.060275 
0.021723 0.006319 0.014411 
-0.020755 0.018045 0.069461 
-0.019395 -0.010200 0.003979 
-0.023319 0.007100 0.002874 
-0.024872 0.014789 0.053681 
0.015530 0.021866 0.069515 
0.012523 0.004507 0.001000 
0.021551 0.011209 0.000933 
-0.007730 0.026965 0.039435 
-0.009283 -0.027785 0.060632 
0.017356 -0.018398 0.048909 
0.024931 0.007826 0.059713 
0.020147 -0.015691 0.041850 
-0.023099 0.007119 0.035361 
0.022517 -0.016167 0.033804 
0.028070 -0.000000 0.060409 
0.006860 -0.017607 0.000000 
-0.021618 -0.000544 0.000000 
0.020425 0.014972 0.013947 
0.027046 0.004243 0.069666 
0.007860 -0.008232 0.000000 
-0.020269 -0.013943 0.030427 
0.009325 -0.012818 0.000000 
-0.006050 0.024880 0.011762 
0.025830 0.007396 0.022275 
-0.023540 -0.009311 0.049573 
0.018687 0.011646 0.002082 
-0.014829 0.017259 0.018804 
0.011164 -0.024750 0.024157 
-0.021516 0.014183 0.046013 
0.024507 0.011883 0.071503 
0.001194 0.027919 0.045217 
-0.020295 -0.013384 0.003059 
0.003604 0.028293 0.051096 
-0.003438 -0.026082 0.018822 
-0.026985 0.002615 0.062231 
-0.022124 0.016299 0.050642 
-0.006806 -0.026872 0.073075 
0.005830 0.029028 0.074186 
0.007829 -0.023820 0.007457 
-0.024856 0.015139 0.057336 
0.021705 -0.005272 0.009161 
-0.028210 0.005035 0.049936 
0.013413 -0.022916 0.065767 
-0.009154 0.024416 0.047221 
0.014966 -0.022039 0.019906 
-0.020132 -0.021470 0.069431 
-0.009602 -0.024244 0.049415 
-0.015374 -0.024056 0.046639 
-0.015902 0.019436 0.048911 
0.022995 0.016996 0.053291 
0.011724 -0.012594 0.000000 
0.022555 0.015485 0.063545 
0.004800 -0.026855 0.072827 
0.022779 0.018577 0.065982 
0.022644 -0.016677 0.066232 
-0.022206 0.016271 0.037798 
-0.021363 -0.016905 0.062475 
0.000203 -0.006631 0.001000 
0.020568 0.014957 0.029729 
0.028236 -0.003821 0.053614 
0.005716 -0.024272 0.034076 
0.003872 0.022139 0.002079 
-0.008824 -0.026504 0.063404 
0.003362 -0.025463 0.012708 
0.008221 -0.002225 0.001000 
-0.001927 -0.023619 0.001000 
0.003754 0.023796 0.026947 
0.028695 0.004400 0.063260 
-0.010495 0.021904 0.031232 
0.017051 0.016678 0.001000 
0.010391 -0.021804 0.000345 
-0.022499 -0.005651 0.020906 
0.028826 -0.008118 0.072559 
-0.013347 0.017986 0.013326 
0.012777 -0.019482 0.024961 
-0.011512 -0.022978 0.052770 
-0.018084 0.021103 0.038053 
0.022296 -0.016486 0.060751 
0.023331 -0.012272 0.059348 
-0.014152 0.026264 0.074467 
-0.025765 0.008585 0.024678 
0.023771 -0.012660 0.066095 
0.008517 0.025621 0.047078 
0.003424 -0.027662 0.042664 
-0.025730 -0.000138 0.034792 
-0.022737 0.003409 0.013101 
-0.009185 -0.027356 0.053715 
-0.023906 -0.017055 0.062839 
0.025382 -0.005138 0.014133 
-0.017610 0.022814 0.052930 
-0.026819 0.000324 0.023550 
-0.023080 0.003520 0.017926 
0.023183 0.017183 0.069405 
0.027278 0.001874 0.062488 
0.009159 0.023039 0.030113 
0.007443 0.024490 0.037356 
0.001109 0.026937 0.024495 
-0.018795 0.014007 0.000000 
0.024182 -0.013768 0.036303 
-0.009528 0.021685 0.019818 
-0.006843 0.022235 0.000000 
-0.013320 0.020249 0.001706 
-0.016772 0.014746 0.008376 
0.004220 0.025088 0.046326 
-0.004742 0.022473 0.007094 
0.007339 0.028292 0.057345 
0.025543 -0.004133 0.051625 
-0.029118 0.003336 0.062650 
-0.001714 0.022304 0.004553 
0.015185 -0.024555 0.052783 
-0.024588 0.003047 0.034503 
-0.025771 -0.009837 0.031329 
0.002441 0.025283 0.011261 
0.003706 0.026024 0.060357 
-0.019803 -0.014824 0.004375 
0.029427 0.003717 0.075000 
0.022823 0.011895 0.012120 
0.019185 0.016158 0.038262 
0.021312 0.015323 0.020302 
-0.014442 -0.026150 0.073988 
0.009311 0.002362 0.001000 
0.018470 -0.017280 0.007875 
0.021114 -0.015479 0.024294 
0.018145 0.020340 0.073512 
-0.002848 0.023974 0.029606 
-0.021181 0.018071 0.038780 
0.013263 0.023194 0.027653 
-0.027783 -0.003788 0.042216 
0.007281 0.023430 0.021456 
0.015745 0.002256 0.000000 
0.003252 -0.027562 0.039214 
-0.020908 0.020815 0.071129 
0.013129 -0.019456 0.027923 
-0.008439 -0.025534 0.022811 
0.017572 0.021826 0.040374 
0.004999 0.028709 0.057523 
0.023045 -0.017045 0.068747 
0.025681 0.013905 0.058829 
0.007697 -0.026966 0.041843 
0.018152 0.018524 0.014407 
-0.020324 0.016406 0.050188 
-0.008545 0.024227 0.012998 
-0.020125 0.014741 0.028859 
0.017661 -0.020772 0.029759 
-0.002805 -0.028912 0.059772 
-0.011299 -0.022394 0.044202 
0.011887 -0.003583 0.000000 
0.017594 0.023519 0.062582 
-0.011429 0.019266 0.010055 
0.007164 -0.024992 0.044875 
0.026750 0.003542 0.024174 
-0.008626 0.026097 0.060978 
0.026132 -0.008959 0.032456 
0.023023 0.015349 0.032775 
-0.015551 -0.016598 0.018013 
-0.023044 0.003557 0.017652 
-0.002565 -0.024537 0.004835 
0.021705 -0.007281 0.001000 
0.006937 0.026285 0.064276 
0.004699 0.018341 0.000000 
-0.018032 -0.021850 0.045699 
-0.005039 -0.026726 0.032988 
0.002800 0.027539 0.036861 
0.004066 -0.005982 0.001000 
-0.020484 -0.016603 0.053261 
-0.011741 0.002455 0.000000 
0.009159 -0.025527 0.024406 
0.002762 -0.027882 0.044400 
-0.024559 0.009162 0.016573 
-0.006324 0.024447 0.036710 
-0.014193 -0.001848 0.001000 
0.014530 0.023869 0.037999 
0.022335 0.016335 0.032558 
0.000366 0.001636 0.001000 
-0.007845 -0.021766 0.005170 
-0.021525 0.015820 0.050561 
0.008376 -0.024802 0.016917 
-0.022110 0.013938 0.015761 
0.025268 0.004209 0.048584 
0.022108 -0.010308 0.036937 
0.005659 0.025964 0.023807 
0.016681 -0.021491 0.026893 
0.000529 0.029573 0.069019 
-0.008344 -0.025478 0.052166 
0.021806 -0.018532 0.075000 
-0.008891 -0.027008 0.067816 
-0.012280 0.021146 0.039167 
-0.004703 0.025715 0.019263 
-0.022061 -0.017714 0.044522 
-0.021504 -0.014663 0.047847 
-0.007173 -0.001240 0.001000 
-0.024435 -0.009325 0.060095 
0.022560 0.018937 0.067950 
0.021126 0.008976 0.019731 
0.011426 0.012762 0.000000 
-0.010795 0.009137 0.001000 
0.022749 0.007753 0.000593 
-0.022934 0.011641 0.012298 
-0.025700 0.002898 0.047686 
0.021897 -0.013060 0.008558 
0.024250 0.009125 0.015500 
0.022038 0.016698 0.033101 
-0.020812 -0.019403 0.075000 
-0.019895 0.018865 0.071503 
0.009477 -0.020293 0.003616 
-0.008172 -0.024929 0.043892 
-0.010839 -0.023746 0.055231 
-0.010821 -0.015126 0.000000 
0.021869 0.020047 0.073823 
-0.028820 0.005470 0.065014 
0.021296 0.013882 0.042200 
-0.001173 0.026716 0.022730 
0.024212 -0.007575 0.050266 
-0.017255 0.017711 0.041390 
-0.008978 -0.028826 0.072646 
-0.003249 -0.023875 0.000916 
-0.025476 0.003677 0.014613 
0.027942 -0.000000 0.050192 
-0.020548 0.002959 0.001000 
0.012401 -0.014703 0.000000 
0.017639 -0.015754 0.024733 
0.026335 -0.000000 0.031974 
0.009244 -0.027992 0.062033 
0.021070 -0.015411 0.041989 
0.023112 -0.006853 0.034351 
-0.008796 0.022942 0.027258 
-0.020219 -0.012040 0.021995 
0.008732 0.021755 0.011569 
-0.022338 -0.002960 0.005955 
0.011289 0.011001 0.001000 
0.011884 0.021933 0.006034 
-0.024058 -0.010172 0.016651 
0.026774 0.012316 0.071626 
-0.023767 -0.008376 0.008730 
-0.018968 -0.007075 0.001000 
0.018325 -0.017096 0.006393 
-0.005441 0.028399 0.058163 
0.016646 0.023716 0.055055 
0.018029 0.013622 0.001000 
0.004386 -0.003726 0.000000 
-0.026256 -0.002959 0.054921 
0.022104 0.017773 0.045647 
-0.018918 0.019166 0.067578 
-0.017243 -0.007441 0.000000 
0.005762 0.023880 0.028199 
0.027597 0.009887 0.063636 
0.024413 -0.012225 0.027525 
-0.019793 -0.019224 0.074338 
-0.015540 -0.018848 0.003710 
-0.008706 -0.026265 0.040461 
0.018066 -0.021767 0.045162 
-0.028207 0.009796 0.075000 
0.019110 -0.022783 0.073501 
0.018793 0.016413 0.037652 
0.021677 0.015942 0.043295 
-0.009884 0.008115 0.001000 
0.005166 -0.024763 0.041440 
-0.006930 0.007973 0.001000 
-0.018906 -0.015172 0.027924 
0.021203 0.005196 0.002523 
-0.024758 -0.000809 0.025870 
-0.026450 0.007687 0.030706 
-0.003768 -0.024156 0.032335 
0.006273 -0.024009 0.005176 
-0.004045 -0.024767 0.041504 
-0.014292 0.019017 0.033360 
-0.008533 0.023878 0.035402 
0.018134 0.019562 0.064340 
0.027795 -0.009830 0.062005 
-0.007659 0.025023 0.045347 
-0.025758 -0.005358 0.019524 
0.003055 0.025607 0.054098 
0.025279 -0.002341 0.039737 
0.013834 -0.025342 0.051847 
-0.020781 0.021214 0.074927 
0.018964 -0.006558 0.001000 
0.026588 -0.005554 0.031468 
-0.013655 -0.019105 0.028821 
-0.022991 -0.015364 0.032489 
-0.011157 0.020038 0.016266 
-0.013436 -0.017130 0.004475 
0.024316 0.013971 0.039321 
0.000255 0.023678 0.025167 
-0.021798 0.003249 0.000593 
0.015262 0.018369 0.000981 
0.023473 -0.001781 0.014475 
-0.000912 0.023261 0.000000 
0.022449 -0.010576 0.005771 
-0.000932 0.013417 0.000000 
0.028351 -0.001360 0.042695 
-0.025422 -0.012531 0.042418 
-0.028909 -0.008427 0.072463 
-0.001414 -0.027066 0.025725 
-0.024096 -0.012326 0.024810 
0.020138 0.014616 0.006490 
-0.009243 -0.022364 0.024846 
-0.027718 -0.004217 0.040794 
0.022899 0.008041 0.036829 
0.022544 0.001948 0.000000 
0.011392 -0.022306 0.044073 
0.016694 -0.007292 0.000000 
-0.014121 0.024880 0.046563 
-0.026297 0.005424 0.027322 
-0.008525 0.005520 0.000000 
-0.010887 -0.022166 0.037818 
0.003516 0.028058 0.047813 
-0.023895 -0.003160 0.026376 
-0.021566 0.010592 0.000000 
0.007114 0.022977 0.014657 
-0.027318 -0.003018 0.067783 
0.015948 0.015596 0.008501 
0.006394 0.028606 0.063969 
-0.011859 -0.013925 0.000000 
-0.025401 0.005379 0.015414 
-0.007067 -0.028388 0.057867 
0.012871 -0.017570 0.004225 
0.029108 -0.000000 0.069070 
-0.021255 0.007034 0.012009 
-0.000565 -0.022707 0.010606 
-0.029652 -0.000875 0.070127 
-0.012017 -0.022157 0.048161 
-0.017224 0.007224 0.000000 
0.015498 -0.000292 0.001000 
-0.004971 -0.025442 0.051637 
-0.014583 0.017667 0.021155 
0.016322 -0.008862 0.001000 
-0.014727 -0.017792 0.023895 
-0.014259 -0.017591 0.017302 
-0.012666 0.018724 0.015376 
0.023673 0.015608 0.043633 
0.016236 -0.024228 0.075000 
0.016715 0.012445 0.001000 
0.027585 0.002260 0.067784 
0.027307 -0.001621 0.028378 
0.022655 0.005431 0.021799 
-0.008957 0.026957 0.046808 
0.008728 -0.026320 0.062074 
-0.026086 -0.000000 0.022725 
0.019537 -0.017993 0.021239 
-0.019491 -0.018593 0.025929 
0.015307 0.006143 0.001000 
0.011644 0.020423 0.020596 
-0.026522 -0.011093 0.050078 
-0.013277 0.022173 0.012327 
-0.026887 -0.003717 0.065633 
0.016343 0.018488 0.038308 
-0.022985 -0.010450 0.047780 
0.026479 0.003658 0.060611 
0.027916 0.009715 0.066494 
-0.021257 -0.009920 0.025382 
0.007636 0.019583 0.000000 
0.013970 -0.022790 0.068460 
-0.001660 0.028493 0.053902 
0.021897 0.008791 0.028205 
-0.005704 0.028360 0.057080 
-0.015711 0.019262 0.005918 
-0.014356 0.018921 0.032865 
0.000674 0.024537 0.038053 
0.024231 0.008717 0.055201 
0.003460 0.003240 0.000000 
0.023072 -0.010916 0.050720 
0.013013 0.001111 0.000000 
-0.008838 0.027440 0.052401 
0.009799 -0.016419 0.000000 
0.019115 -0.010121 0.000097 
0.015799 -0.001289 0.000000 
0.024438 -0.014755 0.046355 
-0.022977 0.017511 0.053832 
-0.018033 0.019321 0.062843 
-0.008884 0.026884 0.067289 
-0.011106 -0.008773 0.001000 
-0.023115 0.012369 0.016739 
-0.012356 -0.021438 0.043179 
0.003532 -0.026053 0.060800 
0.001774 -0.028773 0.057202 
-0.018219 0.019553 0.023178 
-0.000919 0.015121 0.000000 
0.003818 0.004005 0.000000 
-0.023226 -0.011259 0.053948 
-0.001363 -0.024584 0.038753 
0.001320 -0.027574 0.036152 
0.008537 -0.026334 0.065007 
0.012175 0.023452 0.060067 
-0.019712 -0.016553 0.011119 
-0.024751 -0.009536 0.064670 
-0.023466 -0.006862 0.002837 
0.001711 0.022707 0.010599 
0.026475 -0.005762 0.030223 
0.019841 0.014250 0.003272 
0.019134 -0.014009 0.009321 
-0.023374 0.006741 0.037023 
0.025525 0.003536 0.048559 
-0.004160 -0.028286 0.055012 
0.026939 -0.005726 0.035327 
-0.014451 0.023730 0.036342 
-0.019009 -0.002871 0.000000 
0.000093 0.029727 0.071176 
0.023865 0.014902 0.039956 
-0.009157 0.023078 0.032134 
0.001412 -0.005623 0.001000 
-0.015177 0.020052 0.049875 
0.007212 -0.022687 0.006654 
0.020279 -0.013534 0.028868 
0.022897 -0.015175 0.032098 
0.018007 0.019550 0.021457 
-0.001893 0.026351 0.065263 
-0.015296 0.011120 0.001000 
0.014304 -0.021487 0.057919 
-0.008219 -0.027283 0.047322 
-0.010239 0.020104 0.000000 
0.023858 0.011873 0.019626 
-0.024065 0.011690 0.021093 
0.000710 0.008149 0.000000 
0.020375 -0.003085 0.000000 
0.007876 0.025523 0.052843 
0.013786 -0.016490 0.000473 
0.027160 -0.000000 0.044677 
-0.024757 -0.002688 0.034882 
-0.014953 0.022137 0.020875 
-0.027993 0.007673 0.054715 
0.023583 -0.005928 0.035785 
-0.022115 -0.016417 0.052347 
0.021668 -0.011551 0.002658 
0.020573 0.015774 0.011774 
-0.004561 -0.027874 0.045612 
-0.017119 0.019995 0.017915 
-0.025552 0.005688 0.017833 
0.016844 0.014694 0.006929 
-0.028805 -0.002633 0.058271 
0.014984 0.017741 0.021068 
0.022669 -0.007030 0.029666 
0.016559 0.017595 0.031663 
0.008685 -0.026129 0.062247 
-0.019541 -0.014170 0.017449 
0.028350 -0.004923 0.056805 
-0.020506 -0.008337 0.008903 
0.017390 -0.020121 0.021081 
-0.009367 0.023130 0.034662 
-0.023784 0.000510 0.012258 
-0.016750 -0.000555 0.001000 
-0.017289 0.022665 0.046494 
-0.002371 0.028201 0.049816 
-0.021398 0.014453 0.045741 
-0.023391 0.017816 0.063889 
-0.020860 0.006970 0.001000 
0.020606 0.007998 0.008521 
0.024998 -0.002443 0.036717 
-0.021377 -0.006029 0.008697 
0.012470 -0.021314 0.042824 
-0.025085 -0.010183 0.023716 
-0.023113 0.007887 0.038695 
-0.018406 -0.013326 0.006016 
0.028597 -0.006306 0.066573 
-0.011635 0.001095 0.000000 
-0.014184 0.021781 0.059981 
-0.026825 -0.001669 0.023604 
0.021386 0.005060 0.004147 
-0.017699 0.013322 0.000861 
-0.013470 0.026276 0.068436 
0.023379 -0.015422 0.039599 
-0.021078 0.010013 0.023679 
-0.010563 -0.019847 0.001000 
0.019108 -0.022859 0.075000 
0.009175 -0.020984 0.001000 
-0.004600 0.024918 0.043763 
-0.011022 0.019552 0.009531 
-0.021343 0.017616 0.035551 
0.024397 0.012029 0.026096 
0.007325 -0.028964 0.074495 
0.004137 -0.010299 0.001000 
-0.024546 0.010117 0.064672 
0.026241 0.006690 0.027653 
-0.028099 -0.000167 0.064546 
0.020137 0.009095 0.007943 
-0.023793 -0.014161 0.034615 
0.024170 0.014656 0.041819 
-0.005395 -0.028680 0.066035 
-0.014382 0.024888 0.049393 
0.021967 -0.009488 0.000000 
0.019924 -0.017951 0.062659 
-0.025522 0.009888 0.027502 
-0.018294 -0.018256 0.013406 
-0.019771 0.018409 0.026985 
-0.029956 -0.002058 0.074390 
-0.008026 0.024710 0.040657 
-0.022853 -0.016875 0.044003 
0.003528 -0.027559 0.041170 
0.007686 -0.023714 0.016500 
-0.018900 -0.004166 0.000000 
-0.007362 0.024270 0.009686 
-0.024104 0.009141 0.013316 
-0.013079 0.000847 0.001000 
0.019694 0.016439 0.010066 
0.022058 0.012178 0.007054 
0.024015 -0.002439 0.000137 
-0.019341 0.019692 0.036361 
-0.022846 -0.003891 0.016786 
0.004529 0.025131 0.046966 
-0.027403 -0.011202 0.071372 
-0.028186 0.000637 0.067890 
-0.011505 -0.021350 0.000922 
-0.022362 0.005480 0.018366 
-0.024387 -0.000277 0.018674 
0.016800 -0.024569 0.071131 
-0.002216 0.023001 0.015021 
0.018781 0.013572 0.007007 
0.015491 0.002043 0.000000 
-0.002666 -0.001747 0.000000 
0.001695 0.017028 0.001000 
0.009000 0.028290 0.068905 
0.025754 0.005202 0.018852 
-0.002755 0.008961 0.001000 
-0.023479 -0.018119 0.069374 
-0.022045 0.017893 0.046328 
0.027540 -0.001524 0.030938 
0.022954 0.005547 0.026086 
-0.018230 -0.020254 0.073488 
-0.009871 0.022367 0.002915 
0.020901 0.017177 0.025851 
-0.022615 -0.016838 0.040987 
0.022634 0.016634 0.053487 
0.011324 0.019351 0.008246 
-0.007866 -0.028571 0.063699 
0.013104 -0.016741 0.001000 
0.003780 0.012119 0.001000 
0.008384 0.025034 0.046931 
0.023955 -0.004952 0.035748 
-0.007609 0.024127 0.022848 
0.024392 0.012869 0.033416 
0.013323 -0.022354 0.014543 
-0.001768 -0.016524 0.000000 
-0.016927 0.017816 0.040111 
0.023532 -0.018402 0.074085 
0.005276 -0.023047 0.015710 
0.016067 0.020419 0.012886 
-0.001693 -0.026996 0.074935 
0.004696 0.027827 0.043189 
0.003732 -0.025438 0.012503 
-0.012004 -0.018840 0.000000 
-0.024134 -0.002091 0.024224 
0.024334 -0.008519 0.055588 
-0.026269 0.010455 0.042940 
-0.016926 0.018268 0.044587 
0.027931 -0.000000 0.056126 
0.020179 -0.012821 0.000686 
0.024706 0.011856 0.028650 
-0.005701 0.012247 0.000000 
0.013453 -0.017309 0.006653 
0.023923 -0.005449 0.004155 
0.017021 -0.021887 0.034984 
0.008057 -0.024869 0.043031 
-0.026902 0.011536 0.067916 
-0.010621 -0.027440 0.068286 
-0.010671 0.020045 0.011850 
0.011680 0.024193 0.024320 
-0.022893 -0.009422 0.006305 
0.026999 -0.008650 0.045053 
-0.027744 0.001249 0.033179 
0.017104 0.013875 0.001320 
-0.018918 0.012172 0.007314 
0.019477 -0.015675 0.005183 
-0.003398 0.027368 0.033098 
-0.022931 0.011925 0.012928 
0.024811 0.006633 0.053387 
-0.007465 0.023632 0.008955 
-0.020804 0.015388 0.043499 
0.007876 0.021680 0.003682 
0.003440 0.024702 0.040528 
-0.019143 -0.013234 0.014330 
-0.015815 0.017307 0.027197 
0.006716 -0.026934 0.074014 
0.012473 -0.021460 0.044503 
0.028272 -0.004403 0.054614 
-0.010872 0.025525 0.073631 
-0.017268 0.017034 0.034785 
0.008620 0.028088 0.060454 
-0.016885 0.024425 0.069659 
-0.025409 -0.012919 0.045075 
0.028571 -0.001119 0.045766 
-0.002740 -0.023081 0.016217 
0.007771 0.026460 0.066898 
0.016355 0.023569 0.049345 
0.008055 0.025557 0.023769 
-0.027445 -0.000000 0.040425 
-0.001560 0.029667 0.070338 
-0.011178 0.020921 0.026440 
-0.012493 0.008022 0.000000 
-0.009445 -0.000678 0.001000 
0.010201 0.019586 0.001899 
0.027945 -0.000335 0.063419 
-0.015350 0.015764 0.006740 
0.025520 -0.014182 0.059183 
-0.012745 0.008854 0.000000 
0.025050 -0.003837 0.044078 
0.009495 -0.022393 0.027516 
0.022724 -0.010053 0.006676 
-0.016245 -0.016398 0.021245 
0.028382 0.000017 0.067354 
0.018038 -0.000341 0.000000 
0.024157 -0.014559 0.041823 
-0.015457 -0.024643 0.057326 
-0.020726 0.015522 0.044269 
0.005309 0.000533 0.001000 
0.003208 0.023992 0.029879 
-0.021765 -0.016776 0.030941 
0.009673 0.014885 0.001000 
0.009999 0.021285 0.016649 
0.016574 0.024816 0.072730 
-0.007439 -0.023097 0.016024 
0.017767 0.000017 0.000000 
0.019529 0.018415 0.062577 
-0.018517 0.017520 0.009302 
-0.003288 -0.023163 0.017441 
-0.017336 0.020491 0.069498 
-0.015067 -0.023177 0.033160 
0.010632 0.018431 0.001000 
-0.028326 -0.006060 0.056120 
0.015403 0.018913 0.035115 
0.027587 -0.000042 0.031460 
0.022043 -0.016967 0.067904 
-0.010756 -0.007946 0.000000 
-0.024687 -0.008886 0.061232 
-0.016078 0.017986 0.035787 
-0.023779 -0.016382 0.075000 
0.024528 -0.014336 0.044275 
-0.014804 -0.012493 0.000000 
0.001099 -0.025893 0.058391 
-0.021610 0.015727 0.053489 
-0.018496 0.018842 0.019703 
0.024145 0.003226 0.001302 
-0.011756 0.026181 0.049794 
-0.019550 -0.020015 0.042222 
0.014712 -0.016660 0.010969 
0.009646 -0.027011 0.050164 
-0.002685 0.025443 0.051651 
0.021956 -0.019304 0.064634 
-0.021902 -0.006970 0.019787 
-0.002476 -0.024682 0.040231 
0.008837 0.024199 0.012951 
0.011630 0.019296 0.010050 
0.025105 0.006573 0.014035 
-0.025471 0.001068 0.036027 
0.014008 -0.020769 0.048711 
-0.012304 -0.024832 0.037493 
0.022373 -0.012901 0.013080 
-0.024368 0.009550 0.060248 
-0.003749 0.023823 0.027343 
-0.022651 0.015070 0.062947 
-0.002700 -0.018320 0.001000 
-0.027901 -0.000837 0.065290 
0.013320 0.018614 0.016547 
0.000631 0.010524 0.001000 
0.007864 0.028168 0.058055 
-0.008621 0.024195 0.013045 
-0.013531 -0.026394 0.072330 
-0.020137 -0.010050 0.012531 
-0.022799 0.019109 0.073708 
0.019190 0.010770 0.004146 
0.005496 -0.022018 0.000000 
0.022286 0.010921 0.005339 
0.005623 0.024686 0.040288 
-0.010750 -0.026871 0.059708 
-0.011039 0.024187 0.061562 
0.000975 0.022052 0.000775 
-0.018880 0.021324 0.049862 
-0.024297 -0.004394 0.004473 
0.015868 -0.025360 0.073967 
-0.027920 0.003818 0.046120 
-0.004076 -0.029504 0.073080 
-0.025414 -0.000000 0.013552 
-0.020111 -0.011887 0.001000 
-0.028835 -0.006668 0.070372 
-0.005248 -0.025506 0.017097 
0.005965 0.019157 0.001000 
-0.006801 0.004377 0.000000 
0.023776 -0.004080 0.029311 
0.024734 -0.005575 0.048113 
-0.026312 -0.006668 0.030881 
-0.002943 0.027384 0.075000 
0.027836 -0.000000 0.043859 
0.007570 -0.017120 0.001000 
-0.025622 -0.000000 0.026221 
-0.011621 -0.022802 0.051790 
-0.018314 -0.019433 0.022982 
-0.021080 -0.020302 0.066340 
-0.026523 0.009441 0.041552 
0.017961 -0.023421 0.066349 
0.024251 -0.000387 0.017492 
-0.005408 0.027232 0.036376 
-0.000005 -0.023420 0.021300 
-0.002851 -0.021093 0.000000 
0.006684 0.012631 0.000000 
-0.023527 0.015349 0.074345 
-0.009000 0.027121 0.057821 
-0.016132 0.022593 0.034673 
-0.008596 -0.025941 0.057105 
-0.013859 -0.016710 0.003643 
-0.001807 0.027725 0.040953 
0.004867 0.028602 0.075000 
-0.012572 -0.004364 0.000000 
0.008702 -0.026497 0.067449 
0.019302 -0.022449 0.071516 
-0.021266 -0.012181 0.034818 
0.026991 0.011607 0.071075 
0.024499 -0.000288 0.020122 
0.022385 -0.012225 0.010517 
0.026631 0.010463 0.050337 
0.018839 0.021018 0.045436 
-0.024691 -0.002627 0.006215 
-0.000636 0.028270 0.050781 
-0.020227 -0.013390 0.027664 
-0.002840 -0.029836 0.072705 
0.028424 -0.000136 0.068454 
0.023449 -0.007797 0.004826 
0.020379 -0.020728 0.062487 
0.023026 0.017026 0.058370 
-0.023085 -0.017815 0.059592 
0.006550 0.025632 0.019118 
-0.005505 0.023124 0.001120 
0.012753 -0.021759 0.006814 
-0.004923 -0.029237 0.073291 
0.027325 -0.007872 0.046163 
-0.013208 -0.023215 0.067284 
-0.022105 -0.015529 0.023609 
-0.026256 0.007717 0.074760 
0.027215 0.002397 0.064019 
0.006522 0.026560 0.068400 
-0.016338 -0.015482 0.012690 
0.008012 0.025145 0.018659 
0.008836 0.021460 0.009001 
-0.008047 -0.023426 0.025797 
-0.017212 0.015476 0.018949 
0.024079 -0.013967 0.036619 
0.028806 -0.003196 0.059202 
0.023216 0.003556 0.019800 
-0.023724 0.000964 0.013686 
-0.020955 0.015058 0.043059 
-0.005985 0.027050 0.036496 
0.008738 -0.024160 0.013237 
-0.009274 0.024288 0.046884 
0.015768 -0.022721 0.033875 
-0.027852 -0.003620 0.043737 
-0.011094 -0.021132 0.028041 
-0.010541 -0.015202 0.001000 
-0.028068 -0.000362 0.065093 
0.015860 -0.025042 0.075000 
-0.020327 -0.014768 0.026454 
-0.024916 0.009740 0.020965 
0.017249 0.001215 0.001000 
0.022864 -0.003583 0.015521 
0.016450 -0.020525 0.063568 
0.013600 -0.017619 0.011517 
0.024722 -0.016116 0.066027 
0.023099 -0.015936 0.040285 
-0.004407 0.027782 0.042199 
-0.013770 -0.011910 0.001000 
-0.010320 -0.025849 0.072940 
-0.016786 0.021218 0.025040 
0.025999 -0.005099 0.060943 
0.025309 -0.002321 0.040025 
0.004438 0.024766 0.041495 
-0.028992 0.003567 0.060894 
0.007692 -0.023731 0.016973 
0.001751 0.016020 0.000000 
-0.013592 -0.023456 0.031156 
-0.020000 -0.021241 0.075000 
0.010384 -0.022692 0.039114 
0.003668 0.024569 0.038540 
0.018751 0.022486 0.064322 
0.020378 0.014712 0.018503 
-0.025824 -0.002687 0.048216 
-0.019996 -0.004995 0.001000 
-0.017187 0.020746 0.070978 
0.020739 -0.011353 0.025237 
0.014782 -0.022699 0.073312 
0.007844 0.023701 0.008330 
0.007336 -0.024496 0.037441 
-0.016989 0.023621 0.057307 
0.028067 0.007601 0.055404 
-0.025862 0.001362 0.042327 
-0.026051 -0.000010 0.038184 
-0.021278 0.016948 0.027488 
0.008254 0.018734 0.000000 
-0.008103 -0.026387 0.033518 
0.004157 -0.011515 0.000000 
-0.004610 0.012491 0.001000 
-0.001409 0.029814 0.072401 
-0.019140 0.018571 0.063253 
-0.008354 0.025100 0.019216 
0.004057 0.013991 0.000000 
0.021874 0.011510 0.003775 
0.008379 -0.025102 0.019329 
-0.023562 -0.012625 0.021601 
-0.022371 -0.016520 0.063858 
-0.010829 -0.027086 0.065274 
0.028325 0.005507 0.056102 
-0.024024 -0.007946 0.049600 
0.009000 -0.028360 0.072080 
-0.018616 -0.013538 0.009686 
-0.019196 -0.013228 0.014928 
0.022232 0.018859 0.062277 
0.026456 0.011894 0.058784 
-0.022695 -0.006191 0.025949 
-0.003909 0.024859 0.007733 
0.022938 0.016951 0.069533 
-0.020942 -0.006860 0.000000 
0.028915 0.003169 0.060597 
-0.003282 0.022610 0.009144 
-0.020425 -0.017585 0.025106 
-0.010483 0.027929 0.073854 
0.022620 -0.006317 0.025623 
0.003297 0.027835 0.043365 
-0.006412 0.025809 0.023470 
-0.023752 0.013203 0.031999 
-0.002263 0.024815 0.042231 
-0.015278 0.020944 0.059428 
-0.014482 0.001214 0.000000 
-0.027724 0.003580 0.074855 
-0.018501 -0.018153 0.054587 
-0.026903 0.005006 0.034929 
-0.015034 0.022759 0.029048 
-0.022258 0.005955 0.000000 
-0.009581 -0.026658 0.044550 
0.022833 0.011137 0.010453 
-0.014064 0.006441 0.000000 
-0.021354 0.015458 0.015502 
0.024309 -0.004541 0.005892 
0.003453 -0.025503 0.013028 
0.027270 -0.000000 0.037500 
-0.022732 0.004678 0.019140 
0.007698 -0.021819 0.000000 
-0.014191 0.021881 0.061020 
0.014640 0.016855 0.000000 
0.027103 -0.007752 0.041835 
-0.017047 0.018779 0.008218 
-0.024810 0.007822 0.015008 
0.006488 -0.022947 0.014211 
0.022139 0.010851 0.039540 
-0.008217 0.026561 0.035453 
0.001735 -0.028664 0.053796 
-0.018001 0.013182 0.001805 
-0.026931 0.003383 0.064769 
-0.025467 -0.000000 0.022714 
-0.003462 0.028468 0.055704 
-0.012053 -0.009214 0.000000 
0.007255 0.026135 0.026480 
-0.022325 -0.016542 0.058744 
0.014749 0.020772 0.050250 
0.009791 -0.013310 0.001000 
-0.000688 -0.027273 0.028003 
-0.018299 -0.015390 0.000000 
-0.024404 -0.015592 0.054810 
0.022799 0.010188 0.044525 
-0.006123 0.024179 0.032689 
-0.017266 0.014649 0.011143 
-0.011949 0.026758 0.067738 
-0.007916 0.027838 0.053668 
0.010210 -0.023277 0.044111 
