
# .PCD v.6 - Point Cloud Data file format
FIELDS x y z 
SIZE 4 4 4 
TYPE F F F 
COUNT 1 1 1 
WIDTH 1648
HEIGHT 1
VIEWPOINT 0.000000 0.000000 0.000000 1.000000 0.000000 0.000000 0.00000
POINTS 1648
DATA ascii
0.012752 0.022979 0.035263 
0.029947 -0.007720 0.058305 
0.022964 -0.011954 0.002371 
0.024413 0.017603 0.067786 
-0.008425 -0.024242 0.015809 
0.021540 0.019862 0.035287 
0.016166 0.022341 0.013054 
0.031009 -0.005503 0.070700 
-0.010275 -0.022494 0.011825 
0.029898 -0.008361 0.061897 
0.021661 0.021301 0.046719 
-0.008568 0.024985 0.017945 
0.003270 -0.019950 0.001000 
0.027806 -0.013273 0.058392 
-0.016203 -0.026909 0.065607 
0.021591 0.015515 0.008329 
0.004991 -0.030974 0.068349 
0.022708 0.011555 0.024854 
-0.014619 -0.019673 0.016058 
-0.015235 -0.023779 0.018631 
0.025799 0.006429 0.042798 
-0.019739 -0.022024 0.037929 
0.028358 -0.010906 0.046927 
-0.006293 0.027275 0.015739 
0.007454 0.029652 0.049970 
-0.027797 0.000342 0.015375 
0.015955 -0.013772 0.001000 
0.027946 -0.003370 0.017552 
-0.002660 0.027288 0.011305 
0.018665 0.022148 0.030962 
-0.002297 0.029888 0.044539 
0.013084 0.028457 0.064802 
0.027894 -0.000000 0.033452 
0.006132 -0.000379 0.001000 
-0.026935 -0.002922 0.042438 
-0.028704 0.001218 0.022632 
-0.020420 -0.019591 0.058004 
-0.010944 -0.016888 0.001000 
-0.026656 0.002663 0.038475 
0.016241 -0.027052 0.067440 
-0.008681 -0.026124 0.026248 
0.029178 -0.005520 0.037962 
-0.027848 -0.010685 0.040503 
0.028052 0.001256 0.048537 
-0.014205 0.021199 0.000000 
-0.007677 0.025251 0.028509 
-0.017719 -0.016893 0.011591 
0.021856 0.015569 0.021853 
0.024922 0.013215 0.057838 
0.012616 -0.025529 0.060191 
0.007551 -0.027892 0.061970 
0.021495 0.020377 0.038726 
0.020568 0.017702 0.040476 
0.028362 -0.003612 0.060436 
-0.009974 0.024064 0.025567 
-0.031762 0.001895 0.072544 
-0.028498 -0.011376 0.053310 
-0.015705 0.027226 0.065159 
0.011254 0.029375 0.071499 
0.027266 -0.000000 0.030866 
0.001168 0.013309 0.001000 
-0.019198 -0.019090 0.011304 
-0.029789 0.008106 0.057681 
0.014678 0.018298 0.003002 
-0.029628 -0.001285 0.038821 
-0.016964 -0.018303 0.019875 
0.005397 0.008947 0.001000 
-0.013579 -0.005284 0.001000 
0.023206 0.007897 0.000000 
0.013757 0.022562 0.038516 
-0.004844 0.030215 0.053237 
0.017555 0.025211 0.048358 
-0.026135 -0.006463 0.046570 
-0.016478 0.024064 0.074109 
0.029395 0.006867 0.043531 
-0.016461 0.027466 0.072043 
0.017220 -0.016920 0.008190 
0.008899 -0.021800 0.000000 
-0.028283 0.007692 0.074337 
0.017594 -0.020585 0.010433 
0.024930 -0.008053 0.039244 
-0.015076 0.024369 0.066756 
-0.029052 -0.000000 0.048332 
-0.001483 0.025506 0.000240 
-0.012190 0.004387 0.000000 
-0.011186 0.024101 0.005770 
-0.023615 0.004041 0.009525 
-0.027829 0.003623 0.017290 
-0.027579 0.006064 0.018600 
-0.005030 0.023966 0.001000 
-0.025073 -0.018205 0.051036 
-0.011614 0.002085 0.000000 
-0.002917 -0.031339 0.066409 
-0.006853 -0.028711 0.035946 
0.019194 -0.000587 0.000000 
-0.020855 0.017495 0.040561 
0.008472 -0.026103 0.012118 
0.028742 0.006171 0.033790 
-0.010076 -0.019700 0.000000 
0.025740 0.015187 0.045134 
-0.022809 -0.018719 0.066967 
-0.024970 0.009049 0.005940 
0.029852 -0.000000 0.055454 
-0.006025 0.025239 0.028366 
0.028614 0.012461 0.063695 
0.003725 0.024669 0.021144 
-0.011120 -0.025760 0.018605 
-0.030115 -0.003933 0.048664 
-0.010369 0.026877 0.028664 
-0.017212 -0.020719 0.045539 
0.003377 -0.028236 0.066323 
-0.021162 0.011875 0.006869 
-0.029192 0.009446 0.054413 
0.027511 -0.009056 0.070899 
0.024752 0.008840 0.040156 
-0.009104 -0.019339 0.001000 
-0.007179 0.023096 0.000000 
-0.024275 -0.014884 0.056014 
0.019986 0.024504 0.068604 
0.002684 -0.009161 0.000000 
-0.021677 0.009912 0.006295 
0.006167 0.025594 0.032863 
0.009828 -0.029617 0.068689 
0.000996 -0.025314 0.029313 
-0.010077 0.028191 0.068338 
0.008659 -0.026370 0.018673 
-0.010406 -0.026515 0.053736 
-0.009988 -0.029814 0.075657 
-0.023534 0.018198 0.067160 
-0.011509 0.021382 0.001000 
-0.025685 -0.006062 0.004378 
0.020977 -0.022921 0.060023 
-0.003128 -0.028716 0.072404 
0.024750 -0.009594 0.005763 
-0.029111 -0.011780 0.069578 
-0.002296 -0.025625 0.001757 
0.012949 0.025160 0.021103 
-0.027075 0.003457 0.010204 
-0.025029 0.009703 0.007184 
-0.001311 0.031623 0.070533 
0.018373 0.021872 0.065942 
0.007631 0.027295 0.054409 
-0.026538 -0.010320 0.064909 
-0.027674 -0.005946 0.019493 
-0.006044 0.014159 0.000000 
0.014471 -0.028379 0.073160 
0.018109 0.017875 0.024091 
-0.028477 0.008351 0.038870 
-0.021335 0.017124 0.012676 
0.018180 -0.025303 0.054902 
0.029423 -0.000000 0.040311 
-0.002639 0.019986 0.001000 
-0.027592 -0.000000 0.020070 
-0.006478 0.027499 0.020804 
-0.007697 -0.028113 0.064771 
0.021723 0.016415 0.010106 
0.007699 -0.024588 0.001967 
0.003347 -0.025572 0.032577 
0.028014 0.012948 0.054186 
-0.012989 -0.025135 0.021043 
0.008457 -0.029914 0.062935 
-0.010072 0.028920 0.053031 
-0.029161 -0.004708 0.037766 
-0.023854 0.018722 0.074793 
-0.021023 -0.016696 0.033965 
-0.009919 0.023220 0.016559 
0.007186 -0.030711 0.071051 
0.025279 0.011972 0.057211 
0.018967 0.017427 0.026010 
0.022732 0.007131 0.009523 
0.023699 -0.008817 0.027446 
0.024734 -0.007585 0.035418 
-0.018088 -0.018417 0.029254 
0.026122 0.015696 0.053371 
0.023213 -0.013342 0.037428 
-0.003513 0.005673 0.000000 
0.030357 0.005750 0.053836 
-0.004495 0.022622 0.000000 
-0.006354 -0.028274 0.066803 
0.011102 0.021176 0.000000 
-0.024238 -0.014022 0.013165 
-0.021777 0.015279 0.026505 
-0.021865 -0.008323 0.000000 
-0.014780 0.022833 0.048913 
0.002077 -0.025068 0.026199 
-0.024865 0.001241 0.013881 
0.016708 -0.017353 0.008666 
-0.024024 0.007234 0.025874 
0.023785 -0.017425 0.038648 
-0.010270 0.013935 0.001000 
0.020523 0.018265 0.045667 
-0.009960 0.021763 0.002287 
-0.025872 0.007959 0.049127 
0.021935 0.016356 0.011327 
0.019823 -0.015358 0.012020 
0.021118 -0.014929 0.014376 
0.003615 -0.030219 0.052404 
0.024652 -0.010585 0.045384 
-0.025065 -0.009211 0.006610 
-0.014162 0.024315 0.016642 
0.006316 -0.027576 0.020737 
-0.017465 -0.017457 0.015251 
0.004547 0.025805 0.035535 
0.012951 0.020905 0.015872 
0.014629 0.022724 0.046664 
0.025539 0.013414 0.065251 
-0.021718 0.015381 0.025623 
-0.021332 0.018181 0.021108 
0.027659 -0.006761 0.023604 
0.021349 0.011281 0.007084 
-0.017793 -0.017207 0.015219 
-0.002674 -0.001409 0.001000 
-0.000826 0.018576 0.001000 
-0.027105 -0.005291 0.009843 
-0.030879 -0.000585 0.059749 
0.017545 0.022119 0.062278 
-0.020605 -0.014579 0.001932 
-0.018962 -0.017244 0.024180 
-0.014913 0.021559 0.002125 
-0.000537 -0.031640 0.070784 
-0.020660 -0.013696 0.007098 
-0.004455 0.027804 0.015430 
-0.020662 -0.020772 0.035514 
0.008309 -0.023752 0.009958 
-0.002820 -0.024690 0.021412 
-0.000006 0.025360 0.029896 
0.009101 0.026982 0.025169 
-0.016428 0.020795 0.040468 
0.022733 0.020510 0.076000 
0.026514 -0.000000 0.016247 
-0.013634 0.006237 0.000000 
-0.013372 -0.028506 0.067958 
0.025976 -0.000497 0.023253 
-0.023086 0.021417 0.068795 
0.018190 0.017617 0.022154 
-0.006300 0.025803 0.035498 
0.018206 0.016527 0.001000 
-0.018667 0.021312 0.062438 
-0.026041 -0.010723 0.020380 
-0.024497 0.016903 0.065902 
0.002108 -0.007710 0.001000 
-0.021657 0.015674 0.028606 
0.002534 0.024387 0.017571 
0.010127 0.026478 0.023240 
0.001529 0.030007 0.047094 
0.012496 -0.022440 0.027862 
-0.008450 -0.027921 0.033118 
-0.008970 0.027406 0.055813 
0.018132 -0.017883 0.000066 
-0.014219 -0.000327 0.000000 
-0.026074 0.000836 0.025544 
0.020760 -0.020516 0.034354 
-0.021213 -0.008877 0.000000 
0.000211 -0.031594 0.070111 
0.027603 0.014602 0.061549 
0.024583 0.017087 0.067611 
0.027903 -0.006381 0.065469 
0.024329 -0.017536 0.060241 
-0.016078 0.027666 0.072168 
0.009530 0.028763 0.058916 
0.012860 0.003043 0.000000 
0.011087 -0.020776 0.000000 
-0.009857 0.000012 0.000000 
-0.010287 -0.027524 0.063123 
0.011562 -0.027344 0.070803 
-0.019001 -0.011941 0.000000 
0.002298 -0.004913 0.000000 
0.022617 -0.007128 0.008088 
0.020127 -0.019659 0.023291 
-0.026200 -0.013687 0.073418 
0.004866 -0.026352 0.042462 
0.000513 -0.028116 0.017931 
0.028355 -0.000000 0.023289 
0.000692 0.027314 0.054640 
0.019062 0.021525 0.067561 
0.023417 0.016748 0.050857 
-0.005511 0.025966 0.037566 
0.001215 -0.028607 0.071027 
0.016761 0.022460 0.018766 
0.009511 0.028756 0.058420 
0.025331 0.011891 0.057489 
-0.016561 0.025711 0.076000 
-0.025241 0.018983 0.064752 
0.020953 -0.020908 0.075395 
-0.025574 -0.016224 0.075810 
-0.024033 0.001405 0.005372 
-0.024332 -0.018968 0.076000 
0.015751 0.020499 0.032481 
-0.002145 0.031721 0.071957 
-0.009556 0.025084 0.032828 
-0.009735 -0.028888 0.067087 
0.018217 -0.018060 0.026698 
-0.022352 -0.017898 0.055529 
-0.000489 -0.021362 0.001000 
-0.013717 0.028606 0.072638 
0.023339 0.002722 0.001447 
-0.010750 0.025413 0.045089 
0.019907 0.023246 0.049224 
-0.003441 0.008642 0.001000 
-0.001795 -0.031094 0.062865 
0.016319 0.021972 0.051626 
-0.003451 -0.027481 0.056764 
0.027157 -0.013535 0.050138 
-0.010088 0.024999 0.007825 
-0.009100 0.028931 0.048038 
-0.023363 -0.018028 0.064236 
0.031433 0.001588 0.067777 
-0.017443 -0.021772 0.057986 
-0.005771 0.018165 0.001000 
0.025685 -0.015205 0.073322 
-0.029672 -0.008865 0.060642 
-0.008993 -0.024702 0.004646 
-0.011301 0.023981 0.034627 
-0.012200 0.002412 0.000000 
0.007507 0.013367 0.001000 
0.009052 0.027954 0.036991 
-0.012348 0.025347 0.019886 
-0.021180 -0.013210 0.001000 
-0.017783 -0.020626 0.048861 
0.022860 0.019043 0.038962 
-0.018941 0.018010 0.031532 
-0.005357 -0.028538 0.070154 
0.000461 0.030889 0.059887 
0.021465 0.014494 0.019874 
-0.009169 -0.028275 0.047067 
0.006112 0.028921 0.075005 
0.005299 0.030453 0.053576 
-0.023452 -0.006470 0.016097 
-0.023406 -0.015507 0.019344 
0.023836 -0.015992 0.054501 
-0.015869 0.006398 0.000000 
-0.020151 0.022230 0.042463 
0.021836 -0.012040 0.001000 
0.023145 -0.017101 0.053536 
-0.005970 -0.024429 0.018100 
-0.025707 -0.008128 0.007873 
0.025392 0.009888 0.009258 
0.029114 -0.005742 0.037252 
-0.027075 -0.011178 0.033809 
0.024613 -0.017885 0.055356 
-0.000168 -0.024182 0.014972 
-0.007120 -0.028393 0.068308 
-0.025814 -0.007259 0.045969 
0.013450 -0.028418 0.066610 
-0.016947 0.027286 0.074566 
-0.021099 0.020167 0.068939 
0.001061 -0.029791 0.042397 
0.005001 0.030815 0.060117 
-0.022294 -0.002672 0.001000 
0.027239 0.013704 0.051073 
-0.021086 0.011965 0.006246 
0.023037 -0.020386 0.053125 
0.017686 0.024219 0.038966 
0.021684 0.011836 0.013179 
-0.024652 0.014093 0.057885 
-0.013630 0.021802 0.000420 
0.000216 0.031510 0.068893 
0.010297 -0.011681 0.000000 
-0.024355 -0.018448 0.045558 
-0.015126 -0.019700 0.020051 
-0.019926 -0.021460 0.073341 
-0.030785 0.003129 0.058855 
-0.004851 0.030070 0.049026 
0.019136 -0.000807 0.001000 
0.024722 -0.009062 0.040632 
0.019104 0.017672 0.003493 
-0.022197 0.006526 0.000763 
0.023164 -0.016683 0.036523 
0.029795 -0.008095 0.076000 
-0.001757 0.026427 0.043410 
0.027543 -0.000000 0.027195 
0.025641 0.016354 0.076000 
0.002638 -0.016407 0.001000 
0.017660 0.016545 0.007749 
0.004565 0.028944 0.075293 
0.008848 -0.027360 0.031532 
0.001040 0.023155 0.001969 
0.023307 0.010525 0.028636 
0.028721 -0.003171 0.062731 
-0.029113 -0.005758 0.037238 
-0.027503 0.015830 0.069116 
0.020648 -0.014597 0.003903 
0.019561 0.023983 0.054885 
0.025076 -0.002205 0.019659 
0.030305 -0.005944 0.055858 
-0.025953 0.013325 0.034031 
0.017017 0.021610 0.053153 
0.026946 0.008966 0.064434 
0.000915 -0.027206 0.053273 
0.017587 -0.019560 0.036777 
0.024796 -0.000535 0.010581 
0.004529 0.024597 0.001000 
0.014174 -0.019072 0.006885 
0.031255 -0.001665 0.065193 
0.012001 -0.026062 0.025687 
0.019390 0.021038 0.065044 
0.021364 0.014272 0.000135 
0.024152 0.019715 0.059579 
0.010382 -0.028863 0.054039 
0.021439 0.013686 0.016697 
-0.002565 -0.027929 0.016429 
0.020750 0.014700 0.003864 
0.014906 -0.022688 0.048377 
0.012831 0.020688 0.012855 
0.023707 -0.015117 0.016220 
-0.009382 -0.028680 0.053832 
0.023740 -0.014408 0.010179 
0.015477 0.020748 0.001011 
0.019964 0.023358 0.051670 
0.014221 0.027922 0.062260 
-0.025095 -0.000000 0.001457 
0.022465 0.016451 0.016698 
0.010565 -0.021512 0.004277 
0.022065 -0.007174 0.001424 
0.026430 -0.009757 0.021185 
-0.024054 -0.017244 0.050944 
0.011982 -0.024576 0.008628 
0.024352 -0.019317 0.056708 
-0.003250 -0.031431 0.068652 
0.023697 0.018130 0.038397 
-0.012555 0.016336 0.001000 
-0.023223 -0.016894 0.028607 
0.013038 0.016656 0.001000 
0.017786 0.026576 0.073466 
-0.028870 0.007026 0.038336 
0.013852 0.025606 0.031702 
0.005051 -0.024636 0.020727 
-0.020008 0.023129 0.048988 
0.002517 0.025343 0.029674 
0.030414 0.008167 0.071716 
-0.013137 -0.025845 0.067304 
0.019943 0.021742 0.037356 
0.008340 0.025741 0.016932 
-0.009855 -0.029883 0.072404 
-0.025411 0.013800 0.065266 
0.026896 -0.002604 0.040872 
0.028747 0.013496 0.074100 
-0.004919 -0.023774 0.009807 
-0.030795 -0.000256 0.058532 
0.021356 -0.014707 0.019272 
0.029800 -0.002823 0.042593 
0.003652 -0.007432 0.000000 
-0.022320 -0.008456 0.009110 
-0.023980 0.017348 0.047995 
0.004626 0.026463 0.006583 
-0.006099 0.011194 0.001000 
-0.025033 -0.018033 0.073139 
0.026971 -0.007283 0.015532 
-0.008993 0.008745 0.000000 
0.025099 -0.018253 0.060455 
0.024951 -0.001983 0.000000 
-0.024797 0.007339 0.002222 
0.008290 -0.030554 0.075662 
-0.027179 -0.001114 0.010429 
-0.011663 0.027016 0.068223 
-0.024378 0.014454 0.055767 
-0.030541 0.005370 0.062686 
-0.028997 -0.006484 0.037742 
-0.025915 0.018246 0.065770 
-0.029144 -0.010596 0.061699 
0.009324 -0.029231 0.056405 
0.007867 0.027736 0.028946 
-0.022122 -0.022508 0.070637 
0.027620 0.003320 0.051314 
0.019172 -0.004172 0.001000 
0.023989 0.020013 0.061537 
-0.008736 0.025361 0.025966 
0.006925 0.023588 0.007447 
0.030073 -0.000627 0.048065 
0.008219 0.024830 0.023177 
0.005624 0.028147 0.065197 
-0.014833 -0.025161 0.072998 
-0.024984 -0.017992 0.055198 
-0.010142 0.022201 0.007915 
0.021659 0.022794 0.068060 
0.011521 0.023711 0.033514 
-0.017105 -0.026019 0.062467 
0.026959 0.004862 0.008814 
0.019322 -0.011036 0.001000 
0.003474 -0.023214 0.002712 
-0.028093 -0.001546 0.017747 
-0.026620 -0.012618 0.074112 
0.008507 0.030352 0.072833 
0.024355 -0.007416 0.030605 
0.026318 -0.005005 0.005933 
-0.008488 0.025644 0.019356 
0.008733 0.025835 0.027852 
-0.020391 0.014194 0.000000 
-0.006646 0.015457 0.001000 
0.018311 0.019069 0.037282 
-0.009917 -0.029428 0.072834 
-0.006586 -0.029101 0.039264 
0.017167 0.023326 0.071745 
0.024940 0.017970 0.070684 
0.016332 -0.002438 0.000000 
0.000848 0.002126 0.001000 
-0.001197 0.030139 0.049013 
0.027311 -0.000000 0.023169 
0.016162 0.017746 0.001000 
-0.008220 0.026029 0.011660 
0.020863 0.001596 0.001000 
0.022175 -0.022189 0.066786 
-0.010199 0.027736 0.037490 
0.002438 -0.024945 0.024639 
0.020673 0.017397 0.009560 
-0.009884 0.021667 0.000791 
0.028378 0.009416 0.041684 
-0.029087 -0.001009 0.026912 
0.025981 -0.016526 0.057641 
-0.009864 0.029087 0.070847 
0.007187 0.027492 0.056902 
0.010795 0.022017 0.010913 
-0.026384 -0.009948 0.021402 
0.014057 0.023764 0.052991 
-0.009128 -0.026924 0.035820 
0.027504 -0.014792 0.064825 
0.025638 -0.015689 0.044822 
-0.015662 -0.019744 0.024419 
0.025451 0.018451 0.067491 
0.029711 0.003777 0.075678 
0.027142 -0.005576 0.011268 
0.029674 -0.006165 0.044021 
-0.012688 0.025821 0.063711 
-0.030455 -0.005982 0.057450 
0.009265 -0.028099 0.041856 
0.018841 -0.023442 0.041747 
-0.009273 -0.027672 0.040314 
-0.003492 0.030912 0.062012 
0.016822 -0.024716 0.038177 
0.029545 0.009765 0.064396 
-0.001981 -0.023039 0.000493 
0.026491 -0.007946 0.013953 
-0.023043 -0.008154 0.000000 
0.007453 -0.027251 0.053850 
0.020930 -0.017057 0.008942 
-0.024410 -0.017528 0.061228 
-0.014178 0.028540 0.074540 
0.007195 -0.030500 0.076000 
-0.028172 -0.007532 0.032514 
0.024818 -0.018577 0.052723 
-0.020136 0.023500 0.056210 
-0.014552 -0.024807 0.027310 
-0.007351 -0.011608 0.000000 
0.014940 -0.021410 0.001573 
0.007677 -0.030542 0.070953 
0.002578 0.023949 0.012016 
-0.012270 -0.025130 0.017161 
0.018378 -0.019235 0.007259 
0.023117 -0.019166 0.073815 
-0.002716 -0.029966 0.046243 
0.020788 0.020634 0.071375 
0.029759 0.002578 0.041706 
-0.023288 -0.013746 0.039777 
-0.028051 -0.000000 0.026689 
-0.005805 -0.029664 0.043303 
-0.027524 0.013352 0.054398 
0.021174 -0.012222 0.008242 
-0.009355 -0.029442 0.059189 
-0.024912 0.015498 0.065988 
0.017113 0.019233 0.001557 
-0.011083 -0.026133 0.054902 
0.016757 -0.011452 0.001000 
0.002353 0.030705 0.057228 
-0.021810 -0.008964 0.004591 
0.022923 -0.016465 0.034799 
-0.014259 0.024139 0.058311 
0.010474 0.025143 0.008856 
0.017404 -0.022335 0.022913 
-0.005129 0.028920 0.031928 
-0.025257 0.008358 0.043899 
0.024840 0.001965 0.000000 
0.004649 -0.027822 0.061079 
0.023199 0.013254 0.036939 
-0.019784 0.015201 0.010183 
-0.030325 -0.002841 0.051708 
-0.024100 0.012932 0.008013 
-0.027477 0.000550 0.012817 
0.017006 0.023316 0.070441 
-0.014165 0.006751 0.001000 
0.028448 0.012862 0.062985 
-0.009656 0.028621 0.058462 
-0.009770 -0.029393 0.061119 
0.017220 -0.018247 0.021197 
0.026335 0.003669 0.038634 
0.014926 -0.018162 0.003489 
-0.024399 0.008428 0.034723 
0.028716 -0.004201 0.027566 
0.022526 0.016340 0.021155 
0.003234 -0.015636 0.000000 
0.003258 0.022653 0.001000 
0.021492 0.015232 0.019740 
0.025438 0.001280 0.020243 
0.005860 -0.008923 0.000000 
-0.027154 -0.010697 0.072959 
0.007325 -0.013963 0.000000 
-0.007103 0.027242 0.020321 
-0.025170 0.002209 0.000000 
-0.026358 -0.006102 0.047690 
0.024590 0.017195 0.068085 
-0.012429 0.022246 0.025377 
0.008144 -0.023558 0.005485 
-0.021920 0.008888 0.005681 
0.028690 0.000839 0.053957 
0.007204 0.026479 0.010297 
-0.027295 -0.013907 0.056858 
-0.002396 0.029146 0.028218 
0.001842 -0.027292 0.011336 
-0.029666 0.000426 0.063061 
-0.023350 0.018448 0.038187 
-0.007557 -0.028846 0.074049 
-0.000170 0.029971 0.046361 
0.016811 -0.022855 0.022396 
-0.027738 0.000770 0.014906 
0.027428 -0.002199 0.045181 
-0.030574 0.007860 0.072960 
0.021727 -0.017671 0.048703 
-0.019282 0.021586 0.069821 
0.008955 -0.024966 0.005779 
-0.015906 -0.023563 0.022350 
-0.012677 -0.020397 0.008874 
-0.021626 -0.021407 0.047475 
-0.017740 0.018662 0.029092 
0.020680 0.022317 0.046978 
0.008407 -0.007807 0.000000 
0.029711 0.002749 0.071958 
0.005340 -0.028826 0.073798 
0.022745 0.018906 0.037112 
0.024653 -0.017748 0.043495 
-0.024020 0.015729 0.026424 
-0.012390 -0.026819 0.071644 
-0.013556 -0.017567 0.001000 
0.028121 0.007101 0.030374 
0.026075 -0.017943 0.069150 
0.006472 -0.025726 0.034531 
0.004417 0.023166 0.002107 
-0.009160 -0.027289 0.033572 
0.008458 -0.028717 0.041902 
-0.007161 0.002690 0.001000 
-0.000366 -0.007969 0.001000 
-0.002284 0.027301 0.054475 
0.027467 0.005658 0.016467 
-0.015762 0.022967 0.057606 
-0.022144 0.011627 0.001000 
0.021851 0.003734 0.000000 
-0.023288 -0.011836 0.033035 
0.026849 -0.011738 0.033383 
-0.011576 0.023777 0.034603 
0.014063 -0.022551 0.040688 
-0.012968 -0.021461 0.021449 
-0.016049 0.027035 0.064206 
0.029056 -0.012071 0.070490 
0.021980 -0.011994 0.017406 
-0.009435 0.028040 0.054514 
-0.025980 0.008840 0.012119 
0.021612 -0.013247 0.017281 
0.008689 0.025136 0.026175 
0.005549 -0.023394 0.000000 
-0.031051 -0.001608 0.062240 
-0.028116 0.003144 0.056071 
-0.009425 -0.029178 0.053955 
-0.026378 -0.000000 0.016501 
0.024335 -0.017656 0.051621 
-0.019987 0.018834 0.015574 
-0.030258 -0.000000 0.065980 
-0.026103 -0.000000 0.012727 
0.018566 0.019834 0.012197 
0.024053 0.002912 0.010954 
0.010256 0.024343 0.030514 
0.008364 0.025988 0.037854 
0.014347 0.021341 0.030492 
-0.023795 0.008180 0.000000 
0.031845 -0.001459 0.073759 
-0.013600 0.025003 0.062186 
-0.009843 0.022313 0.000000 
0.001419 0.024137 0.014408 
-0.009939 0.022563 0.010027 
0.004647 0.026706 0.046943 
-0.007232 0.023886 0.011229 
-0.001661 0.027739 0.014911 
0.024664 -0.012371 0.051948 
-0.029553 0.009105 0.059791 
-0.001976 0.023364 0.004614 
0.021555 -0.016032 0.007141 
-0.026327 -0.000000 0.011018 
-0.030941 -0.005798 0.067658 
0.011747 0.026327 0.061834 
-0.006557 0.030075 0.052662 
-0.021479 -0.016859 0.011703 
0.027239 0.006948 0.019661 
0.026476 0.016018 0.059564 
0.011406 0.029366 0.072399 
0.029977 0.003552 0.046751 
-0.023644 -0.020840 0.076000 
-0.005805 0.005148 0.001000 
0.009172 -0.026672 0.021756 
0.026635 -0.007575 0.013504 
0.019801 0.021664 0.074492 
-0.003299 0.025369 0.030001 
-0.008555 0.025039 0.021095 
0.014737 0.025974 0.044347 
-0.028961 -0.005212 0.035566 
0.008240 0.024717 0.021743 
0.012618 0.002786 0.000000 
-0.002748 -0.026376 0.005815 
-0.021017 0.021569 0.043959 
0.014606 -0.021968 0.038802 
-0.017329 -0.022837 0.026215 
0.012009 0.023961 0.006290 
0.004127 0.028582 0.024324 
0.013050 -0.028671 0.069199 
0.028940 0.011905 0.066760 
0.008400 -0.028731 0.041843 
0.019731 0.019083 0.015511 
-0.016395 0.017269 0.005546 
-0.013340 0.028250 0.062152 
-0.026165 0.018248 0.070159 
0.021617 -0.022951 0.069727 
-0.001871 -0.023390 0.004936 
-0.014346 -0.020439 0.021556 
0.008832 -0.001745 0.000000 
0.015349 0.024132 0.025416 
-0.011254 0.025256 0.047254 
0.008049 -0.026590 0.045474 
0.027604 0.012439 0.045865 
-0.013533 0.024969 0.022009 
0.030132 -0.006959 0.056829 
0.030256 -0.000000 0.057678 
-0.020786 -0.019096 0.055758 
-0.029079 -0.000000 0.050178 
0.005149 -0.031173 0.071797 
0.007252 0.019276 0.001000 
0.007683 0.028142 0.065133 
0.002549 0.019940 0.000000 
-0.025486 -0.018486 0.062818 
0.002039 -0.029637 0.039012 
0.007516 0.027406 0.023932 
-0.000547 0.002910 0.001000 
-0.014195 -0.025354 0.070208 
-0.014741 0.002455 0.000000 
0.018760 -0.019165 0.008666 
-0.006159 -0.027802 0.023109 
-0.025473 0.011130 0.015199 
-0.007703 0.030113 0.061805 
0.016285 0.001036 0.001000 
0.019439 0.015455 0.000000 
0.022434 0.016068 0.027840 
-0.013917 -0.013292 0.001000 
-0.019494 -0.014877 0.004882 
-0.024493 0.018673 0.049396 
0.009366 -0.027285 0.051900 
-0.024532 0.008938 0.003803 
0.028620 -0.000000 0.049487 
0.023401 -0.007992 0.020841 
0.023218 0.019015 0.073035 
0.020874 -0.023358 0.064873 
0.003817 0.031749 0.074921 
-0.009338 -0.027173 0.052862 
0.014275 -0.024524 0.021787 
-0.008942 -0.026549 0.026372 
-0.017063 0.020945 0.046738 
-0.006717 0.027209 0.018082 
-0.017076 -0.019526 0.002707 
-0.028462 -0.006517 0.072025 
0.007687 -0.001927 0.001000 
-0.026975 -0.003577 0.045241 
0.022315 0.018902 0.033928 
0.024505 0.013079 0.052473 
0.007721 0.010136 0.000000 
0.009593 -0.012137 0.001000 
0.020315 -0.003489 0.000000 
-0.025641 0.006425 0.004306 
-0.025625 0.011445 0.059056 
0.023207 -0.016886 0.026080 
0.023031 -0.009938 0.000594 
0.025358 0.003657 0.027984 
-0.012897 -0.024498 0.011080 
-0.020466 0.015240 0.015592 
0.010290 -0.027171 0.059553 
-0.008828 -0.027654 0.036740 
-0.012239 -0.021488 0.016350 
-0.013821 -0.015126 0.000000 
0.023998 0.020829 0.073492 
-0.030180 0.006886 0.057343 
0.027813 0.007872 0.069882 
0.008284 0.024602 0.010783 
0.023703 -0.011290 0.036236 
-0.015874 0.019034 0.019025 
-0.008945 -0.026880 0.023930 
0.019169 -0.010069 0.000000 
-0.022529 0.016178 0.026662 
0.028394 -0.000000 0.026214 
0.022550 -0.001502 0.001000 
0.010465 0.020760 0.000000 
0.011441 -0.026846 0.032255 
0.023388 0.016781 0.046119 
0.011008 -0.029155 0.064929 
0.024889 -0.018002 0.051575 
0.024562 -0.008244 0.035936 
-0.015257 0.024419 0.068611 
-0.021341 -0.012914 0.012750 
0.009833 0.022807 0.011723 
-0.021456 -0.013799 0.017304 
-0.015044 0.003617 0.001000 
0.015224 0.023854 0.019728 
-0.025854 -0.001566 0.003386 
0.023428 0.014331 0.007915 
-0.025797 -0.011677 0.021272 
0.022560 -0.009829 0.001000 
0.009676 -0.026518 0.021919 
0.008154 0.029814 0.058562 
0.013354 0.028498 0.067657 
-0.019933 0.015024 0.001000 
0.002078 -0.004023 0.000000 
-0.024067 -0.004659 0.017300 
0.027441 0.009386 0.071327 
-0.023323 0.016678 0.049006 
-0.020482 0.011924 0.000000 
0.006477 0.025256 0.028575 
0.030591 0.004218 0.055577 
0.030817 -0.002656 0.058845 
-0.009681 -0.027547 0.058830 
-0.022819 -0.016255 0.030888 
-0.008307 -0.026602 0.019066 
0.021359 -0.021808 0.049423 
-0.029341 0.003394 0.035382 
0.019796 -0.022110 0.038980 
0.020637 0.017413 0.038154 
0.021200 0.021006 0.041180 
0.004094 -0.023298 0.001000 
0.005840 -0.026315 0.041992 
-0.003649 -0.023465 0.001000 
-0.019279 -0.021686 0.070814 
0.022133 0.015128 0.030377 
-0.021691 -0.009420 0.004729 
-0.028977 0.011732 0.076000 
-0.004183 -0.025587 0.032766 
-0.003565 -0.030991 0.063417 
-0.004465 -0.026320 0.042057 
-0.015456 0.020692 0.032203 
-0.016973 0.023486 0.071928 
0.019807 0.020747 0.065198 
0.025089 -0.011839 0.013425 
-0.008783 0.030365 0.075114 
-0.027458 -0.007227 0.023402 
0.003333 0.027328 0.054819 
0.026561 -0.009537 0.062315 
0.010689 -0.023166 0.001524 
-0.019603 0.022221 0.038377 
0.006961 0.017876 0.001000 
0.024969 -0.018263 0.058627 
-0.018064 -0.019599 0.040670 
-0.023653 -0.016994 0.050262 
-0.012576 0.024583 0.050273 
-0.022155 -0.016834 0.043641 
0.028378 0.010924 0.047419 
0.000196 0.025013 0.025502 
-0.029203 0.000142 0.057005 
0.007075 0.020494 0.001000 
0.028883 -0.003474 0.065588 
-0.003608 0.024230 0.000000 
0.012163 -0.024735 0.048730 
-0.003621 0.013976 0.000000 
0.027391 -0.001640 0.012131 
-0.030369 -0.007203 0.063754 
-0.024628 -0.014181 0.021943 
-0.001513 -0.029529 0.036633 
-0.026554 -0.010290 0.024810 
0.020711 0.014663 0.003585 
-0.016743 -0.017556 0.010916 
-0.028471 -0.008154 0.038078 
0.022048 0.008633 0.006368 
0.018089 0.005715 0.000000 
0.018230 -0.020781 0.053774 
0.013694 -0.008510 0.000000 
-0.014899 0.026120 0.047576 
-0.028914 0.012491 0.070434 
-0.011525 0.005520 0.000000 
-0.015258 -0.019585 0.019891 
-0.002397 0.029828 0.043218 
-0.022622 -0.010049 0.018476 
-0.013088 0.026324 0.071807 
0.008075 0.024173 0.014853 
-0.024824 -0.001732 0.015215 
0.017710 0.016596 0.008614 
-0.002606 0.028212 0.018696 
-0.014859 -0.013925 0.000000 
-0.022016 0.015615 0.030468 
0.009323 -0.027582 0.042337 
0.009798 -0.025239 0.036212 
0.021826 0.015737 0.011032 
-0.026252 0.002882 0.034876 
-0.000605 -0.023848 0.010747 
-0.024466 -0.013299 0.011784 
-0.013991 -0.021137 0.025791 
-0.021313 -0.002728 0.000000 
-0.003133 0.012913 0.001000 
-0.005485 -0.027131 0.052326 
-0.012955 0.022069 0.027503 
-0.017147 0.010263 0.001000 
-0.019400 -0.019446 0.048985 
-0.020322 -0.018548 0.046969 
-0.012119 0.023878 0.039683 
0.026310 -0.000000 0.015348 
0.015249 -0.022966 0.012437 
-0.016745 0.011980 0.001000 
0.024512 0.001732 0.011826 
0.028693 -0.001379 0.022543 
0.023251 0.011602 0.031750 
-0.013859 0.025124 0.025596 
0.020495 -0.024039 0.069233 
-0.028099 0.010815 0.043741 
0.008993 -0.027221 0.028884 
-0.024509 -0.020407 0.074775 
-0.009787 0.012358 0.001000 
0.012941 0.021423 0.020871 
-0.024972 -0.014522 0.029231 
-0.010704 0.021440 0.000000 
-0.024987 -0.002248 0.018852 
0.017960 0.019488 0.038819 
-0.026723 -0.006533 0.053210 
0.024671 0.003453 0.019786 
0.030477 0.003911 0.053911 
-0.025205 -0.011908 0.056179 
0.005636 0.021304 0.000000 
0.014310 -0.025189 0.069373 
-0.003986 0.030647 0.059949 
0.024904 0.011231 0.050460 
0.007981 0.030541 0.073137 
-0.015289 0.023922 0.022904 
-0.015342 0.020723 0.031677 
0.000639 0.026044 0.038560 
0.026440 0.004752 0.043689 
0.000691 0.003530 0.000000 
0.022704 -0.010595 0.021411 
0.009911 0.000246 0.000000 
-0.006175 0.030753 0.068843 
0.005385 -0.015365 0.000000 
0.025543 -0.000023 0.016832 
0.012699 -0.001554 0.000000 
0.029497 -0.005912 0.041464 
-0.010156 0.029623 0.068924 
-0.022867 0.016326 0.041115 
0.003207 0.031631 0.070648 
0.011119 -0.005075 0.001000 
-0.023012 0.005510 0.000000 
-0.015003 -0.020710 0.029050 
0.003966 -0.027864 0.061611 
0.005867 -0.028773 0.033016 
-0.018991 0.025781 0.072698 
-0.003612 0.015751 0.000000 
0.001227 0.004372 0.000000 
-0.027414 -0.005052 0.055354 
-0.001410 -0.026100 0.039270 
-0.004320 -0.028426 0.023929 
0.009515 -0.028201 0.065873 
0.013431 0.024998 0.060868 
-0.015892 -0.022422 0.011517 
-0.027327 -0.002479 0.045093 
-0.028383 -0.013138 0.066858 
0.000010 0.026612 0.045752 
0.025604 -0.018683 0.067370 
0.025216 0.012841 0.019183 
0.027900 -0.003373 0.017197 
-0.027400 0.000168 0.037517 
0.023950 0.006024 0.020672 
0.009714 -0.029613 0.067702 
0.024500 -0.017970 0.050599 
-0.015033 0.027270 0.061049 
0.019803 0.016197 0.000603 
0.000093 0.031727 0.072039 
0.028019 -0.000000 0.029666 
-0.016190 0.023578 0.067016 
-0.000703 -0.001406 0.001000 
-0.018176 0.018772 0.033376 
0.008579 -0.029212 0.048562 
0.022756 -0.005625 0.004496 
0.029251 -0.003968 0.037628 
0.020107 0.018564 0.014368 
-0.002132 0.028221 0.066133 
0.016677 -0.012092 0.001000 
0.019966 -0.018209 0.041023 
0.009012 -0.028480 0.041610 
-0.002188 0.024345 0.017039 
0.025933 0.017589 0.064315 
-0.022941 0.007962 0.000000 
-0.001300 -0.013265 0.000000 
0.016375 -0.004519 0.000000 
0.008799 0.027227 0.053548 
0.008863 -0.025236 0.029205 
0.028531 -0.014371 0.075844 
-0.022894 -0.008316 0.015714 
-0.020910 0.016301 0.005449 
-0.029449 0.005153 0.040939 
0.024945 -0.008588 0.041342 
-0.020177 -0.024677 0.073885 
0.014241 -0.023110 0.047708 
0.020821 0.022780 0.055712 
0.001561 -0.029063 0.026388 
-0.019109 0.024338 0.053487 
-0.022868 0.016384 0.036785 
0.018697 0.015694 0.007021 
-0.025158 -0.013439 0.023044 
0.016582 0.018741 0.021349 
0.025396 -0.014650 0.035103 
0.010944 0.029255 0.066636 
0.022445 -0.019857 0.075827 
-0.029843 -0.002359 0.043537 
0.026582 -0.016727 0.065845 
-0.023682 -0.014903 0.048742 
0.015121 -0.021369 0.002204 
-0.016670 0.023129 0.066031 
-0.029745 0.002942 0.073018 
0.017750 0.000545 0.001000 
-0.019354 0.024711 0.076000 
-0.003402 0.030319 0.053080 
-0.021851 0.008770 0.004410 
-0.009716 0.029291 0.058508 
0.024440 -0.003051 0.001000 
0.023530 0.014870 0.046756 
0.026747 -0.008812 0.061718 
-0.022783 -0.014232 0.035247 
0.017778 -0.020358 0.046097 
-0.026594 -0.000241 0.006067 
-0.024047 0.008912 0.032084 
-0.018166 -0.024845 0.047156 
0.026199 -0.010995 0.023368 
-0.015678 -0.012653 0.000000 
-0.020388 0.018035 0.042422 
-0.029531 -0.009182 0.059869 
0.022167 0.014783 0.029583 
-0.008231 0.023050 0.002236 
-0.008980 0.026665 0.037242 
0.029052 -0.004991 0.036568 
-0.023987 0.005420 0.018998 
0.014335 0.006860 0.001000 
0.016479 -0.022562 0.017466 
0.005694 0.011657 0.001000 
-0.005204 0.026501 0.044346 
-0.011221 0.025547 0.049965 
-0.009823 0.028900 0.069260 
0.025524 0.014773 0.038723 
-0.004343 -0.030018 0.047523 
0.000919 0.004014 0.001000 
-0.022413 0.013562 0.028309 
-0.025121 -0.002638 0.000345 
-0.023507 -0.002003 0.000976 
0.023922 0.015316 0.053173 
-0.021760 -0.015679 0.010065 
0.029347 -0.000000 0.036021 
-0.006925 -0.030118 0.056285 
-0.021158 0.023645 0.073135 
0.017058 -0.016690 0.000000 
0.019788 -0.020593 0.063494 
-0.028364 0.014112 0.072702 
-0.027782 -0.003872 0.055073 
-0.015430 0.026229 0.051623 
-0.027329 -0.012065 0.040096 
-0.009020 0.026253 0.041199 
-0.018744 -0.017267 0.000050 
0.006853 -0.023530 0.000000 
0.016670 -0.024972 0.039458 
-0.023900 -0.002295 0.000000 
-0.005681 0.025141 0.001656 
-0.026435 0.007626 0.011651 
0.014798 -0.003386 0.001000 
0.020886 0.023486 0.066900 
0.028058 0.014961 0.069728 
0.025355 -0.000000 0.014354 
-0.017137 0.026555 0.064050 
-0.022392 -0.012064 0.022748 
-0.007311 0.027404 0.055789 
-0.025870 -0.017806 0.064527 
-0.025226 0.016294 0.072278 
-0.017813 -0.020392 0.010639 
-0.027019 -0.000000 0.019813 
-0.021103 -0.010600 0.001622 
0.021861 -0.020077 0.039217 
-0.006370 0.024879 0.023795 
0.028417 0.005608 0.029587 
0.012237 0.002554 0.000000 
-0.004777 -0.001819 0.000000 
-0.012900 -0.012641 0.001000 
0.005347 0.029725 0.043974 
0.026212 0.015900 0.076000 
-0.009855 -0.018884 0.001000 
-0.014922 -0.025717 0.042579 
-0.009076 0.026259 0.040889 
0.028460 -0.001476 0.020682 
0.023525 0.010837 0.032427 
-0.009635 -0.026777 0.050653 
0.007959 0.024943 0.024614 
0.027751 0.000696 0.043244 
-0.018621 -0.017491 0.000503 
0.028366 0.006857 0.032171 
0.012668 0.020351 0.008356 
0.009974 -0.029596 0.075259 
-0.002193 0.010712 0.001000 
-0.011648 -0.006226 0.001000 
0.012652 0.019584 0.000719 
0.025474 -0.008580 0.047050 
-0.008488 0.024769 0.014594 
0.024357 0.015270 0.027685 
0.008693 -0.026071 0.026327 
-0.004689 0.012252 0.000000 
-0.015756 0.019257 0.020340 
0.018402 -0.019663 0.009523 
0.006038 -0.024257 0.015919 
0.017926 0.020898 0.015590 
-0.001880 -0.028995 0.075934 
0.008346 0.026170 0.018253 
0.007903 -0.028928 0.042184 
-0.021876 -0.015580 0.017208 
-0.022096 -0.010122 0.012226 
0.023225 -0.012128 0.033288 
-0.027278 0.013545 0.052352 
-0.016579 0.018806 0.021966 
0.028445 -0.000000 0.029337 
-0.000351 0.022335 0.001000 
0.025272 0.015102 0.038290 
-0.008701 0.012896 0.000000 
0.010190 -0.024601 0.032643 
0.025314 -0.016160 0.042059 
0.021624 -0.021901 0.054620 
0.009047 -0.026443 0.043605 
-0.031494 0.000295 0.068663 
-0.011381 -0.029220 0.069047 
-0.011760 0.025432 0.052817 
0.018235 0.017850 0.000382 
-0.025893 -0.011123 0.020209 
0.030736 -0.007090 0.070903 
-0.023929 0.017301 0.047747 
0.019015 0.014875 0.001337 
-0.023968 0.001652 0.005447 
0.018188 -0.024016 0.076000 
-0.005602 0.027897 0.021233 
-0.026069 0.006880 0.006790 
0.023017 0.007091 0.012905 
-0.009321 0.027047 0.049110 
-0.014994 0.017808 0.000520 
0.008934 0.022680 0.003732 
0.003778 0.026242 0.041068 
-0.025928 -0.014561 0.073629 
-0.013779 0.020879 0.021706 
0.007465 -0.028921 0.075001 
0.018121 -0.020135 0.046388 
0.026391 -0.017325 0.068114 
-0.024080 0.017603 0.065344 
-0.023101 0.016637 0.035248 
-0.000380 0.027961 0.016688 
-0.022736 0.020880 0.055932 
-0.030503 -0.006853 0.064137 
0.031056 -0.002388 0.076000 
-0.003069 -0.024297 0.016433 
0.008627 0.028352 0.067790 
0.015422 0.027514 0.066528 
0.003165 0.029641 0.040306 
-0.028600 -0.001378 0.021797 
-0.004414 0.031314 0.071171 
-0.014657 0.023228 0.052005 
-0.015493 0.008022 0.000000 
0.004124 -0.017346 0.001000 
0.011480 0.020586 0.001924 
0.025746 -0.015221 0.074044 
-0.009862 0.023555 0.019550 
0.023045 -0.013734 0.005084 
-0.015745 0.008854 0.000000 
0.025408 -0.010579 0.053567 
0.015183 -0.024004 0.063829 
0.009748 -0.027257 0.056377 
-0.020298 -0.019757 0.058783 
0.030201 0.000306 0.049918 
0.014093 -0.019847 0.000000 
0.029628 -0.005294 0.042903 
-0.012655 -0.028631 0.065479 
-0.023280 0.016706 0.043635 
-0.016479 -0.006515 0.001000 
0.003552 0.025390 0.030277 
-0.018235 -0.019224 0.006570 
-0.017995 -0.001387 0.001000 
0.011182 0.022324 0.016871 
0.013426 0.027265 0.049351 
-0.009561 -0.029091 0.061160 
0.014767 0.000211 0.000000 
0.021305 0.019473 0.063412 
-0.012200 0.028285 0.076000 
-0.003691 -0.024395 0.017673 
-0.021012 0.016174 0.028758 
-0.021933 -0.022325 0.065244 
-0.021986 -0.000580 0.001000 
-0.022734 -0.016634 0.020109 
0.016954 0.019913 0.035583 
0.028385 -0.000881 0.020080 
0.019037 -0.014990 0.002626 
-0.013756 -0.007946 0.000000 
-0.026860 -0.003304 0.043009 
-0.015264 0.019936 0.023387 
-0.027551 -0.011873 0.041600 
0.031752 -0.000708 0.072408 
-0.018679 0.002445 0.000000 
0.001270 -0.027671 0.059170 
-0.021184 0.010014 0.000564 
-0.018834 0.025504 0.066398 
0.030855 0.006981 0.072717 
-0.010856 0.025181 0.010597 
-0.024450 -0.018985 0.053298 
0.010845 -0.023344 0.024736 
0.011989 -0.028441 0.056525 
-0.003052 0.027132 0.052340 
0.020097 -0.019578 0.022394 
-0.030400 -0.002209 0.052801 
-0.002676 -0.026218 0.040768 
0.016693 0.027410 0.074600 
0.012990 0.020296 0.010184 
0.023315 -0.000142 0.000000 
-0.027543 0.008646 0.069756 
0.018379 -0.019223 0.039300 
-0.023440 -0.020824 0.065324 
0.029255 -0.002646 0.030610 
-0.022747 0.012814 0.029790 
-0.004307 0.025187 0.027708 
-0.021021 0.012053 0.005755 
-0.007651 -0.018676 0.001000 
-0.023804 -0.002070 0.004896 
0.014794 0.019614 0.016767 
-0.009707 -0.011148 0.001000 
-0.001135 0.027790 0.015317 
-0.013495 0.028253 0.063335 
-0.023059 -0.020580 0.076000 
-0.024534 -0.014753 0.058753 
-0.010779 0.028469 0.048338 
0.024363 0.016540 0.062960 
0.003496 -0.023933 0.000000 
0.028286 0.013514 0.064202 
0.006273 0.026223 0.040825 
-0.011204 -0.028871 0.060161 
-0.021802 0.018774 0.060065 
0.001112 0.023062 0.000785 
-0.020787 0.019196 0.024860 
-0.023698 0.011744 0.037772 
0.020280 -0.020625 0.031636 
-0.029233 0.009393 0.054909 
-0.007993 -0.029427 0.048988 
-0.028098 0.011488 0.046199 
0.021956 0.008324 0.001000 
-0.022833 -0.015720 0.015206 
0.007777 -0.027236 0.022933 
-0.020057 -0.006779 0.001000 
-0.009801 0.004476 0.000000 
0.026458 -0.007035 0.052149 
0.024373 -0.011332 0.044667 
-0.029555 -0.003802 0.042104 
-0.001585 0.031327 0.066242 
0.025174 0.018174 0.063592 
-0.015522 -0.004241 0.001000 
-0.028594 -0.002298 0.021753 
-0.014389 -0.025670 0.074868 
-0.023252 -0.017409 0.029846 
-0.014298 -0.025317 0.031805 
-0.029752 0.010671 0.075477 
0.021348 -0.019579 0.031797 
0.029392 -0.004198 0.073740 
-0.004551 0.029715 0.040720 
0.000076 -0.024704 0.021584 
-0.004901 -0.021971 0.000000 
0.004549 0.021630 0.000000 
-0.025562 0.016131 0.075336 
-0.013409 0.026038 0.033502 
-0.013934 0.027121 0.051460 
-0.009846 -0.029096 0.071529 
-0.018548 -0.020218 0.050412 
0.009754 0.028538 0.066663 
-0.008378 0.030242 0.069505 
-0.015572 -0.004364 0.000000 
0.009691 -0.028396 0.068348 
0.020211 -0.022302 0.043433 
-0.026684 -0.009644 0.064037 
0.031729 0.003430 0.072201 
0.029235 -0.004829 0.074315 
0.026710 -0.001846 0.006391 
0.030607 0.006011 0.061147 
0.013795 0.023903 0.008360 
-0.021859 0.010165 0.009442 
-0.006397 0.029559 0.076000 
-0.026766 -0.011361 0.071148 
0.005726 -0.023321 0.004066 
0.025450 -0.016429 0.075205 
0.017870 -0.022579 0.069387 
0.017204 -0.027106 0.075011 
0.028816 0.008244 0.042209 
-0.015553 -0.024714 0.034894 
0.007929 0.030459 0.070965 
-0.008627 0.027505 0.029181 
0.008759 -0.026761 0.021188 
-0.007138 -0.029702 0.048770 
0.030561 -0.006713 0.064365 
-0.010218 -0.023892 0.025635 
-0.021047 -0.014855 0.014598 
-0.022739 0.016137 0.041446 
0.024350 0.002635 0.013334 
0.007227 0.028472 0.069312 
-0.022060 -0.018795 0.062181 
0.008964 0.027879 0.034538 
0.009950 0.022466 0.009121 
-0.016036 -0.017226 0.002482 
-0.011764 0.021312 0.011133 
0.031978 -0.001416 0.075678 
0.025630 -0.018368 0.063362 
0.022424 0.011398 0.020789 
-0.029386 0.003285 0.070361 
-0.024658 0.010082 0.043633 
-0.004568 0.029528 0.036605 
0.018003 -0.018526 0.002384 
-0.019191 0.021565 0.068925 
0.024472 -0.019086 0.055084 
-0.028710 -0.005380 0.032811 
-0.017034 -0.018582 0.023118 
0.014797 0.007491 0.001000 
-0.023611 -0.001961 0.002115 
0.014015 -0.024090 0.010676 
-0.026618 -0.000000 0.020771 
-0.025748 0.011076 0.018279 
-0.003442 0.014787 0.001000 
0.027829 -0.003725 0.055052 
0.020238 -0.017026 0.031421 
0.011159 -0.023878 0.032520 
0.031201 -0.003634 0.066707 
0.028710 -0.005084 0.032805 
-0.004593 0.028156 0.019998 
0.012882 -0.017483 0.001000 
0.000230 -0.026973 0.008753 
-0.016172 0.025613 0.047052 
0.024030 -0.014000 0.049854 
0.026548 -0.009606 0.062430 
0.004914 0.026320 0.042048 
-0.029693 0.008937 0.061610 
0.016691 -0.024950 0.039385 
-0.000751 0.004595 0.000000 
-0.021456 -0.022777 0.064871 
-0.011557 -0.025177 0.013860 
0.017397 -0.021986 0.059827 
0.004045 0.026083 0.039054 
0.016249 0.025462 0.045848 
0.029287 0.003568 0.035493 
-0.030301 -0.001071 0.051362 
0.021149 0.008535 0.001000 
-0.021337 0.016067 0.030102 
0.023534 -0.005415 0.013382 
0.022625 -0.016518 0.044000 
0.009637 0.028430 0.063727 
0.008263 -0.025995 0.037940 
-0.021231 0.022022 0.050663 
0.030933 0.005766 0.067296 
-0.026880 0.010158 0.068036 
-0.030980 -0.001473 0.061214 
-0.009391 0.027755 0.052854 
0.006254 0.020399 0.000000 
-0.001838 -0.028716 0.022728 
0.001736 -0.012479 0.000000 
-0.003034 -0.015637 0.001000 
-0.004507 0.031438 0.073308 
-0.019219 0.016289 0.016702 
-0.013262 0.027631 0.052140 
0.001586 0.015201 0.000000 
0.028455 0.014133 0.072356 
0.009670 -0.028200 0.063470 
-0.026387 -0.009988 0.021601 
-0.018490 -0.025035 0.054613 
-0.011482 -0.029043 0.065927 
0.027654 0.009975 0.035770 
-0.025798 -0.006096 0.041578 
0.020249 -0.024111 0.066724 
-0.023059 -0.019408 0.075840 
-0.025960 -0.014417 0.073462 
0.022596 0.018435 0.032555 
0.031385 0.005281 0.074971 
-0.023765 -0.011061 0.036194 
-0.007364 0.028355 0.033903 
0.018187 0.024326 0.043431 
0.004983 0.024826 0.001000 
0.027915 0.003169 0.016770 
-0.003785 0.023732 0.009266 
-0.019575 -0.018415 0.008957 
-0.010442 0.026465 0.024345 
0.025549 -0.006149 0.039069 
0.008330 0.025189 0.013450 
-0.006287 0.028125 0.027431 
-0.027318 0.007873 0.024078 
-0.002611 0.026378 0.042794 
-0.019896 0.017778 0.036283 
-0.017482 0.001455 0.000000 
-0.029732 0.003764 0.075853 
-0.013634 -0.024661 0.058962 
-0.029120 0.011315 0.066389 
-0.014852 0.027632 0.063672 
0.010209 0.020119 0.001000 
-0.009693 -0.028546 0.044550 
0.027121 0.015924 0.065885 
-0.017663 0.008156 0.000000 
-0.009078 0.028161 0.038060 
0.028010 -0.000000 0.035401 
0.008320 -0.028723 0.041462 
0.025099 0.018099 0.065126 
-0.026950 0.004594 0.048654 
0.005065 0.014421 0.000000 
-0.020577 0.017928 0.042763 
0.010960 0.020470 0.000000 
0.027132 -0.010013 0.030165 
0.007103 0.023521 0.006604 
-0.026881 0.004695 0.008466 
0.007389 -0.024137 0.014400 
0.022386 0.011601 0.021033 
-0.009475 0.028036 0.049233 
0.005463 -0.028664 0.030340 
-0.008331 0.022817 0.000648 
-0.029477 0.001704 0.065633 
-0.027602 0.011091 0.039292 
0.006399 0.029308 0.076000 
-0.016441 -0.006816 0.000000 
0.001882 0.029067 0.026480 
-0.019443 -0.024808 0.065142 
0.016207 0.021984 0.050920 
0.008771 0.014550 0.001000 
-0.001097 -0.029771 0.041957 
-0.023612 -0.017305 0.031742 
-0.031442 -0.000850 0.067911 
0.026426 0.007314 0.052811 
-0.006928 0.025615 0.033125 
-0.010310 0.022085 0.008017 
-0.011690 0.025758 0.020850 
-0.005686 0.030401 0.058616 
0.018452 -0.021421 0.061950 
0.019834 0.019731 0.055062 
0.024016 0.014043 0.049839 
0.025658 -0.010132 0.054663 
-0.023818 0.016482 0.056014 
-0.027734 0.013355 0.058099 
0.021266 -0.015171 0.007212 
-0.014259 -0.024568 0.020843 
0.006493 0.029011 0.037926 
-0.012685 -0.020162 0.006628 
-0.004173 -0.030513 0.058688 
-0.025672 -0.015300 0.073520 
-0.025803 0.018534 0.067167 
0.005866 0.027741 0.060046 
0.024339 0.017553 0.061505 
0.022209 0.010235 0.014027 
-0.027276 0.010626 0.034003 
0.027583 -0.000000 0.034705 
0.018772 0.022246 0.072729 
-0.029086 0.004549 0.036950 
0.025455 -0.009273 0.049358 
0.024918 -0.018074 0.064116 
-0.001408 0.027543 0.057550 
-0.001673 0.029910 0.045029 
0.023484 0.015210 0.047381 
-0.011925 0.009004 0.001000 
-0.021004 0.016887 0.008512 
0.021565 0.015542 0.005996 
0.028607 0.008753 0.041773 
-0.002529 -0.027150 0.052563 
0.020927 -0.022244 0.049482 
0.021799 -0.019442 0.034104 
-0.013500 0.019199 0.003181 
0.004711 -0.025695 0.003129 
-0.006763 0.027009 0.050777 
-0.020226 -0.014226 0.001330 
0.026352 -0.018094 0.073253 
-0.025156 0.009520 0.047001 
0.025763 -0.005904 0.040512 
-0.001134 0.029395 0.033697 
-0.022120 -0.022194 0.066040 
-0.012294 -0.020236 0.000000 
0.027960 -0.012193 0.048538 
0.011009 0.026338 0.025082 
-0.029008 -0.000000 0.038056 
-0.026847 -0.012199 0.035774 
0.028849 -0.013051 0.073968 
-0.003580 0.023903 0.011444 
0.022711 -0.016549 0.020897 
0.011604 0.021345 0.010271 
0.019657 0.020634 0.062936 
-0.018594 -0.017567 0.024636 
-0.024052 0.020278 0.066291 
-0.012053 -0.026210 0.062925 
0.028678 -0.008722 0.042441 
-0.013598 -0.023492 0.046793 
-0.014819 0.018673 0.007718 
0.005432 0.030576 0.057075 
0.029542 -0.000635 0.036925 
-0.021380 -0.017316 0.042673 
0.027117 0.006482 0.057295 
-0.030112 -0.000000 0.061479 
0.027942 -0.004959 0.060745 
0.023756 0.001924 0.003777 
0.007470 -0.025237 0.004373 
0.007109 -0.025383 0.030180 
0.028143 -0.003567 0.057894 
-0.027237 -0.002559 0.010899 
-0.024210 -0.008490 0.032610 
-0.008746 -0.013664 0.000000 
0.010222 0.026947 0.056759 
-0.016426 0.022023 0.012594 
0.002003 0.023200 0.002539 
-0.008111 0.007213 0.000000 
-0.022263 -0.015810 0.023261 
0.000683 -0.030181 0.049623 
0.003539 0.026957 0.050122 
-0.007059 0.015494 0.000000 
-0.029679 -0.001010 0.065311 
-0.025213 -0.019527 0.072227 
-0.030234 0.000147 0.050396 
0.023822 -0.017134 0.052274 
0.017689 -0.026588 0.072891 
-0.013218 -0.014468 0.000000 
0.007242 -0.027454 0.023420 
0.019670 -0.023943 0.055875 
-0.021633 0.022618 0.065143 
0.025578 -0.000000 0.015850 
0.023628 -0.016974 0.031113 
-0.025670 -0.010370 0.014516 
0.001528 0.008990 0.001000 
0.007167 -0.026087 0.007519 
0.016154 -0.013066 0.000000 
0.007963 -0.028984 0.043022 
0.022631 0.009545 0.000000 
-0.022093 -0.004299 0.000000 
-0.003249 0.002067 0.000000 
-0.007123 0.026600 0.045596 
-0.023690 0.017046 0.033559 
-0.023298 -0.007240 0.016907 
0.016435 -0.000941 0.001000 
-0.005594 0.024321 0.016729 
-0.022789 -0.006552 0.000000 
0.025261 0.003823 0.027526 
0.020664 -0.020094 0.064952 
0.021606 -0.021543 0.049162 
0.014340 -0.027182 0.055071 
-0.002040 0.030975 0.061137 
0.017011 0.020412 0.040915 
0.012472 -0.026809 0.036494 
0.003612 -0.017606 0.000000 
0.008146 0.026108 0.013401 
-0.016712 0.023713 0.030819 
-0.009074 -0.028241 0.039971 
0.029610 0.001724 0.067147 
-0.025686 0.001355 0.000621 
0.022163 -0.016690 0.015823 
0.010048 0.022051 0.005754 
0.004272 -0.003007 0.001000 
-0.008626 -0.029975 0.065502 
-0.022210 0.015216 0.031638 
0.010776 0.029412 0.068842 
-0.020204 0.017781 0.038579 
0.014708 -0.025901 0.043124 
0.017991 0.021991 0.064304 
-0.021880 0.012586 0.018261 
0.012386 0.027987 0.076000 
0.015616 0.015940 0.000000 
0.016302 -0.020962 0.041229 
0.007897 0.027496 0.056945 
0.025103 0.013952 0.026149 
-0.016481 0.023654 0.069961 
0.016984 0.017325 0.010421 
0.014386 0.028393 0.076000 
0.000715 -0.024092 0.013835 
0.002404 -0.024564 0.019813 
-0.026587 -0.000000 0.022186 
-0.016634 -0.022424 0.058585 
0.021989 -0.015730 0.019678 
0.001841 0.029094 0.027070 
0.002299 -0.023634 0.008028 
0.017481 0.022280 0.023093 
-0.011420 -0.000233 0.001000 
0.023441 0.012926 0.005463 
-0.004334 -0.027202 0.012230 
-0.010990 -0.027563 0.068763 
-0.026362 0.005352 0.045013 
0.028188 0.003164 0.018941 
0.019399 -0.023690 0.048281 
0.024849 -0.005204 0.028048 
-0.008328 -0.026732 0.019098 
-0.024822 0.018010 0.061639 
0.004009 0.028074 0.017590 
0.007433 0.024961 0.024845 
0.015973 0.019716 0.000000 
-0.003214 0.028371 0.068028 
-0.020508 0.019999 0.062815 
0.008893 -0.029362 0.076000 
-0.010279 -0.021728 0.001000 
-0.004521 0.030326 0.056457 
-0.021213 -0.015339 0.022056 
-0.023363 0.017291 0.029795 
0.004642 -0.024371 0.001000 
0.002698 -0.025696 0.034147 
0.018273 0.022519 0.030811 
0.008436 0.027112 0.052083 
-0.010160 -0.029003 0.055469 
0.029232 -0.000516 0.030105 
0.004611 0.028444 0.068958 
0.011229 -0.028085 0.075860 
-0.017681 0.021459 0.018125 
0.026781 -0.001284 0.007033 
0.027523 -0.016042 0.071121 
-0.023362 -0.016689 0.037982 
0.008643 -0.028773 0.043199 
-0.020462 0.019107 0.021548 
-0.024181 -0.007835 0.029931 
-0.030170 -0.007797 0.063732 
0.009409 -0.028426 0.042184 
-0.029033 0.003022 0.025877 
-0.028148 -0.003503 0.057718 
0.026943 -0.014159 0.053644 
-0.000819 0.031734 0.072145 
-0.019400 -0.019695 0.017762 
0.024984 0.012021 0.054194 
0.014607 0.006219 0.001000 
0.005133 0.005749 0.001000 
-0.001245 -0.027478 0.012822 
0.009120 -0.028774 0.047993 
0.016922 0.026452 0.065847 
0.008669 -0.025766 0.035042 
-0.007150 -0.029075 0.041042 
0.024020 -0.008710 0.031040 
0.021403 -0.011932 0.010049 
-0.028503 -0.003944 0.063160 
0.024573 0.017787 0.061665 
0.008827 0.028632 0.071345 
-0.013220 -0.012721 0.001000 
0.018057 0.024681 0.045078 
0.018553 -0.018588 0.034356 
0.011782 0.028579 0.058024 
0.003384 0.026061 0.038767 
0.019214 -0.021154 0.064917 
0.016028 -0.025171 0.038974 
0.029002 -0.000000 0.027780 
0.005420 0.030735 0.060676 
-0.026049 0.017171 0.056600 
-0.020313 0.020367 0.029988 
0.009452 -0.027078 0.052349 
-0.019301 -0.024901 0.064426 
-0.026975 -0.015495 0.061193 
-0.018276 -0.022422 0.070822 
-0.009184 -0.027248 0.035934 
0.013342 -0.025258 0.062859 
-0.017104 -0.022978 0.025597 
-0.028248 -0.000000 0.035762 
-0.005440 0.028561 0.070442 
0.026133 -0.009513 0.057588 
