
# .PCD v.6 - Point Cloud Data file format
FIELDS x y z 
SIZE 4 4 4 
TYPE F F F 
COUNT 1 1 1 
WIDTH 1645
HEIGHT 1
VIEWPOINT 0.000000 0.000000 0.000000 1.000000 0.000000 0.000000 0.00000
POINTS 1645
DATA ascii
0.021381 0.024747 0.068567 
-0.021896 0.015896 0.007394 
-0.000304 -0.014703 0.000000 
-0.027444 -0.015417 0.048599 
0.004549 -0.018747 0.000000 
0.018071 0.027374 0.073447 
0.016766 0.020937 0.031024 
0.006325 0.028907 0.062971 
0.029016 0.010800 0.036163 
-0.020276 0.019409 0.040498 
-0.011594 0.027740 0.064934 
-0.024124 -0.018307 0.030737 
0.020546 0.021737 0.066425 
-0.016378 0.022629 0.005287 
-0.027318 0.005915 0.042213 
-0.028786 0.011592 0.041559 
0.027063 0.007671 0.046081 
0.010424 -0.023499 0.012279 
-0.025980 -0.011249 0.046667 
-0.004001 -0.029280 0.022911 
-0.023411 0.016648 0.029394 
-0.006254 -0.030627 0.043894 
0.011549 0.014567 0.001000 
-0.025084 -0.006989 0.001000 
0.016629 0.021974 0.040783 
-0.026652 -0.015018 0.036863 
0.015586 0.026076 0.032161 
-0.020476 -0.020485 0.017689 
-0.022343 0.015743 0.001101 
0.019885 -0.023260 0.038600 
-0.030634 -0.005840 0.043979 
0.024134 -0.011044 0.023165 
-0.026921 0.005891 0.004422 
-0.013560 0.026295 0.063977 
0.021183 0.024066 0.060076 
0.005902 0.028769 0.022309 
0.009918 0.029755 0.059360 
-0.024472 0.018045 0.034198 
0.009434 0.023632 0.000000 
-0.007801 0.024589 0.007562 
-0.014808 0.026607 0.034966 
0.005335 0.025944 0.024954 
-0.018836 0.023353 0.028076 
0.001076 -0.029029 0.064534 
-0.021610 0.022031 0.044051 
0.013159 -0.012174 0.000000 
-0.028021 -0.002096 0.034901 
0.024954 -0.018041 0.044861 
0.026996 -0.010750 0.014631 
0.026650 -0.014618 0.067973 
-0.027158 0.008008 0.048562 
-0.023364 0.016660 0.011319 
0.025286 -0.014416 0.015406 
0.008037 0.025420 0.001423 
-0.015236 -0.010033 0.001000 
0.022943 0.016424 0.019964 
-0.012854 -0.022109 0.000000 
-0.010142 -0.017420 0.001000 
0.002743 -0.017563 0.000000 
-0.024226 -0.013677 0.034521 
0.001791 0.031295 0.052273 
-0.012875 -0.021789 0.012135 
-0.020822 -0.021967 0.070864 
-0.016407 0.021212 0.031617 
0.009792 -0.030469 0.059581 
-0.027543 0.011608 0.029711 
0.004858 -0.029457 0.027675 
0.006122 -0.007207 0.000000 
-0.025271 0.018286 0.047817 
-0.001791 -0.031565 0.052700 
-0.023963 0.020373 0.076721 
0.001343 -0.030205 0.030508 
0.009223 -0.028798 0.047086 
0.031235 0.006293 0.077000 
0.024140 0.008416 0.012128 
-0.030873 -0.000000 0.059115 
-0.021120 -0.006657 0.000000 
-0.008783 -0.026349 0.026107 
-0.010196 -0.029090 0.068926 
0.010816 -0.029959 0.054715 
0.009904 -0.024628 0.000000 
0.032825 0.000343 0.071917 
0.009575 -0.029573 0.038624 
0.019327 -0.021885 0.019697 
-0.026686 -0.015409 0.071499 
-0.009057 0.028259 0.022512 
0.014070 0.026682 0.071572 
0.001603 0.030645 0.040191 
0.025073 -0.018899 0.048071 
0.026555 0.005664 0.002217 
-0.005749 0.024823 0.010565 
0.009633 -0.029633 0.057636 
-0.023309 -0.016175 0.032947 
0.032129 -0.002837 0.064375 
-0.019139 0.017982 0.017629 
0.013088 -0.019848 0.000000 
-0.032397 -0.000000 0.073457 
0.018857 0.023297 0.027694 
0.030894 -0.002120 0.039217 
-0.009906 -0.025045 0.024656 
-0.028587 0.000466 0.035195 
0.003223 0.007243 0.001000 
-0.022074 -0.014169 0.009975 
-0.021572 -0.017121 0.026031 
0.019392 0.025182 0.054426 
0.031530 0.002098 0.051324 
0.017637 -0.011034 0.000000 
0.017354 -0.022633 0.053076 
0.023246 -0.013151 0.020432 
0.028672 0.011206 0.035424 
-0.008177 -0.025692 0.006833 
-0.026010 -0.002536 0.010975 
0.014716 0.023712 0.045204 
-0.024393 0.014589 0.008714 
0.030997 -0.009495 0.072016 
-0.028371 0.015007 0.063081 
-0.023559 0.016911 0.024924 
-0.022336 0.018991 0.050821 
0.024838 -0.018605 0.043878 
-0.025806 -0.016754 0.065891 
-0.028435 -0.015237 0.058080 
0.006315 0.017933 0.000000 
-0.003787 -0.024440 0.005642 
0.025770 -0.010588 0.041518 
0.010970 -0.022547 0.006286 
0.008884 0.026651 0.023844 
-0.024532 -0.016425 0.021027 
-0.012414 0.027945 0.036209 
0.017516 -0.022304 0.050821 
0.029337 0.002080 0.051717 
-0.024253 -0.019639 0.046804 
0.016874 0.027142 0.058515 
-0.020772 -0.011630 0.000000 
0.030978 0.003211 0.047520 
-0.027793 -0.010815 0.026030 
0.009737 -0.025235 0.025415 
-0.017984 0.006508 0.001000 
-0.003922 -0.028698 0.060291 
0.031284 0.001378 0.073549 
-0.030486 -0.000000 0.045247 
0.029023 0.008647 0.073966 
-0.023971 0.011139 0.000000 
-0.014690 0.022333 0.000000 
-0.018634 -0.019847 0.002406 
-0.031284 0.003202 0.077000 
0.004042 0.028739 0.018694 
-0.026149 0.018909 0.063972 
-0.028404 0.013368 0.043541 
-0.013612 -0.025272 0.010830 
0.025146 -0.018400 0.056916 
0.010375 -0.025076 0.028367 
0.000912 -0.031060 0.041008 
-0.021291 -0.014796 0.000000 
-0.009950 0.016726 0.001000 
-0.007117 -0.031758 0.071111 
0.014773 -0.022255 0.030693 
-0.028933 -0.007033 0.024929 
-0.025994 -0.018935 0.075748 
0.001781 -0.028640 0.013746 
-0.008908 -0.027311 0.034958 
-0.000750 0.006927 0.000000 
-0.000409 -0.029637 0.020188 
0.004618 0.028782 0.061365 
-0.023156 0.016952 0.011196 
0.025262 0.018293 0.047650 
0.029017 -0.008809 0.026188 
0.017696 -0.006405 0.000000 
-0.032478 0.004613 0.077000 
-0.022631 0.022687 0.060737 
0.024898 0.018650 0.065513 
0.028197 -0.015549 0.077000 
-0.010938 -0.028411 0.067198 
-0.001825 0.029234 0.067175 
-0.013211 0.024661 0.044512 
-0.027604 -0.002706 0.006038 
-0.008815 -0.021194 0.001000 
0.010377 0.023237 0.009110 
-0.022972 0.022222 0.059543 
-0.029063 0.007532 0.026688 
-0.017222 -0.024411 0.070543 
0.008696 0.026593 0.016707 
-0.025867 0.017934 0.050263 
-0.027779 -0.001060 0.007790 
0.016831 -0.002058 0.001000 
0.000755 0.027000 0.000517 
0.026237 0.012239 0.015704 
-0.008385 -0.025154 0.005685 
0.012846 0.023914 0.033893 
0.011177 -0.024061 0.023578 
0.028950 -0.001286 0.017604 
0.004735 -0.027642 0.046743 
0.023767 0.010646 0.016880 
-0.015602 -0.010420 0.000000 
-0.007916 0.029275 0.029026 
0.009460 0.029329 0.050098 
-0.002158 0.019658 0.001000 
0.027074 -0.015132 0.075188 
-0.009198 -0.028274 0.027128 
-0.016856 0.024817 0.072142 
0.023121 0.016531 0.022696 
-0.008402 0.025873 0.015464 
-0.007837 -0.023514 0.001000 
-0.029632 0.007220 0.032948 
-0.030292 0.006555 0.040216 
0.024785 0.009929 0.000000 
-0.001633 -0.026188 0.028082 
0.024892 0.017772 0.044055 
0.008624 0.026307 0.024030 
0.020413 -0.021481 0.062921 
-0.028602 -0.010165 0.029123 
0.030436 0.010566 0.066124 
0.026751 -0.001504 0.016073 
-0.015137 0.019681 0.006490 
0.017660 -0.020434 0.000472 
0.000123 0.027448 0.044253 
0.011753 -0.024183 0.028997 
-0.022480 -0.012528 0.000000 
-0.021040 -0.009510 0.000000 
0.008335 0.023908 0.000000 
0.007206 -0.026625 0.033693 
-0.030409 0.002541 0.034992 
0.031912 -0.002192 0.061218 
-0.027834 0.008850 0.060137 
-0.022712 0.021267 0.047764 
0.013537 0.024768 0.047766 
0.009717 -0.030254 0.061123 
0.019102 -0.022179 0.060820 
0.026462 -0.015249 0.034986 
-0.014953 0.023657 0.046585 
0.004053 -0.001368 0.000000 
-0.003465 0.028725 0.060632 
0.012517 -0.010268 0.000000 
0.024630 0.018957 0.043457 
0.029073 -0.007144 0.068746 
-0.027923 0.011211 0.031236 
0.004746 0.030933 0.077000 
0.021764 0.013412 0.003016 
0.022697 0.014804 0.020107 
-0.000356 -0.004363 0.001000 
0.030034 -0.011250 0.061071 
0.011022 0.009940 0.001000 
0.015580 -0.017342 0.000000 
-0.006251 -0.011543 0.000000 
0.000501 0.032630 0.071640 
0.000206 0.027938 0.050533 
-0.030641 -0.010729 0.073620 
-0.029045 -0.001623 0.046017 
0.018616 -0.017468 0.008519 
0.006153 0.029995 0.035867 
0.000489 -0.026597 0.033330 
0.001532 -0.025724 0.022126 
-0.017769 -0.023028 0.060119 
0.020493 0.024257 0.055250 
0.028522 -0.010425 0.074712 
0.017058 -0.021633 0.040612 
-0.029662 0.012839 0.065645 
-0.006770 0.030415 0.041563 
-0.018107 0.019484 0.025825 
-0.019184 0.021778 0.017697 
-0.011572 0.029680 0.053927 
0.024555 -0.014686 0.010116 
-0.025037 -0.012899 0.041468 
0.031060 -0.001891 0.072778 
0.006053 -0.001862 0.000000 
-0.000062 0.026923 0.000000 
0.003570 0.030608 0.039379 
-0.022057 -0.014457 0.010885 
0.025729 -0.000864 0.000214 
0.027361 0.001917 0.003609 
-0.009040 -0.030861 0.063696 
-0.004841 0.032284 0.073287 
0.029047 0.002412 0.018378 
-0.032722 -0.000808 0.068924 
0.026717 0.000401 0.010919 
-0.028742 -0.000317 0.015936 
0.031726 0.000840 0.076893 
-0.021984 0.020271 0.061577 
-0.027728 0.008650 0.058068 
0.005779 -0.029877 0.035650 
-0.029888 0.012738 0.071221 
-0.029910 0.007768 0.036010 
0.026189 0.017965 0.053418 
-0.030705 0.010085 0.069258 
-0.026099 -0.011155 0.047759 
-0.013937 -0.001793 0.001000 
-0.006753 0.031808 0.071423 
-0.023201 0.017081 0.028456 
-0.010295 -0.029577 0.074715 
0.025187 0.018156 0.046907 
0.002943 0.030741 0.042299 
-0.027746 -0.016227 0.057760 
-0.010221 0.028993 0.068094 
-0.031390 -0.005712 0.059297 
0.027917 -0.005883 0.049643 
-0.027726 -0.001906 0.007260 
-0.021015 -0.001971 0.000000 
0.026689 0.001640 0.000000 
0.003497 0.024747 0.000000 
0.007323 0.025350 0.017323 
0.005617 0.028247 0.013949 
-0.025524 -0.012521 0.045992 
-0.024438 0.015249 0.043234 
0.017434 -0.022716 0.011201 
-0.029394 0.006491 0.030338 
-0.025080 -0.010754 0.000000 
-0.020400 0.019720 0.044599 
0.030528 0.011353 0.076387 
-0.009395 0.029653 0.042178 
-0.026137 -0.003927 0.018550 
-0.028407 0.014232 0.054606 
0.007359 0.024941 0.012076 
-0.010412 -0.025805 0.004570 
-0.014173 -0.022407 0.000000 
-0.008277 0.031197 0.066063 
-0.019169 0.026443 0.070566 
-0.020045 -0.021206 0.057450 
0.014987 0.024903 0.015388 
0.015093 -0.021094 0.001000 
0.027983 -0.005954 0.009836 
-0.021851 -0.021710 0.075531 
-0.025035 0.018771 0.067759 
-0.016202 0.020126 0.018810 
0.017370 0.018258 0.007682 
-0.000851 0.032979 0.076700 
-0.016634 -0.028163 0.070995 
0.030224 0.009155 0.047047 
0.024545 0.016656 0.022626 
-0.001520 -0.031012 0.037418 
-0.029003 -0.000719 0.018025 
-0.012464 -0.022700 0.018671 
0.027408 0.006889 0.047287 
-0.025732 0.006530 0.024490 
-0.032443 0.001114 0.068923 
-0.026839 0.015049 0.037512 
-0.023617 -0.017594 0.021624 
0.023443 -0.021416 0.056299 
0.000614 0.027158 0.040534 
0.016510 0.022858 0.049159 
-0.002675 0.004554 0.000000 
-0.001595 -0.028488 0.057602 
0.012227 0.025899 0.050172 
-0.028593 -0.001930 0.041536 
-0.026060 0.011891 0.010186 
-0.032022 0.000067 0.049297 
0.030616 0.002244 0.068698 
-0.029311 -0.014075 0.064821 
0.009626 0.028503 0.025362 
0.005618 0.026990 0.038372 
0.016884 0.003269 0.001000 
0.028827 -0.006013 0.023299 
-0.021481 0.018064 0.035148 
-0.018766 -0.023125 0.025126 
-0.009070 -0.030639 0.057530 
-0.018598 0.000713 0.001000 
0.022957 -0.000019 0.001000 
-0.024229 0.012490 0.029954 
0.029006 -0.012370 0.046076 
0.015885 0.019716 0.012123 
0.010811 0.027261 0.021750 
-0.023353 0.016685 0.025698 
-0.022908 -0.014271 0.000216 
-0.002353 0.016892 0.000000 
-0.015474 -0.022825 0.041687 
0.031112 -0.009037 0.070923 
-0.002553 -0.031360 0.053218 
-0.025625 -0.007211 0.026033 
0.018745 -0.016793 0.002411 
0.022301 -0.016342 0.003218 
-0.003813 0.005564 0.001000 
-0.019256 0.016944 0.007683 
-0.007446 0.028013 0.017914 
-0.030559 -0.005636 0.043154 
0.026698 -0.006584 0.003491 
-0.025066 0.007606 0.020545 
-0.013872 0.026549 0.028850 
-0.019262 0.026236 0.068452 
0.027880 -0.008364 0.058827 
-0.003407 0.005148 0.000000 
-0.030115 0.003952 0.035499 
0.024284 0.009132 0.001000 
0.000396 -0.024720 0.009245 
-0.023632 -0.008732 0.006963 
0.004631 0.027547 0.045522 
0.010143 -0.030217 0.055666 
0.015525 -0.026082 0.031702 
-0.008975 0.027386 0.037519 
-0.025367 -0.017386 0.038649 
-0.024398 0.017768 0.051474 
-0.007566 -0.028058 0.018464 
0.019475 0.021702 0.058381 
-0.028413 0.003124 0.013634 
0.023010 -0.018221 0.019842 
-0.025041 -0.018979 0.048437 
-0.021162 -0.017021 0.022085 
-0.023848 0.017221 0.042760 
-0.025430 0.010897 0.038535 
0.024471 -0.012744 0.033916 
0.004032 -0.028928 0.063242 
0.032028 -0.002851 0.062902 
-0.001832 -0.026887 0.037049 
-0.023242 0.016881 0.017284 
0.010392 0.026648 0.044823 
0.022508 0.022632 0.059021 
0.009919 0.024782 0.021945 
-0.022929 0.014394 0.021358 
0.015875 -0.029066 0.070773 
-0.027512 -0.008728 0.055710 
0.022933 0.016481 0.017393 
0.023917 0.013780 0.031124 
0.022306 0.016054 0.009724 
0.023634 0.017094 0.040312 
-0.000710 -0.017333 0.000000 
-0.032152 0.001630 0.064704 
-0.014368 0.011499 0.001000 
-0.023764 -0.020122 0.072703 
-0.019963 0.017173 0.015118 
-0.024340 0.017425 0.046684 
-0.014921 0.016724 0.001000 
0.015966 -0.028166 0.060432 
-0.016768 -0.022880 0.051462 
0.031654 -0.007192 0.068824 
0.021856 -0.017116 0.028002 
-0.026300 0.006030 0.001501 
-0.031823 0.003463 0.061608 
-0.023412 0.018516 0.025421 
0.019648 -0.021721 0.059964 
-0.025665 -0.016524 0.034993 
0.022000 0.016000 0.001205 
-0.021750 -0.014339 0.006660 
-0.002565 -0.024336 0.004317 
-0.023426 0.017733 0.045563 
-0.022558 -0.021642 0.049938 
-0.022650 0.019952 0.032627 
0.015751 0.024063 0.056294 
0.014758 0.023198 0.003361 
0.021623 0.014566 0.005979 
-0.017846 0.017815 0.006582 
-0.028002 0.013774 0.041633 
0.008906 -0.025768 0.000522 
0.028504 0.013706 0.047669 
0.003860 -0.027166 0.040634 
0.010769 0.019649 0.001000 
0.025222 -0.014781 0.017123 
-0.024087 -0.010637 0.020954 
0.023550 -0.021980 0.062788 
0.030991 0.007491 0.052482 
0.028338 -0.005830 0.014506 
-0.023868 -0.021471 0.060942 
-0.027235 0.002522 0.002355 
0.002078 -0.009046 0.001000 
0.023532 -0.019225 0.061764 
-0.008626 -0.028869 0.062485 
0.013864 -0.023557 0.002446 
-0.019413 0.014892 0.001000 
0.010823 0.030623 0.074033 
0.014657 -0.029482 0.073985 
0.028569 0.014562 0.054634 
-0.009696 0.001521 0.000000 
-0.028824 -0.007620 0.067530 
0.001099 0.024859 0.000000 
-0.000629 -0.025559 0.020009 
0.024113 0.016378 0.043628 
0.020468 0.021991 0.031055 
-0.029145 -0.001950 0.048703 
0.025478 0.004454 0.001000 
-0.022440 0.016089 0.013528 
-0.021070 -0.010755 0.000000 
0.032747 0.001724 0.069673 
-0.023531 -0.022953 0.072005 
-0.009934 -0.028768 0.063678 
-0.021390 -0.015390 0.000110 
-0.007660 0.025070 0.013732 
0.030435 -0.000000 0.053990 
0.013227 0.022614 0.001000 
-0.003253 -0.030586 0.040749 
0.008621 -0.026393 0.020617 
0.025067 0.006844 0.017308 
0.010879 0.027660 0.025302 
0.026153 -0.006989 0.031867 
-0.003577 0.027754 0.048175 
0.025512 0.018611 0.069430 
0.015639 0.024828 0.063475 
0.013403 -0.014068 0.001000 
-0.024178 -0.014197 0.035956 
-0.012785 0.020868 0.001890 
-0.031153 -0.000150 0.066774 
0.023005 -0.022593 0.063439 
-0.023982 -0.010893 0.001000 
-0.026925 0.009242 0.050488 
-0.021925 -0.017531 0.007282 
-0.006600 0.012355 0.000000 
0.005228 -0.032176 0.069247 
-0.009513 0.028875 0.053960 
0.029519 -0.006175 0.070467 
0.011928 0.029947 0.065094 
0.027111 0.010176 0.017161 
0.027313 0.004105 0.003407 
0.009628 -0.002107 0.000000 
-0.029070 0.012383 0.046719 
0.014241 -0.022697 0.000000 
0.026390 -0.003078 0.018165 
0.012133 0.027260 0.028871 
0.005037 -0.003647 0.001000 
-0.012996 -0.029933 0.075023 
0.007271 -0.012046 0.001000 
0.002013 0.017390 0.000000 
-0.030382 -0.002900 0.068364 
0.024026 0.019695 0.044932 
-0.020752 0.020313 0.053240 
-0.018877 -0.026573 0.069616 
-0.012087 0.027083 0.027166 
-0.001440 0.026446 0.031396 
0.014426 -0.018638 0.000000 
0.008311 0.026405 0.011974 
0.007631 -0.008515 0.001000 
-0.025855 -0.000911 0.002042 
0.008432 0.026668 0.008807 
-0.024965 -0.017853 0.054920 
0.025175 0.012284 0.040781 
-0.026483 -0.018974 0.069394 
-0.029781 0.007940 0.034594 
-0.009826 -0.028779 0.028719 
0.031879 0.005593 0.063280 
0.008023 0.031082 0.060270 
-0.027461 0.002967 0.031438 
-0.026549 0.011371 0.054135 
-0.031525 -0.000810 0.043480 
0.028086 -0.006135 0.012095 
0.000576 -0.025641 0.000000 
-0.013810 0.024524 0.047399 
0.002040 0.028832 0.062007 
0.030088 0.001522 0.058977 
-0.009498 -0.029799 0.043569 
-0.029865 -0.008257 0.041249 
-0.025867 -0.014587 0.022753 
-0.008726 -0.030786 0.058481 
-0.011235 -0.025591 0.039943 
-0.004342 0.011693 0.000000 
-0.018803 0.021887 0.055656 
0.009030 0.027768 0.039655 
0.025041 -0.021144 0.071240 
-0.022021 -0.023575 0.063432 
0.025949 -0.012658 0.012965 
-0.022881 -0.001170 0.000000 
-0.017629 0.013784 0.000000 
-0.024900 -0.014904 0.047575 
-0.011612 0.028384 0.071746 
0.013196 0.021882 0.015259 
0.024887 0.008974 0.024110 
-0.031743 -0.007165 0.071138 
-0.009320 -0.028180 0.031439 
-0.029513 -0.009937 0.039616 
-0.024833 0.019274 0.071528 
-0.022479 0.016462 0.025668 
0.025647 -0.010356 0.039099 
-0.021021 0.023931 0.057199 
0.017916 0.026940 0.065651 
-0.025261 -0.004046 0.000000 
-0.024598 -0.019042 0.067456 
-0.006572 -0.032092 0.077000 
-0.025717 0.006384 0.023683 
-0.019951 -0.023718 0.044352 
-0.012051 -0.022176 0.001000 
-0.016824 -0.021974 0.042483 
-0.019501 -0.008024 0.000000 
0.030324 0.008221 0.043558 
-0.013498 0.013496 0.000000 
0.023893 0.016983 0.038177 
0.025402 -0.004314 0.010780 
0.002972 -0.030114 0.028516 
0.008423 -0.029876 0.075408 
0.008710 0.027512 0.013324 
0.006653 -0.029712 0.073310 
-0.011931 -0.013311 0.001000 
0.025546 0.005315 0.016909 
0.001473 -0.024600 0.000000 
0.009499 0.030475 0.056941 
-0.020092 0.024744 0.056074 
-0.004531 -0.007474 0.000000 
-0.013307 0.021256 0.009699 
-0.029123 0.013811 0.067262 
0.008352 -0.026929 0.037592 
-0.019149 0.024631 0.045578 
-0.002542 0.028254 0.054595 
-0.015305 -0.024252 0.055257 
0.030191 -0.001020 0.028096 
-0.032637 -0.004017 0.075428 
-0.029755 0.002062 0.057003 
0.009321 -0.028158 0.049657 
0.009945 -0.027097 0.046337 
0.024130 -0.020151 0.075614 
-0.029744 0.013234 0.074100 
0.018204 0.018169 0.012721 
0.008376 0.026609 0.014472 
0.015676 -0.025035 0.066002 
-0.030406 -0.011619 0.075430 
0.000844 0.032445 0.068954 
0.000873 0.031728 0.058563 
0.024112 -0.017636 0.040310 
-0.010392 0.030784 0.074541 
0.012290 -0.024493 0.036108 
-0.018981 -0.018334 0.000000 
-0.013512 0.028112 0.043492 
-0.006426 0.004639 0.001000 
-0.000944 0.027945 0.009447 
0.026128 0.010119 0.044093 
-0.001847 -0.030483 0.031309 
-0.015431 0.024699 0.060773 
0.027303 0.009090 0.012901 
0.010884 -0.025217 0.033508 
0.022364 -0.014771 0.015880 
-0.026020 -0.005419 0.000000 
-0.028754 -0.000000 0.028900 
0.021941 -0.023036 0.057443 
0.010000 -0.030141 0.076203 
0.012677 -0.026139 0.015831 
-0.022520 -0.023114 0.063797 
0.004743 0.026113 0.027120 
0.009214 0.028885 0.028073 
0.008373 0.030773 0.054689 
-0.007437 0.025379 0.017693 
0.014513 -0.024601 0.053219 
0.015655 -0.023809 0.053154 
-0.020332 -0.016669 0.000000 
-0.023040 0.021378 0.052042 
0.026052 -0.016264 0.067020 
-0.021833 0.016018 0.016466 
0.018633 0.019501 0.029540 
-0.008850 0.025731 0.024184 
0.015805 -0.002912 0.000000 
0.006174 0.029930 0.076107 
-0.030617 0.006053 0.043789 
0.023096 0.016969 0.012678 
0.001019 -0.024954 0.012238 
0.025851 0.011539 0.046203 
0.023280 0.017117 0.014987 
0.007470 -0.024257 0.003300 
-0.030361 0.001918 0.033938 
0.004867 -0.028420 0.016718 
0.012181 0.029718 0.060900 
-0.008517 -0.018877 0.000000 
0.013909 -0.022880 0.030974 
0.031604 0.000768 0.075116 
-0.024789 0.018789 0.044380 
-0.014663 0.019879 0.005131 
0.005316 -0.025873 0.000000 
-0.013098 0.027985 0.040165 
0.020581 0.010292 0.000000 
0.004997 -0.024387 0.004969 
0.024944 -0.004048 0.003759 
0.030710 0.001492 0.066831 
-0.019830 -0.024981 0.059754 
-0.020363 0.020125 0.013900 
-0.032004 -0.005385 0.071204 
-0.006966 -0.028058 0.052082 
-0.001683 -0.029802 0.074459 
0.022662 0.010842 0.001000 
0.028331 -0.016359 0.070768 
-0.005703 0.011194 0.000000 
-0.019000 -0.002135 0.001000 
0.007279 -0.031470 0.064327 
-0.000393 0.030185 0.030073 
-0.022511 0.020223 0.034074 
0.014020 -0.024509 0.048764 
0.012479 -0.029562 0.059261 
-0.021877 -0.000915 0.001000 
-0.032061 -0.001726 0.057224 
0.027688 0.008712 0.057813 
-0.012339 -0.023074 0.021664 
0.013713 -0.029192 0.058749 
-0.023361 0.017018 0.034147 
0.020962 -0.024334 0.062233 
-0.023476 -0.008349 0.003327 
-0.002924 0.024392 0.005030 
0.017886 0.026220 0.054916 
0.009578 0.029155 0.031742 
-0.026045 -0.011283 0.047597 
0.027199 0.017209 0.058930 
0.016105 -0.021559 0.000000 
0.025324 0.006516 0.019202 
-0.028986 -0.000000 0.019180 
0.023348 0.008351 0.001685 
-0.028466 -0.005606 0.055313 
0.024874 0.008396 0.021464 
-0.012804 0.024390 0.002965 
0.016329 0.025576 0.076243 
0.014437 -0.023065 0.036720 
0.013071 -0.029708 0.069036 
0.025505 -0.015853 0.058701 
0.022811 0.023649 0.071779 
0.005310 0.030307 0.036158 
-0.009974 0.030720 0.069052 
-0.030394 0.008384 0.045611 
-0.026051 0.004770 0.021060 
-0.030464 0.008822 0.050076 
-0.029340 0.001692 0.050105 
-0.016142 0.019863 0.015638 
-0.025618 0.011664 0.043818 
-0.012031 -0.024192 0.031099 
0.025638 -0.015035 0.022745 
0.014684 -0.020899 0.015914 
-0.002737 0.026375 0.030483 
-0.029745 -0.001848 0.055960 
-0.029074 0.013341 0.056739 
0.027157 -0.014567 0.041416 
0.030878 0.001639 0.035659 
0.004786 -0.029842 0.074976 
-0.025731 -0.017627 0.045573 
0.008953 -0.028633 0.025629 
-0.002218 0.024810 0.000000 
-0.029100 0.013822 0.066795 
-0.026566 0.006762 0.036185 
-0.008340 0.025465 0.013094 
0.009260 0.028941 0.029170 
0.014787 -0.025457 0.064032 
-0.001689 -0.009261 0.000000 
-0.024886 0.004415 0.000000 
-0.019337 -0.022784 0.068745 
-0.008853 -0.026559 0.016399 
0.031080 0.002897 0.048666 
0.011290 0.022552 0.008560 
0.007841 0.030398 0.044968 
-0.029102 0.002693 0.051333 
0.009773 -0.030356 0.068262 
0.027000 0.002133 0.000511 
-0.027481 0.002883 0.031345 
0.012478 -0.029422 0.055204 
-0.008652 0.030893 0.060866 
0.004028 -0.028056 0.052047 
-0.010914 -0.026986 0.014991 
0.020859 -0.024884 0.067468 
-0.029415 0.007761 0.030562 
-0.013087 -0.027190 0.031209 
0.027173 -0.004598 0.034716 
0.005493 -0.028054 0.052032 
0.029100 -0.012126 0.046197 
0.030639 -0.000000 0.033480 
-0.013010 -0.024333 0.004476 
-0.010149 0.030189 0.054908 
0.021907 0.023230 0.058990 
0.002894 -0.031716 0.058385 
0.031430 -0.001441 0.046015 
0.028112 -0.000217 0.010894 
0.000615 -0.029331 0.018581 
-0.027327 0.013296 0.071171 
-0.013000 -0.022910 0.024735 
0.006678 0.018070 0.001000 
-0.010000 0.030364 0.060546 
0.022872 0.018714 0.022685 
0.026451 0.008377 0.004327 
0.014435 0.027011 0.039482 
-0.010975 -0.024855 0.030393 
0.007664 -0.028710 0.021357 
-0.022645 0.015525 0.002085 
-0.020245 -0.021831 0.026839 
0.001775 0.029984 0.076795 
0.011375 -0.027342 0.025400 
0.025251 0.013469 0.009903 
0.017420 -0.018803 0.013811 
-0.004660 0.031188 0.053452 
0.019813 -0.020267 0.046080 
-0.023559 0.018128 0.050604 
0.027967 0.000400 0.026956 
-0.014352 0.025669 0.063132 
-0.016276 -0.021559 0.034281 
0.015327 -0.019679 0.007836 
0.020096 -0.016313 0.000000 
0.018942 -0.020578 0.043102 
-0.013796 -0.027113 0.032710 
-0.016382 -0.025104 0.071738 
0.003603 0.011304 0.000000 
0.031774 0.000669 0.047938 
0.025866 -0.018709 0.058376 
-0.005027 -0.028465 0.057304 
0.013436 -0.025303 0.052834 
0.022028 -0.024759 0.074940 
0.011756 -0.028835 0.077000 
-0.002604 0.030890 0.077000 
-0.021225 -0.017373 0.002988 
-0.009162 0.028414 0.056640 
0.029205 0.013193 0.055358 
-0.014058 -0.027064 0.033075 
0.018888 0.024683 0.043281 
-0.003361 -0.025494 0.019176 
0.018465 0.025277 0.077000 
0.005526 -0.029564 0.071399 
-0.016708 -0.025710 0.037202 
0.004411 0.032327 0.067703 
0.003991 0.028121 0.011943 
-0.026650 -0.000553 0.010703 
0.001263 -0.025714 0.021998 
-0.024975 0.017073 0.030716 
0.013867 -0.026900 0.072433 
0.021682 0.013544 0.002525 
-0.018155 -0.026682 0.064219 
0.024668 -0.018095 0.058151 
-0.029997 0.010926 0.077000 
0.027267 0.016391 0.053734 
-0.019995 -0.025271 0.065412 
-0.024563 0.019855 0.052047 
0.018615 -0.022803 0.063811 
0.002576 -0.012343 0.001000 
0.000882 0.030757 0.042655 
0.032019 -0.004658 0.077000 
-0.020206 0.016813 0.013124 
-0.010209 -0.026824 0.045395 
-0.008669 -0.028198 0.019587 
0.026079 0.016794 0.069410 
-0.027780 -0.010969 0.067703 
0.010420 0.023948 0.016826 
-0.001065 0.000870 0.000000 
-0.009957 0.027764 0.021216 
0.003142 0.031412 0.053977 
-0.014061 0.020537 0.000000 
-0.026911 0.012298 0.026103 
0.024896 -0.008575 0.022514 
0.025919 -0.014789 0.024009 
-0.012261 -0.024808 0.039181 
-0.028983 0.009172 0.075522 
-0.031166 0.005670 0.052811 
-0.023990 -0.008177 0.009184 
0.026657 -0.002629 0.019685 
-0.024009 -0.015719 0.011482 
0.005694 -0.016749 0.000000 
-0.003878 -0.032454 0.069088 
0.001151 0.032435 0.068800 
-0.032419 -0.000388 0.060141 
0.023645 0.014806 0.005240 
0.004322 -0.027495 0.044854 
0.000163 -0.028565 0.058585 
0.009018 0.025068 0.018458 
0.023520 -0.017980 0.048787 
-0.009938 -0.029970 0.072876 
0.032518 0.001333 0.063021 
0.024907 0.011432 0.034178 
0.009992 0.029975 0.067226 
-0.027993 -0.003893 0.009932 
-0.013280 0.026757 0.066769 
0.003870 0.004462 0.001000 
0.030488 0.003368 0.036729 
-0.008713 -0.031128 0.068271 
-0.011838 0.030356 0.076097 
0.004028 -0.023619 0.001000 
-0.003885 0.025911 0.001000 
-0.019965 0.023239 0.039251 
0.001681 -0.028929 0.063254 
-0.003433 -0.005209 0.000000 
0.003775 0.029055 0.020506 
0.017157 -0.024002 0.065849 
-0.009003 -0.027407 0.043724 
0.009778 0.029985 0.049129 
0.018836 -0.021485 0.051735 
-0.009780 0.029816 0.044198 
-0.013679 -0.024801 0.049347 
-0.029597 0.008217 0.032566 
-0.005623 0.031050 0.049462 
-0.005821 0.026709 0.034759 
0.017713 0.022214 0.051065 
-0.025253 -0.016905 0.059679 
-0.028843 0.000894 0.040311 
-0.029084 -0.000924 0.043530 
0.019862 -0.021525 0.059450 
-0.008468 -0.029601 0.039227 
-0.017519 0.027865 0.068416 
-0.009939 -0.027130 0.046633 
-0.008989 -0.028969 0.025750 
0.027257 0.010951 0.061209 
0.019507 -0.022556 0.067598 
0.026751 0.002642 0.020941 
0.022535 -0.015418 0.001218 
0.012323 -0.029965 0.069430 
-0.016022 0.005989 0.001000 
0.008108 -0.027766 0.013752 
0.016446 -0.025673 0.034409 
0.024961 0.015761 0.051656 
-0.017480 0.019651 0.023082 
0.025270 0.005440 0.000000 
0.022318 -0.016159 0.006133 
-0.031917 -0.005886 0.071755 
-0.009119 -0.027358 0.018244 
-0.026738 0.007491 0.004265 
0.027974 -0.000408 0.027085 
-0.027758 0.005005 0.043970 
0.031590 0.000519 0.043488 
0.002380 0.024936 0.012012 
-0.020145 -0.020476 0.050605 
-0.003187 -0.019740 0.000000 
0.016557 0.020298 0.022937 
-0.030172 0.002910 0.065822 
0.006103 -0.022822 0.000000 
-0.012076 -0.023062 0.019651 
-0.013599 -0.023641 0.003605 
-0.031143 -0.003950 0.052150 
0.009516 -0.025695 0.001500 
-0.002134 0.031791 0.059471 
0.008762 0.026739 0.007447 
-0.027057 -0.000321 0.014944 
-0.032565 -0.001383 0.064392 
-0.010305 0.026769 0.013263 
-0.022817 -0.014027 0.018560 
-0.003131 0.025755 0.022528 
0.031110 -0.000840 0.069167 
0.005911 -0.029944 0.076277 
-0.029797 0.012047 0.061906 
-0.032346 0.000279 0.060719 
-0.019859 0.011242 0.000000 
-0.024331 -0.016364 0.018706 
0.002359 -0.026852 0.000000 
0.028423 -0.003894 0.013384 
0.017852 -0.024070 0.071496 
0.030386 0.004361 0.034483 
-0.025036 -0.015434 0.051305 
-0.018603 0.019725 0.001642 
-0.029506 0.000301 0.046275 
-0.013833 0.020884 0.009609 
-0.020795 -0.021431 0.028489 
0.030469 0.002350 0.067296 
0.001036 0.028359 0.012872 
-0.005320 -0.004007 0.000000 
0.019971 0.011247 0.000000 
0.026589 -0.013117 0.025379 
-0.018020 0.025456 0.045395 
0.016171 -0.019746 0.014634 
-0.022721 -0.016178 0.020930 
-0.023427 0.000865 0.000000 
0.025160 0.020756 0.067293 
-0.008468 0.030771 0.055536 
0.017748 -0.024012 0.024500 
0.004097 0.028364 0.056003 
0.025067 -0.015119 0.050459 
-0.015581 0.024539 0.015689 
0.029768 -0.013682 0.076938 
-0.007386 0.030144 0.038586 
0.016835 -0.017567 0.001000 
0.000068 -0.025742 0.022355 
0.009056 -0.027716 0.037222 
0.003488 -0.030391 0.038182 
-0.025584 0.007983 0.028815 
0.000890 -0.029932 0.025459 
0.024439 0.017024 0.023967 
-0.025629 -0.016740 0.036409 
0.009409 -0.028905 0.062942 
-0.025894 -0.002575 0.009661 
0.011263 0.030558 0.076394 
0.001925 -0.031504 0.052216 
0.026283 -0.006225 0.001417 
-0.018374 0.001911 0.000000 
-0.024152 -0.019641 0.045726 
-0.024369 0.019289 0.068383 
0.006507 0.028087 0.052456 
-0.009664 -0.029199 0.064056 
0.016534 -0.023632 0.013085 
-0.017834 -0.026176 0.077000 
0.030160 0.005966 0.036826 
0.027794 0.012835 0.075121 
-0.008845 0.027495 0.020792 
-0.024955 0.017959 0.042990 
0.026891 -0.007418 0.042989 
0.005032 0.027468 0.044509 
-0.018566 -0.021551 0.050503 
-0.027676 -0.000563 0.006757 
-0.004216 -0.028106 0.011688 
0.021969 0.021297 0.039923 
-0.023520 -0.009358 0.008209 
0.005439 -0.020771 0.001000 
-0.015248 -0.024496 0.057375 
0.016083 -0.014575 0.000000 
-0.009091 -0.024102 0.008935 
0.000974 -0.029831 0.024649 
-0.006372 -0.029271 0.029721 
-0.007319 -0.031567 0.067526 
0.027905 0.005170 0.009047 
0.010186 0.015389 0.001000 
0.027828 0.012248 0.073260 
0.024908 0.003077 0.000000 
0.008722 0.024865 0.014211 
-0.020868 -0.023938 0.057248 
-0.004799 -0.028706 0.060395 
0.009812 0.017973 0.001000 
-0.021856 -0.020637 0.031418 
-0.027889 -0.006086 0.009590 
-0.027868 -0.003881 0.008680 
0.028920 -0.003091 0.050698 
-0.029935 -0.011898 0.064456 
0.013583 -0.021152 0.010610 
0.028354 -0.007590 0.061639 
-0.002736 -0.028177 0.010708 
0.021335 0.021842 0.073184 
-0.019132 -0.024098 0.039535 
-0.017422 0.021780 0.044725 
-0.010211 0.024933 0.025684 
-0.030855 0.008334 0.056677 
-0.020426 -0.016113 0.007432 
-0.014657 0.018654 0.001000 
0.004100 0.030524 0.037520 
-0.026677 0.015816 0.042116 
0.023707 0.009790 0.001000 
0.028203 -0.000000 0.019655 
-0.017623 0.019071 0.000000 
-0.031278 -0.008055 0.066259 
0.015475 0.021155 0.024044 
-0.006639 -0.030344 0.040780 
0.020463 0.020028 0.013924 
-0.017917 0.020300 0.032921 
0.026909 -0.004443 0.030675 
-0.025627 0.018876 0.055889 
0.024486 0.018002 0.055886 
0.015238 0.023134 0.042913 
-0.026144 -0.007224 0.032752 
-0.012479 -0.028121 0.037881 
0.030355 0.000554 0.029905 
0.010972 0.030268 0.065158 
-0.026256 0.002318 0.013205 
-0.001704 -0.005869 0.001000 
0.023827 -0.017905 0.023856 
0.023359 -0.017156 0.022355 
-0.007961 -0.031231 0.063975 
-0.000238 0.028641 0.059556 
-0.014775 -0.016269 0.001000 
-0.024220 0.018050 0.054495 
0.028668 -0.012374 0.042903 
-0.015787 -0.018902 0.003051 
-0.023334 -0.018071 0.048408 
0.014521 -0.022982 0.036459 
0.002938 -0.028404 0.056514 
-0.006018 -0.026449 0.031426 
0.022010 -0.017020 0.028109 
-0.002856 0.029493 0.070489 
-0.027851 -0.000000 0.017234 
0.010447 0.025378 0.031953 
0.013387 0.027263 0.072738 
0.005708 0.030765 0.042824 
-0.014730 -0.024172 0.050331 
0.006730 0.029517 0.070797 
0.012279 0.026303 0.017084 
-0.013696 -0.025352 0.055190 
-0.006826 0.026577 0.004264 
-0.021974 -0.013136 0.004526 
-0.025205 -0.007031 0.019870 
-0.010695 -0.029433 0.042459 
-0.009156 -0.027593 0.019516 
-0.020428 -0.022948 0.041135 
-0.006899 -0.024202 0.002588 
-0.010441 0.030231 0.058971 
-0.029877 -0.000000 0.049581 
-0.028027 0.000280 0.027214 
0.019428 0.019380 0.033967 
-0.027745 0.012226 0.033738 
0.032151 -0.002039 0.064694 
-0.010991 -0.021996 0.000694 
0.008726 0.025117 0.016871 
-0.027515 -0.006769 0.048137 
0.027931 -0.005487 0.048249 
0.009974 0.027022 0.015369 
-0.002289 -0.028940 0.063397 
-0.023429 0.015592 0.032165 
-0.023819 0.010256 0.015879 
0.013430 -0.027538 0.075928 
-0.027187 0.012879 0.067831 
0.006074 0.010637 0.000000 
-0.029083 0.001706 0.018663 
-0.003123 -0.030219 0.031721 
0.009438 0.029048 0.055375 
0.012092 -0.006158 0.000000 
-0.028189 0.003377 0.042534 
0.021690 -0.016423 0.000561 
-0.004917 0.029262 0.067528 
-0.026673 -0.011662 0.018968 
0.001841 -0.028905 0.017238 
-0.008209 0.025068 0.008038 
0.009293 0.027880 0.033992 
-0.018427 -0.025466 0.049219 
0.012688 0.014826 0.001000 
0.029112 0.000603 0.042518 
-0.024481 0.000577 0.001000 
0.014817 0.026267 0.029402 
-0.009725 -0.004631 0.000000 
0.008600 0.027092 0.039686 
0.020297 0.021581 0.025021 
-0.009987 -0.027635 0.017708 
0.011411 0.020033 0.000000 
0.008323 -0.025000 0.012829 
-0.006481 -0.013220 0.001000 
-0.008945 0.027291 0.016034 
0.025970 0.017035 0.043508 
-0.025488 -0.019282 0.076281 
-0.025425 0.017986 0.057479 
-0.021573 0.022286 0.046442 
-0.011809 0.017124 0.000000 
-0.023077 -0.019568 0.033095 
-0.022799 0.016397 0.015477 
-0.024560 -0.020136 0.058095 
-0.010522 0.028915 0.038271 
-0.028915 -0.010744 0.034897 
-0.013318 -0.024577 0.044403 
0.013279 -0.027862 0.038147 
0.011167 0.026401 0.011975 
-0.013697 -0.005053 0.000000 
-0.011357 -0.029559 0.048339 
-0.031257 -0.009203 0.076763 
-0.029165 0.000802 0.019319 
0.001560 0.029930 0.025438 
0.016634 0.027607 0.062934 
-0.006745 -0.028774 0.024188 
0.017403 -0.019641 0.022432 
0.006248 0.024185 0.002378 
0.025205 0.016418 0.057199 
-0.009047 -0.024047 0.008048 
-0.028327 0.009779 0.023546 
0.011993 0.016446 0.001000 
-0.022970 -0.015258 0.025215 
-0.007686 -0.029072 0.065086 
-0.001665 0.028744 0.015954 
-0.012527 0.029324 0.052820 
-0.031373 -0.006736 0.058819 
0.031216 0.008473 0.068496 
0.031006 -0.000000 0.039742 
-0.023391 0.018325 0.023727 
-0.017787 0.022372 0.011279 
-0.017026 0.019876 0.000000 
-0.005559 -0.024602 0.007722 
-0.025369 0.018658 0.068966 
-0.032655 0.001607 0.072005 
0.026603 -0.013529 0.027862 
0.023997 0.010550 0.019420 
-0.008519 -0.030242 0.045624 
-0.005137 0.027310 0.042484 
-0.016919 -0.025776 0.039936 
0.018252 -0.019748 0.000899 
-0.029289 -0.005093 0.063443 
-0.019866 -0.025507 0.067037 
-0.005962 0.031664 0.067264 
-0.026609 0.009784 0.009027 
0.017657 0.004594 0.001000 
0.023851 -0.013240 0.028221 
-0.021144 -0.012784 0.000000 
-0.023449 -0.008515 0.003691 
-0.001019 0.029864 0.024915 
-0.009063 0.018461 0.001000 
-0.011395 0.026704 0.052705 
-0.026186 0.019421 0.069263 
0.017696 0.025209 0.039288 
-0.009735 -0.029545 0.047798 
0.015008 -0.025145 0.017849 
0.015888 -0.026951 0.046367 
0.002373 -0.029535 0.071036 
-0.026229 -0.018971 0.076442 
0.017970 -0.025954 0.050906 
-0.025566 0.020449 0.070204 
-0.027179 -0.003677 0.002022 
-0.028484 -0.007190 0.017741 
0.011032 -0.012329 0.001000 
0.030577 0.002206 0.032879 
0.025309 0.016056 0.057071 
-0.015990 -0.018595 0.001319 
0.021767 -0.018855 0.045374 
-0.025904 -0.009775 0.040008 
0.021946 0.015667 0.010708 
0.024057 -0.010827 0.021379 
-0.001480 -0.029792 0.074335 
0.008670 -0.026917 0.020130 
0.010000 0.030550 0.071640 
-0.020893 0.019888 0.049845 
-0.004767 0.020531 0.001000 
-0.005219 -0.032254 0.071455 
0.025243 -0.005528 0.013933 
-0.027623 0.015602 0.055104 
0.030610 0.008213 0.048407 
0.010189 0.022562 0.000797 
0.016289 0.024916 0.069062 
-0.007366 0.030176 0.038938 
-0.031835 0.001935 0.060111 
-0.016145 -0.025397 0.028118 
-0.022317 0.015050 0.000758 
0.022085 -0.015986 0.010545 
-0.022370 -0.011329 0.001880 
-0.024898 -0.015929 0.051533 
0.028166 0.015808 0.077000 
-0.003183 -0.028297 0.012861 
0.015445 0.021250 0.024816 
-0.025074 -0.018425 0.044758 
0.019054 -0.026030 0.063721 
-0.029872 0.001331 0.055384 
0.020008 -0.022794 0.073631 
-0.006097 0.001668 0.001000 
0.009016 -0.027754 0.024190 
0.009858 0.030890 0.072426 
-0.016807 0.019275 0.014303 
0.025472 0.014306 0.016891 
0.019722 -0.023160 0.075386 
-0.019488 -0.019819 0.039129 
-0.013754 -0.002967 0.000000 
0.023825 0.016454 0.040384 
-0.021401 -0.023808 0.059697 
-0.006627 -0.026934 0.037656 
-0.009948 0.030520 0.074991 
0.032956 0.003141 0.076741 
0.022300 -0.022829 0.058915 
-0.022978 -0.008332 0.000000 
-0.019228 -0.003235 0.000000 
0.026051 0.010809 0.045825 
-0.002368 -0.009929 0.001000 
0.030803 -0.009689 0.068283 
0.010947 -0.027344 0.023131 
0.029575 0.012126 0.056214 
0.004201 -0.028704 0.060370 
-0.023241 -0.009256 0.004187 
-0.029254 0.006385 0.028796 
0.012316 0.024264 0.033732 
0.021491 -0.016152 0.015423 
0.013059 0.020745 0.002557 
0.015850 0.025194 0.068815 
0.020996 -0.016213 0.000000 
0.025949 -0.018892 0.061276 
-0.020838 -0.023627 0.053646 
0.019220 0.025155 0.052380 
-0.016077 0.002091 0.000000 
0.025171 0.013742 0.010666 
0.014638 0.026723 0.076075 
0.030779 0.001718 0.068658 
0.031254 0.007640 0.061551 
-0.027740 -0.015717 0.053989 
0.002621 -0.024758 0.009729 
-0.027356 -0.000185 0.018191 
0.018106 -0.016872 0.001000 
0.015978 0.023418 0.008419 
-0.006224 0.009019 0.000000 
-0.029220 -0.015398 0.071761 
-0.025074 0.018882 0.052149 
0.005719 -0.029025 0.025453 
-0.025710 0.013292 0.015690 
0.027695 0.009953 0.062712 
0.001043 -0.024879 0.011277 
0.025039 -0.016919 0.057110 
0.018219 -0.019997 0.031943 
0.017274 0.022112 0.006931 
0.025460 0.008354 0.001000 
-0.030020 0.012694 0.074612 
0.023712 0.013560 0.027751 
-0.002968 -0.029838 0.024621 
-0.009982 -0.022737 0.001138 
0.027985 -0.002250 0.035101 
0.009998 -0.029998 0.065367 
-0.013995 0.021195 0.014032 
0.003596 0.031382 0.053532 
0.012479 -0.023831 0.030572 
0.032108 0.003149 0.064060 
-0.002300 -0.032828 0.074508 
-0.024581 0.019720 0.050913 
-0.017915 -0.002230 0.001000 
-0.023139 -0.018342 0.049825 
0.017181 0.024749 0.028684 
0.024067 0.015171 0.038372 
0.026071 0.017348 0.047599 
0.018940 -0.024039 0.036777 
-0.027783 -0.012903 0.075248 
0.022583 0.010432 0.000772 
-0.024676 -0.019586 0.051788 
-0.005114 -0.020512 0.001000 
0.031493 0.007570 0.067818 
-0.018183 -0.020955 0.041606 
0.030891 -0.008550 0.059805 
-0.011816 -0.029907 0.062852 
0.001810 0.019542 0.000000 
0.003408 -0.003219 0.001000 
-0.001453 -0.032832 0.074559 
-0.025730 0.015131 0.058663 
-0.026299 0.011912 0.013849 
0.011275 0.028800 0.073626 
-0.014458 0.029583 0.075490 
-0.002603 -0.011764 0.000000 
0.013721 -0.029684 0.073049 
-0.018674 -0.027051 0.074586 
0.012154 -0.029384 0.050962 
-0.029454 -0.005673 0.030998 
0.021170 -0.016008 0.001000 
-0.029614 -0.012960 0.065433 
0.029004 0.006680 0.066101 
-0.003126 0.031765 0.059541 
0.008390 -0.027328 0.042714 
-0.031514 -0.001001 0.044652 
0.001222 -0.013197 0.001000 
0.009919 0.029757 0.053028 
0.025528 -0.009245 0.033320 
0.003987 0.015953 0.000000 
-0.023062 0.021701 0.055380 
0.003644 -0.029721 0.025483 
0.022108 0.021652 0.076748 
-0.029772 -0.003603 0.025569 
0.026548 -0.015893 0.041094 
-0.002356 -0.028848 0.062222 
-0.018103 -0.004997 0.000000 
0.008287 -0.026709 0.011034 
-0.019188 0.011618 0.001000 
-0.023806 -0.016597 0.015158 
-0.030753 -0.000000 0.046615 
-0.023874 -0.022133 0.067399 
0.008583 -0.026116 0.022458 
0.030217 -0.002976 0.030600 
0.027838 -0.001016 0.008378 
-0.016916 -0.021719 0.040498 
0.021101 -0.019705 0.016448 
0.031061 -0.002739 0.047419 
0.007186 0.029941 0.076237 
0.021837 -0.012540 0.000000 
-0.009717 -0.029795 0.074367 
-0.011334 0.026708 0.017775 
-0.030190 0.005631 0.039093 
-0.008089 -0.029182 0.066509 
0.001453 0.030169 0.029712 
0.032376 -0.004604 0.070547 
0.029818 -0.009505 0.042283 
-0.002165 -0.023649 0.000000 
0.026753 0.008536 0.006987 
0.002384 0.028609 0.059144 
-0.014260 -0.024674 0.052178 
0.026264 0.017150 0.073061 
-0.024692 0.017210 0.028181 
-0.024543 -0.019894 0.075882 
-0.002737 -0.027149 0.040414 
-0.029750 0.009696 0.042205 
-0.006229 0.030919 0.046227 
-0.005763 -0.018766 0.000000 
-0.027681 0.002027 0.006812 
0.023504 -0.022432 0.066714 
0.010000 0.030319 0.058379 
0.008690 0.029651 0.040331 
-0.026603 -0.003268 0.021720 
-0.031557 0.002231 0.056077 
0.002399 0.024317 0.004068 
-0.015162 -0.022262 0.033579 
0.028973 0.000091 0.038539 
-0.018745 0.026772 0.069999 
0.004471 0.027762 0.008811 
0.026454 -0.005004 0.027229 
0.029678 -0.000000 0.033389 
0.009108 0.027799 0.026593 
-0.008965 -0.027130 0.037147 
0.006323 -0.026202 0.028254 
0.008818 0.025611 0.022692 
0.011290 -0.029677 0.051087 
0.007245 0.028995 0.064097 
0.021785 -0.015760 0.000956 
-0.015258 -0.024962 0.062266 
0.000730 0.001140 0.000000 
0.028000 -0.000670 0.028526 
0.022429 -0.016367 0.010376 
0.032583 0.000667 0.064914 
0.021077 0.022761 0.077000 
-0.004252 0.029010 0.064293 
0.006147 -0.025230 0.015785 
0.005456 0.026414 0.002069 
-0.028509 -0.010167 0.028366 
-0.021134 -0.024652 0.066937 
-0.006988 0.026148 0.001476 
-0.024125 0.018802 0.061603 
0.014097 -0.028112 0.045940 
0.008956 -0.023395 0.000593 
0.013467 -0.026691 0.067424 
-0.018520 -0.023953 0.075043 
-0.031505 0.001574 0.048854 
-0.017733 -0.021638 0.045470 
-0.014080 0.022236 0.025499 
0.000484 0.012536 0.000000 
-0.010468 -0.025259 0.000610 
-0.009713 -0.012031 0.000000 
-0.013046 -0.027437 0.072149 
0.010771 -0.029989 0.055130 
-0.022733 -0.016593 0.009220 
0.025196 0.018491 0.066004 
0.031011 -0.009760 0.075013 
-0.004827 -0.023188 0.000000 
0.031793 0.001139 0.050503 
0.026584 0.004813 0.028083 
0.017858 0.025251 0.041261 
0.023704 0.017253 0.023136 
-0.026776 0.014597 0.069449 
0.026726 -0.003835 0.000019 
-0.021928 0.019865 0.056977 
-0.013234 0.029535 0.065214 
-0.023598 0.013260 0.025181 
0.029146 -0.008022 0.073052 
0.022509 0.022576 0.058495 
-0.022011 -0.017141 0.029361 
0.016381 0.027570 0.059951 
-0.031357 -0.006081 0.077000 
-0.028039 0.009266 0.019023 
-0.007623 0.007979 0.001000 
-0.004491 -0.029729 0.030972 
0.019771 -0.019419 0.005950 
0.027442 -0.014219 0.076163 
-0.021512 -0.011397 0.000000 
-0.030856 -0.005387 0.046414 
-0.028001 0.014830 0.054424 
-0.026504 -0.004975 0.000811 
-0.005480 0.031336 0.057745 
0.025193 -0.014386 0.014320 
-0.027098 0.016907 0.058187 
-0.006980 0.031482 0.061971 
0.004209 0.024777 0.009970 
-0.022200 -0.024473 0.073837 
0.002548 0.024158 0.002029 
-0.024717 -0.015537 0.047787 
-0.016564 0.012076 0.001000 
-0.002549 0.028193 0.011546 
-0.024832 -0.017880 0.055435 
0.030535 0.008666 0.050610 
0.013868 -0.001118 0.000000 
-0.008491 0.026751 0.035309 
-0.013958 0.014970 0.000000 
-0.024302 -0.017723 0.046646 
-0.004790 -0.032242 0.067999 
-0.020646 -0.015418 0.001809 
0.025279 -0.003375 0.005182 
-0.016027 0.022230 0.001489 
0.024531 0.017791 0.035601 
-0.030569 -0.000000 0.039611 
0.009302 0.028193 0.021149 
-0.023826 0.012484 0.001032 
0.028971 -0.015764 0.075434 
0.021002 0.021201 0.028234 
0.014273 0.029351 0.070487 
-0.018177 -0.025770 0.051209 
-0.029173 0.012551 0.048667 
-0.014361 -0.024875 0.011116 
0.005719 0.028827 0.061947 
0.023716 -0.016979 0.038094 
0.026857 0.014144 0.031387 
-0.030929 -0.001332 0.036223 
0.021900 -0.024262 0.068896 
-0.022368 -0.016499 0.004337 
0.021445 -0.023592 0.058019 
-0.006687 0.031299 0.056675 
-0.009301 -0.028089 0.022931 
0.027400 -0.001100 0.003997 
-0.002996 -0.031536 0.055767 
0.004427 -0.010116 0.000000 
0.003234 -0.013145 0.001000 
-0.009877 -0.027978 0.020162 
0.006622 -0.021691 0.000000 
-0.012839 0.006903 0.000000 
0.020784 0.018583 0.006834 
0.021431 0.018560 0.009955 
0.019151 -0.021144 0.012362 
0.004313 0.029006 0.021548 
-0.002816 0.028710 0.060448 
-0.009695 -0.025923 0.003659 
-0.007962 -0.021226 0.000000 
0.002531 0.032144 0.064587 
-0.009010 0.027835 0.017112 
0.020329 0.008347 0.000000 
-0.029099 -0.005773 0.026512 
0.026769 -0.003525 0.024942 
-0.013715 0.025848 0.060458 
0.011266 0.025517 0.039283 
-0.001515 0.028214 0.011714 
0.016596 0.027187 0.056472 
0.008120 0.025035 0.002890 
-0.017972 0.027345 0.067103 
0.026612 0.013721 0.064027 
-0.028197 0.011544 0.035850 
0.021751 0.018013 0.008818 
0.022114 -0.018911 0.048422 
-0.006231 -0.029616 0.032774 
-0.023007 0.014396 0.022325 
-0.002237 -0.031585 0.077000 
0.018076 0.003246 0.001000 
0.029031 -0.010810 0.041405 
-0.001676 -0.029426 0.069640 
0.008337 0.006643 0.000000 
-0.011525 -0.028819 0.075626 
0.019152 0.022549 0.023605 
-0.001804 -0.024526 0.000000 
-0.028298 -0.007551 0.060800 
-0.019439 0.023390 0.075745 
0.025787 0.005782 0.022001 
-0.028711 -0.007522 0.065768 
0.029741 -0.010669 0.077000 
0.011902 -0.029748 0.059072 
-0.022318 -0.021349 0.075118 
-0.030528 0.006596 0.042808 
0.025765 0.018336 0.064213 
-0.021696 -0.020165 0.058429 
-0.016514 0.023568 0.012345 
-0.028260 -0.000894 0.012080 
-0.020016 0.020029 0.010363 
-0.020189 0.016579 0.010581 
0.029335 -0.000474 0.044825 
-0.017608 -0.023183 0.060574 
-0.009473 -0.029059 0.043023 
0.016909 -0.024689 0.071192 
-0.028718 -0.009800 0.028076 
-0.002621 0.013157 0.000000 
-0.021506 -0.014791 0.000000 
0.011939 -0.029541 0.053422 
0.031865 -0.005453 0.061874 
-0.017103 0.027619 0.062722 
-0.000969 0.026542 0.032618 
-0.015300 -0.019994 0.000000 
-0.027701 -0.002810 0.033853 
0.023394 -0.017158 0.039379 
0.008114 -0.018331 0.001000 
-0.022194 -0.018188 0.013051 
-0.006661 0.031797 0.071119 
-0.016024 0.028359 0.062948 
-0.004349 0.018149 0.000000 
0.025344 0.011446 0.003781 
0.022416 -0.023213 0.063750 
0.007542 -0.024858 0.000000 
-0.014248 0.026892 0.075056 
-0.013212 0.023854 0.036104 
0.005731 0.026016 0.000000 
0.023586 -0.010566 0.000000 
-0.031781 0.001892 0.059325 
0.006291 0.029248 0.067347 
0.004795 -0.029592 0.030177 
-0.027968 -0.001778 0.032854 
0.000453 -0.018042 0.001000 
-0.012782 0.020822 0.000000 
0.024190 -0.018601 0.059985 
0.022476 0.020466 0.036370 
0.008230 -0.030390 0.044702 
0.023430 0.010605 0.012385 
-0.009684 0.025837 0.002990 
0.007440 0.026386 0.030619 
-0.009003 -0.027490 0.019282 
0.025778 -0.015407 0.026652 
0.028870 -0.009026 0.025031 
-0.025632 -0.016971 0.038483 
-0.024894 0.005053 0.007420 
-0.015312 -0.021668 0.000000 
0.012877 -0.023697 0.032048 
-0.001995 -0.028776 0.013527 
0.017926 -0.025473 0.044793 
0.003943 0.026736 0.035113 
-0.004343 0.005956 0.001000 
-0.016138 -0.020574 0.023023 
-0.014210 -0.029063 0.061537 
0.026358 0.017252 0.074620 
0.024328 -0.019114 0.041855 
0.023891 -0.018093 0.052592 
0.027201 -0.012463 0.030199 
0.030737 0.006350 0.043481 
-0.007143 -0.031801 0.072620 
-0.018194 -0.017073 0.001355 
-0.004767 -0.031302 0.052379 
-0.023905 0.017467 0.025129 
-0.010434 0.028998 0.038598 
-0.025517 0.019212 0.057538 
-0.024900 -0.016296 0.052976 
0.026089 0.014881 0.062101 
-0.010628 0.025749 0.004691 
0.012040 0.001189 0.000000 
-0.031007 -0.002952 0.047808 
-0.008563 -0.025688 0.019669 
0.015097 0.027413 0.046436 
0.029587 0.003814 0.024869 
0.005266 0.002661 0.001000 
-0.010306 0.030760 0.072986 
-0.013016 0.002706 0.001000 
0.023070 0.018706 0.024207 
-0.028329 0.016740 0.074421 
0.026529 -0.017386 0.054568 
0.001864 -0.027875 0.004960 
0.022836 -0.023529 0.070860 
0.013110 -0.029334 0.058482 
-0.018608 0.005135 0.001000 
0.000451 -0.024155 0.001987 
0.012574 0.019635 0.000000 
-0.029598 0.003059 0.022941 
0.011146 -0.028347 0.068039 
-0.016825 0.024946 0.028157 
-0.019018 0.004377 0.001000 
0.019987 -0.020793 0.052766 
0.026164 -0.014238 0.060531 
-0.024329 -0.019150 0.042272 
0.024661 -0.012451 0.003773 
0.014941 0.023235 0.041830 
-0.023571 -0.018116 0.023492 
-0.032528 -0.000000 0.075479 
0.031884 -0.000000 0.064577 
0.016816 0.027279 0.059935 
-0.026252 -0.011317 0.050274 
0.015880 0.020295 0.018070 
-0.002155 -0.006251 0.001000 
0.013957 0.025490 0.015704 
-0.024688 -0.011449 0.031555 
-0.000701 -0.027452 0.044297 
0.020734 0.017287 0.000105 
-0.026567 -0.010398 0.050578 
-0.008527 -0.025938 0.005271 
-0.012020 0.003325 0.000000 
-0.025973 0.008119 0.034388 
0.024430 0.005776 0.004557 
0.021051 -0.002681 0.001000 
-0.029850 -0.002586 0.024800 
0.023899 0.019814 0.044845 
0.004248 -0.027901 0.050069 
0.022113 -0.019373 0.053195 
-0.013362 0.022401 0.022034 
0.030201 -0.012332 0.076383 
0.024864 -0.008625 0.022315 
0.012897 0.021148 0.000000 
-0.009479 -0.028561 0.031807 
-0.028027 -0.006667 0.054042 
-0.016657 0.022598 0.047753 
0.011167 -0.012345 0.000000 
-0.009627 0.030336 0.054149 
0.014550 0.024207 0.049176 
-0.028235 -0.005123 0.050593 
-0.025093 -0.012881 0.042100 
-0.016216 -0.025249 0.026789 
-0.004541 -0.031811 0.059753 
0.025208 0.015685 0.054391 
-0.020024 0.021239 0.020103 
-0.023909 -0.016984 0.038193 
0.029672 -0.013126 0.069931 
-0.020369 -0.012475 0.001000 
0.021181 0.020527 0.023663 
0.019666 -0.003768 0.000000 
-0.027113 -0.014757 0.042098 
0.019704 -0.022533 0.028605 
-0.021981 -0.021018 0.069289 
-0.009404 0.029734 0.046018 
-0.002345 0.030498 0.036965 
0.007737 0.028717 0.060540 
-0.011073 -0.024505 0.027455 
0.029360 -0.003723 0.058995 
-0.017089 -0.021639 0.040898 
0.015392 -0.027119 0.044215 
0.018611 -0.023316 0.025421 
0.023172 -0.018763 0.025477 
-0.013177 0.026020 0.058410 
0.009171 0.004050 0.000000 
-0.024874 -0.021021 0.068530 
-0.016487 -0.022615 0.046718 
0.003892 -0.018180 0.001000 
0.004685 -0.029456 0.070013 
0.023132 0.016441 0.026579 
0.030512 -0.009460 0.057626 
-0.031845 0.001303 0.056107 
0.027714 -0.005570 0.045827 
-0.017104 -0.026196 0.047110 
0.030463 -0.003083 0.036181 
-0.011929 0.016997 0.001000 
