
# .PCD v.6 - Point Cloud Data file format
FIELDS x y z 
SIZE 4 4 4 
TYPE F F F 
COUNT 1 1 1 
WIDTH 1648
HEIGHT 1
VIEWPOINT 0.000000 0.000000 0.000000 1.000000 0.000000 0.000000 0.00000
POINTS 1648
DATA ascii
-0.019457 0.022435 0.049964 
0.003541 0.030000 0.026392 
0.023455 -0.022545 0.019598 
0.006024 0.010067 0.001000 
0.002659 -0.006823 0.000000 
-0.024130 0.018696 0.025194 
0.010717 0.030761 0.037511 
-0.006409 -0.032000 0.007290 
0.027516 0.016726 0.038521 
0.006398 -0.032000 0.000477 
-0.006937 -0.030000 0.016255 
-0.013824 0.012496 0.001000 
-0.028708 -0.006877 0.051053 
-0.019536 -0.022371 0.010929 
0.008399 0.030000 0.042005 
-0.031569 -0.000000 0.043928 
-0.013175 0.029883 0.036730 
-0.018697 -0.026202 0.049168 
-0.018643 0.026238 0.033296 
-0.012560 -0.027952 0.007010 
0.024165 -0.000647 0.001000 
0.029628 0.004116 0.020192 
0.010953 -0.004785 0.001000 
0.028833 -0.006500 0.027930 
0.028204 -0.008389 0.034138 
-0.015041 -0.028639 0.014996 
-0.000698 -0.018501 0.001000 
0.028045 -0.008864 0.011076 
0.017840 0.019501 0.000000 
-0.002550 -0.018571 0.001000 
0.013900 -0.015259 0.000000 
-0.008532 -0.030000 0.047530 
0.030761 0.010716 0.051881 
-0.026562 0.013315 0.000645 
-0.032000 0.006967 0.030930 
0.003541 -0.021152 0.000000 
-0.014931 0.028713 0.026225 
-0.009718 -0.030000 0.019507 
-0.027862 0.016207 0.033895 
0.012658 -0.030114 0.011184 
-0.030581 0.011258 0.051510 
0.032000 -0.004440 0.011487 
-0.000917 -0.012249 0.000000 
0.029759 0.003723 0.035452 
0.006984 0.030000 0.051877 
-0.027116 0.017326 0.026011 
0.027499 0.016752 0.040200 
0.010242 -0.030919 0.024060 
0.020915 -0.024723 0.034068 
-0.012795 -0.027764 0.001929 
0.027417 -0.010749 0.024303 
-0.032000 0.000993 0.032485 
0.002757 0.032000 0.028120 
-0.022630 -0.019896 0.006396 
-0.021398 -0.024401 0.047903 
0.007823 0.031726 0.013078 
0.026954 0.012139 0.012322 
0.027160 0.011519 0.036226 
0.027153 0.003720 0.001000 
-0.022064 0.023936 0.045125 
0.004244 0.030000 0.014351 
0.025913 -0.018913 0.005073 
0.011071 0.016121 0.001000 
-0.021399 -0.024400 0.047287 
-0.010551 -0.003333 0.000000 
0.001465 0.012804 0.000000 
-0.025316 0.017052 0.045047 
-0.032000 -0.003780 0.003077 
0.020581 0.024946 0.023069 
-0.025152 0.017543 0.029318 
-0.016954 -0.027364 0.047181 
0.006055 0.032000 0.022743 
-0.006281 -0.032000 0.005748 
-0.032000 -0.003193 0.040119 
0.012661 0.030113 0.050159 
-0.027868 -0.009397 0.023283 
0.023081 -0.019535 0.007731 
0.000845 -0.032359 0.044897 
0.005198 0.032000 0.012114 
0.026067 0.018899 0.020130 
-0.020473 0.025018 0.003273 
0.027506 0.016740 0.010258 
0.030627 -0.006431 0.059000 
0.009048 0.008024 0.000000 
-0.026664 -0.013008 0.046222 
0.029164 -0.005507 0.057372 
-0.000592 0.030000 0.014658 
0.029366 0.004901 0.017198 
0.023024 0.019580 0.031442 
-0.030143 0.011346 0.000000 
-0.010535 0.030822 0.026773 
-0.032670 0.000989 0.052648 
-0.030758 0.001652 0.059000 
-0.014851 0.004171 0.000000 
-0.016056 0.027963 0.002766 
-0.004482 0.032000 0.026771 
0.027175 0.017237 0.048492 
0.017356 0.024115 0.000192 
0.019501 -0.022399 0.014800 
-0.016713 -0.024629 0.037229 
0.013984 0.026813 0.017143 
-0.001243 -0.030000 0.033603 
0.009723 -0.006870 0.000000 
-0.026101 0.017188 0.000000 
0.001496 -0.030000 0.057257 
0.003760 -0.006208 0.000000 
-0.013046 -0.027563 0.004147 
-0.007063 -0.002497 0.001000 
0.028937 0.011715 0.001000 
0.025831 -0.015506 0.038086 
0.020097 -0.025269 0.001451 
-0.010000 0.030938 0.013871 
0.015295 0.028470 0.008124 
-0.009370 -0.026553 0.001000 
0.004855 -0.030000 0.020567 
0.011718 -0.026136 0.000000 
-0.023916 -0.022084 0.034120 
0.012725 -0.027820 0.054966 
0.006999 -0.022479 0.000000 
0.021298 -0.004960 0.000000 
0.030361 -0.001916 0.030754 
0.024766 -0.020851 0.021816 
-0.029932 -0.013102 0.023496 
-0.003077 -0.030000 0.012541 
-0.018373 -0.023301 0.022837 
0.010573 0.024370 0.001000 
0.014216 0.026627 0.046466 
0.025778 0.019333 0.015047 
0.002221 -0.010827 0.001000 
0.017586 0.023931 0.040097 
0.000038 -0.030000 0.025529 
0.028151 0.015774 0.013955 
0.015601 0.028266 0.001712 
0.023520 0.001752 0.001000 
-0.008928 0.031357 0.027732 
0.002242 0.030000 0.047055 
0.010119 -0.029904 0.043145 
-0.030997 -0.010008 0.021677 
-0.031009 0.009972 0.021362 
-0.025183 -0.017452 0.046562 
0.027807 0.009578 0.025216 
0.016368 0.024906 0.008226 
-0.020704 0.024864 0.026558 
-0.010000 -0.030735 0.008448 
0.012115 -0.030295 0.002476 
-0.019808 -0.025461 0.055459 
-0.018735 -0.008317 0.000000 
0.005889 0.032000 0.056449 
0.007385 -0.022419 0.001000 
-0.012687 0.030104 0.050052 
0.031085 -0.000000 0.005118 
-0.004541 0.001003 0.000000 
-0.004606 -0.032000 0.012888 
0.027784 0.009648 0.040078 
-0.008007 -0.030000 0.038188 
0.032000 -0.005335 0.021840 
-0.002178 0.030000 0.007703 
0.008304 0.030000 0.005909 
-0.018784 -0.026144 0.040405 
0.011753 0.011361 0.001000 
-0.013527 -0.027178 0.027858 
0.001064 0.017419 0.000000 
0.025211 -0.017366 0.009160 
-0.029789 0.003633 0.031245 
-0.027903 -0.009292 0.039474 
-0.013889 0.029407 0.027746 
0.009154 -0.014741 0.000000 
-0.003910 0.021192 0.000000 
0.028446 0.007661 0.003040 
0.001001 0.032000 0.031109 
-0.009961 -0.010773 0.000000 
-0.011147 -0.029083 0.025578 
-0.019209 0.025860 0.000704 
-0.017755 0.026830 0.001828 
-0.006741 -0.030000 0.044849 
0.010000 0.030444 0.026826 
0.016272 0.025110 0.001000 
0.009811 -0.031063 0.027597 
0.012936 0.027651 0.000773 
0.025993 0.018993 0.047209 
-0.031402 -0.000000 0.040582 
-0.027280 0.011161 0.015728 
0.026697 -0.012908 0.003694 
0.008697 0.008305 0.000000 
-0.003825 0.032000 0.000833 
-0.027939 0.015739 0.000000 
0.010472 -0.029887 0.059000 
0.010000 -0.030238 0.037376 
-0.032000 0.002497 0.034871 
-0.028747 0.013353 0.001000 
0.027828 -0.016258 0.012760 
-0.029356 0.004931 0.035375 
0.019901 -0.025399 0.016469 
0.009133 -0.031289 0.005621 
-0.008942 -0.030000 0.049908 
-0.026403 -0.018395 0.045693 
0.018226 -0.026516 0.011209 
-0.007148 0.031951 0.002326 
-0.013464 0.029690 0.035421 
-0.019697 -0.022242 0.012344 
0.010000 0.030910 0.040139 
-0.006742 0.006979 0.000000 
-0.014473 0.018811 0.001000 
-0.032000 0.003675 0.038808 
0.023884 -0.022116 0.041647 
0.029270 0.014096 0.036567 
0.021652 0.008068 0.001000 
-0.032000 0.006156 0.020466 
0.004166 0.032000 0.031250 
0.023920 0.018864 0.044542 
0.030901 0.010297 0.000752 
-0.025066 -0.018066 0.040440 
-0.022440 -0.023560 0.053196 
-0.024070 -0.021895 0.044339 
-0.018868 0.022905 0.036790 
0.017142 0.024286 0.023972 
-0.026981 -0.001471 0.000000 
0.027792 -0.009623 0.029296 
0.028284 0.015574 0.050462 
-0.030453 0.011640 0.027876 
0.020558 -0.024961 0.010108 
0.026720 -0.017920 0.057357 
0.016432 0.024854 0.047085 
0.028171 -0.009690 0.059000 
-0.012181 0.025527 0.001000 
-0.018380 0.011228 0.000000 
0.025612 0.016165 0.020027 
0.010139 0.029888 0.043460 
0.004879 -0.030000 0.039177 
-0.000078 0.032438 0.046641 
0.010572 0.007184 0.001000 
0.026048 -0.014857 0.048607 
-0.031919 -0.000000 0.007861 
-0.013561 0.027152 0.001333 
0.020671 -0.024886 0.030341 
0.027456 0.016816 0.002607 
0.029448 -0.004656 0.051774 
0.029389 -0.013916 0.000842 
-0.019385 0.023469 0.000000 
0.020524 0.024984 0.017510 
-0.007457 -0.031848 0.000498 
-0.004467 -0.030000 0.025036 
0.012660 -0.030113 0.050141 
0.030165 -0.002506 0.057247 
0.003269 0.013137 0.000000 
0.011570 -0.030477 0.030435 
0.029255 -0.014118 0.023102 
0.019094 -0.025938 0.058303 
0.028871 0.006386 0.050495 
0.003541 0.008699 0.000000 
0.031434 0.008699 0.004485 
0.025243 -0.018243 0.031393 
0.020821 0.018790 0.001000 
-0.022826 -0.019739 0.031607 
0.031453 0.008641 0.020864 
0.015452 -0.025639 0.022157 
0.026993 0.012022 0.009980 
0.018231 -0.023415 0.021968 
0.009749 -0.031084 0.025964 
0.022494 -0.020005 0.005507 
0.029860 0.013210 0.056530 
0.031099 -0.000000 0.010191 
0.026870 0.017695 0.007504 
-0.029676 -0.013486 0.003735 
0.032000 0.004690 0.007182 
0.010169 -0.030944 0.001332 
0.030888 -0.000337 0.029083 
0.029337 -0.013995 0.053754 
-0.028790 -0.006631 0.011157 
0.016124 -0.027917 0.025096 
0.000176 -0.030000 0.039250 
0.000760 -0.032000 0.006563 
-0.025218 0.020173 0.000349 
0.000627 0.015995 0.000000 
-0.027841 -0.009476 0.008550 
-0.003379 0.027359 0.000000 
0.032000 0.001127 0.035515 
-0.015132 0.025894 0.035765 
0.030154 0.012538 0.043702 
-0.008040 -0.030000 0.010308 
-0.007296 0.031901 0.037661 
-0.004566 0.032000 0.023707 
-0.019136 0.014900 0.001000 
-0.025322 -0.020016 0.023814 
0.032000 0.005247 0.023238 
0.028327 0.008020 0.010032 
0.000351 -0.032000 0.022108 
-0.029718 0.013424 0.023967 
0.027773 -0.009680 0.050464 
-0.012643 0.016647 0.001000 
-0.006484 -0.032000 0.023548 
-0.032000 -0.004591 0.002187 
0.029479 -0.004564 0.001295 
0.026401 -0.018399 0.021002 
0.022652 -0.007787 0.000000 
-0.032000 -0.001709 0.003149 
-0.025093 0.020360 0.045107 
0.021194 0.024537 0.002579 
-0.001650 0.000198 0.000000 
-0.030208 0.002377 0.005821 
0.025408 -0.018408 0.009893 
0.012473 0.000033 0.000000 
0.018137 -0.026576 0.005928 
0.019913 -0.022070 0.008561 
-0.024111 0.021833 0.001729 
-0.016508 -0.024794 0.024910 
-0.025536 0.016392 0.021900 
-0.015693 0.028205 0.022117 
-0.032000 0.006644 0.055101 
-0.015856 0.025315 0.027087 
-0.032000 0.001262 0.017905 
-0.017297 0.024163 0.020812 
-0.030138 0.002587 0.037574 
-0.002027 -0.032000 0.023928 
0.017133 0.027245 0.046748 
-0.027614 -0.010158 0.010911 
-0.032000 0.003738 0.000675 
-0.026838 -0.005087 0.000000 
0.029979 0.010591 0.000000 
0.021266 0.023966 0.059000 
0.007532 0.031823 0.018967 
0.029582 -0.013627 0.020624 
-0.005780 0.032000 0.036584 
0.012132 0.028294 0.053638 
-0.019495 -0.022404 0.039679 
-0.026732 0.012804 0.000465 
0.007299 0.030000 0.057175 
0.032000 0.005905 0.043839 
0.026056 0.014833 0.026017 
-0.014572 -0.028952 0.020159 
-0.016415 -0.001813 0.001000 
-0.026619 -0.012429 0.000000 
0.006029 -0.032000 0.058215 
-0.027907 0.009279 0.003668 
-0.026548 -0.018178 0.037547 
0.023362 0.019311 0.031786 
0.028584 -0.007249 0.034536 
0.014903 -0.026078 0.000824 
-0.003319 0.030000 0.014397 
0.017901 0.026733 0.011732 
-0.024651 0.021024 0.010375 
0.001177 0.028725 0.000000 
0.028929 0.006213 0.028942 
-0.007125 -0.031958 0.025475 
-0.015274 -0.025780 0.047467 
0.020624 0.024917 0.028750 
0.032000 0.003642 0.019609 
-0.016130 -0.017486 0.001000 
-0.010541 0.002741 0.000000 
0.023959 0.018833 0.023549 
0.030108 -0.006602 0.059000 
-0.013064 0.028239 0.000000 
0.025220 0.018220 0.041956 
-0.028371 -0.003058 0.000000 
0.022635 -0.023365 0.028460 
-0.001355 0.030000 0.023575 
-0.009727 -0.030000 0.018321 
0.026568 0.018148 0.037770 
-0.010427 0.030858 0.018015 
-0.006338 0.022880 0.001000 
-0.027018 0.011946 0.034028 
0.032000 -0.001841 0.030762 
0.001234 0.030000 0.029139 
0.009679 0.031107 0.055823 
0.026038 0.014885 0.008472 
-0.032391 0.001827 0.054053 
0.026865 0.012404 0.041138 
-0.010000 -0.030459 0.043745 
0.032000 -0.005639 0.052965 
0.032539 -0.000000 0.053220 
-0.023633 -0.022367 0.011177 
0.004802 0.015613 0.001000 
0.031877 0.003691 0.001000 
0.025859 -0.018859 0.053471 
0.025190 -0.018190 0.002708 
-0.021398 0.024402 0.034251 
-0.029405 0.004786 0.021261 
0.004707 -0.030000 0.049994 
0.025398 -0.019904 0.042253 
-0.010000 -0.030273 0.041085 
0.023155 0.019476 0.028458 
0.014797 -0.028802 0.034585 
0.000379 -0.006392 0.001000 
0.001150 -0.032617 0.058857 
0.025310 -0.018310 0.036213 
-0.032000 0.004566 0.001290 
0.002207 -0.030000 0.005793 
0.009872 -0.030000 0.027617 
-0.029799 -0.003603 0.006961 
-0.009849 0.031050 0.014676 
-0.009334 -0.031222 0.001749 
-0.032000 0.001532 0.008922 
0.006206 -0.030000 0.047357 
-0.008226 0.031591 0.039002 
-0.025630 -0.016110 0.014985 
0.013649 -0.015214 0.000000 
-0.006504 -0.030000 0.052065 
-0.014256 -0.026595 0.006473 
0.008550 0.031483 0.051110 
-0.027280 -0.011160 0.051326 
0.006132 -0.030000 0.016856 
0.023606 -0.019116 0.057304 
-0.009613 -0.031129 0.036415 
0.029364 0.004909 0.055409 
0.007893 0.015980 0.001000 
-0.031523 -0.008430 0.009180 
-0.023348 0.019321 0.033503 
-0.010976 -0.029219 0.049086 
-0.013827 0.026939 0.037425 
0.030349 -0.001952 0.009321 
0.000066 -0.032000 0.012464 
-0.026278 0.018583 0.008712 
0.028406 0.015390 0.055194 
-0.023085 -0.020421 0.059000 
-0.025347 -0.010959 0.000000 
0.022943 0.019646 0.012716 
-0.032000 -0.002819 0.026408 
0.021725 -0.024183 0.012952 
-0.016698 0.027535 0.052070 
0.032000 0.002952 0.005773 
0.025465 -0.019802 0.055987 
0.019871 0.025420 0.043928 
-0.025422 0.018422 0.052317 
-0.022246 0.011364 0.001000 
0.001115 -0.030000 0.014628 
0.019321 0.012268 0.001000 
-0.016624 0.027584 0.019040 
-0.032000 -0.006788 0.009800 
-0.024639 0.021042 0.018574 
-0.021421 0.020863 0.010824 
0.027861 0.009417 0.054685 
-0.003575 -0.015270 0.000000 
-0.015377 0.020882 0.001000 
0.013926 0.029383 0.051435 
-0.020539 -0.024974 0.021603 
0.020816 -0.021347 0.038475 
0.016116 -0.023255 0.001000 
0.024311 -0.018551 0.032922 
-0.032000 0.005114 0.047051 
0.027767 -0.016350 0.013281 
0.002906 0.020121 0.001000 
0.022234 -0.015246 0.000000 
0.002844 -0.007522 0.000000 
0.031547 0.008359 0.024415 
0.010387 -0.020600 0.001000 
0.024573 -0.008460 0.000000 
-0.027269 -0.017097 0.019480 
0.026428 -0.002966 0.000000 
0.012123 0.030292 0.022934 
-0.004596 -0.024217 0.001000 
-0.027255 -0.017117 0.024904 
0.021243 0.022598 0.001000 
-0.019752 0.025499 0.004663 
0.008557 -0.030000 0.055890 
-0.031539 0.008384 0.014976 
0.019422 -0.022631 0.001000 
0.022796 0.023204 0.035622 
-0.028960 0.006119 0.028186 
0.025707 0.019439 0.041429 
-0.019208 -0.022634 0.008612 
-0.029659 0.013511 0.019693 
-0.001989 0.030000 0.033972 
-0.008019 -0.030000 0.051641 
0.024172 0.021742 0.037639 
0.013514 -0.029657 0.058809 
-0.019463 0.022430 0.015145 
0.027433 -0.010701 0.051793 
-0.011573 0.028742 0.018972 
0.010000 -0.030877 0.037638 
-0.016244 0.027837 0.045149 
0.002842 -0.030000 0.039901 
-0.025994 -0.015018 0.021507 
-0.016350 -0.027766 0.025799 
-0.028317 -0.008050 0.031646 
-0.003043 0.030000 0.043108 
0.032000 0.006996 0.023866 
0.028407 -0.005679 0.000000 
0.029358 0.008224 0.001000 
0.004818 -0.030000 0.013577 
-0.019382 0.025745 0.000678 
0.018715 -0.026190 0.006102 
-0.017649 0.023881 0.026265 
-0.025167 -0.018167 0.055618 
-0.011711 -0.026230 0.000000 
-0.018139 0.007708 0.001000 
0.027403 -0.015875 0.000000 
-0.003350 -0.030000 0.007188 
0.009235 0.031255 0.001592 
-0.010000 -0.030191 0.049863 
-0.021524 -0.020781 0.010666 
-0.005372 0.003661 0.000000 
-0.014903 -0.007270 0.000000 
0.014248 0.026601 0.037802 
-0.003591 0.001715 0.001000 
-0.019726 0.025516 0.025806 
-0.001423 -0.031458 0.000000 
-0.009072 -0.020376 0.001000 
-0.032000 -0.004115 0.052695 
0.028174 -0.015738 0.043465 
-0.018167 0.026555 0.048983 
0.016969 -0.024424 0.019636 
-0.022564 -0.023436 0.010853 
-0.010000 0.030593 0.013112 
0.031436 -0.008691 0.042420 
0.029626 -0.004122 0.012313 
0.004726 0.030000 0.042320 
-0.010000 0.030805 0.015839 
0.029636 -0.004093 0.007005 
0.025344 0.018344 0.047339 
-0.010836 -0.029331 0.011628 
-0.032000 -0.005144 0.019862 
-0.026524 0.018213 0.040843 
-0.021281 -0.024480 0.021048 
-0.030830 -0.010511 0.012646 
0.031679 -0.007962 0.007790 
0.007247 0.031013 -0.000000 
-0.012980 0.027616 0.006374 
-0.017647 0.023882 0.015977 
0.029235 0.014148 0.033603 
0.006458 -0.022946 0.001000 
0.025581 0.016256 0.023689 
0.007119 0.031960 0.013475 
0.020109 0.025261 0.019590 
0.003819 0.031079 0.000000 
0.029845 -0.013232 0.026952 
-0.010545 0.030818 0.049188 
0.010285 -0.026210 0.000000 
-0.004740 0.032000 0.026382 
-0.019396 0.025736 0.006858 
0.007860 0.031713 0.050589 
0.022784 0.019773 0.053419 
0.010231 0.030923 0.003125 
0.026899 -0.012303 0.018388 
-0.018384 0.023293 0.052400 
0.010000 0.030308 0.021765 
0.005869 -0.030000 0.051952 
-0.020417 0.021667 0.013831 
-0.028098 0.008706 0.042028 
0.021441 0.024373 0.008837 
0.014737 0.026210 0.011519 
-0.012493 -0.030169 0.028264 
-0.001553 -0.004748 0.001000 
-0.005946 -0.006482 0.001000 
0.030255 0.002235 0.030099 
-0.002317 -0.022575 0.001000 
-0.025217 -0.017350 0.010968 
-0.005194 0.011606 0.000000 
0.005945 -0.030000 0.019335 
0.025282 -0.018282 0.027181 
0.028936 0.006191 0.057829 
0.019079 0.022737 0.051905 
-0.002527 0.030000 0.016376 
0.030832 0.010504 0.056347 
-0.031520 -0.000000 0.015506 
0.007921 0.031693 0.058543 
-0.008457 -0.027917 0.001000 
-0.014049 -0.026761 0.020881 
0.000415 0.032000 0.004305 
0.017342 -0.024127 0.021966 
-0.026152 -0.014543 0.008071 
0.030135 0.012594 0.031880 
0.025248 0.020127 0.051661 
0.018012 -0.026659 0.018768 
-0.003136 0.015429 0.001000 
-0.021484 -0.020813 0.011804 
0.029862 0.013207 0.015607 
-0.010992 0.030669 0.002827 
0.005910 0.032000 0.048494 
-0.015772 0.025383 0.011884 
0.022555 -0.023445 0.054241 
-0.001826 -0.032000 0.006545 
-0.018619 -0.026254 0.024822 
0.028832 -0.002134 0.000000 
0.028244 0.008342 0.059000 
-0.020865 0.024756 0.039949 
0.000819 -0.030000 0.003386 
-0.011735 0.026947 0.001000 
-0.002439 0.032000 0.019592 
0.031207 -0.009380 0.027723 
0.005530 -0.009753 0.001000 
-0.021201 -0.024533 0.005319 
-0.017635 0.023892 0.016143 
-0.022826 -0.019739 0.018755 
0.002116 0.023177 0.000000 
0.010000 0.030016 0.051512 
0.021549 0.019090 0.000000 
-0.028273 -0.008182 0.003489 
-0.015446 -0.025643 0.002513 
0.022945 0.023055 0.021135 
-0.008402 0.008948 0.000000 
-0.025420 -0.019870 0.035705 
0.007388 0.003415 0.000000 
0.009257 -0.030000 0.023526 
-0.011191 -0.029047 0.006973 
-0.010000 0.030613 0.005404 
0.023621 0.019103 0.030121 
-0.024193 0.002317 0.000000 
0.030409 0.011773 0.043889 
0.031366 0.008901 0.014831 
-0.011031 -0.023086 0.000000 
-0.018793 -0.026138 0.057587 
-0.008348 0.030000 0.022279 
0.006239 -0.030000 0.040291 
-0.022845 0.023155 0.025316 
0.006437 -0.010134 0.001000 
0.029355 -0.004936 0.029943 
0.021776 0.024149 0.021931 
0.023405 -0.022595 0.057107 
0.010000 0.030824 0.018108 
-0.004218 -0.032000 0.020057 
0.015587 -0.028275 0.041417 
-0.012498 -0.030167 0.008415 
-0.014845 0.028770 0.028878 
0.011076 0.030641 0.038624 
-0.025676 -0.015973 0.024392 
-0.030586 -0.011243 0.020889 
-0.017423 0.005390 0.000000 
-0.029191 -0.014214 0.026741 
-0.027496 0.016755 0.000658 
0.014651 0.010834 0.001000 
0.027814 0.006540 0.000000 
-0.021150 0.009253 0.000000 
-0.017771 -0.012257 0.001000 
-0.024412 0.021382 0.003349 
-0.028282 0.015576 0.023790 
0.031049 -0.000000 0.003211 
-0.017751 -0.008749 0.001000 
0.030165 -0.012505 0.000368 
-0.025780 -0.015659 0.037309 
-0.016140 0.027907 0.001763 
0.013969 -0.026825 0.046232 
0.006994 -0.032000 0.027042 
-0.013791 -0.029473 0.017203 
0.008769 -0.022302 0.000000 
0.031914 0.007259 0.006706 
-0.012649 0.027881 0.031462 
0.029666 -0.004022 0.001000 
0.017827 0.026782 0.018155 
0.028139 -0.008582 0.019458 
-0.001037 0.030000 0.041209 
-0.010065 -0.030978 0.007711 
-0.029050 -0.003070 0.001000 
-0.025298 0.020052 0.022129 
0.032000 -0.005077 0.038056 
-0.029548 -0.003017 0.000000 
-0.005584 -0.031955 0.001000 
0.022591 -0.020925 0.059000 
0.002881 -0.006837 0.001000 
0.021756 -0.024163 0.047188 
0.019339 -0.025774 0.011430 
0.028163 -0.008511 0.031977 
-0.020618 0.024921 0.056861 
-0.031707 -0.000000 0.012352 
0.025610 0.016170 0.009101 
-0.032000 -0.006089 0.038747 
-0.004422 -0.016222 0.000000 
0.031262 0.009213 0.044249 
-0.032000 0.005087 0.008326 
-0.005374 0.024288 0.001000 
-0.032203 0.002391 0.058341 
-0.029437 -0.012829 0.000000 
0.006148 -0.030000 0.028450 
0.022203 0.020238 0.023522 
0.030502 0.011495 0.004986 
0.000088 -0.027128 0.000000 
0.021078 -0.004182 0.000000 
-0.032000 -0.002317 0.032449 
0.025877 -0.019184 0.000583 
-0.008021 0.030000 0.020956 
0.004514 -0.015438 0.000000 
0.005073 0.032000 0.006005 
-0.010966 0.001863 0.001000 
0.028817 -0.014775 0.024993 
-0.021479 -0.020817 0.058479 
-0.028527 -0.007420 0.025741 
0.009960 -0.031013 0.034500 
0.022850 -0.023150 0.038838 
-0.011971 0.028423 0.035595 
0.008929 -0.030000 0.037492 
0.030064 0.002809 0.029619 
0.032000 0.005942 0.029798 
-0.019828 -0.023436 0.000000 
-0.002215 -0.030000 0.009633 
-0.016875 -0.025463 0.000000 
-0.024745 -0.020883 0.043690 
0.022160 0.021317 0.001000 
-0.032000 -0.004629 0.031136 
-0.012863 0.027710 0.054958 
-0.005275 -0.032000 0.052920 
0.005264 -0.032000 0.008836 
-0.001340 -0.032553 0.055557 
0.001104 0.030000 0.057757 
-0.017577 0.026949 0.020911 
0.029037 0.005890 0.050614 
0.014149 -0.026681 0.031618 
0.024542 0.018367 0.023327 
-0.032000 0.002700 0.025818 
0.014180 0.026656 0.054131 
0.026080 -0.014759 0.027740 
0.016519 -0.027654 0.022879 
0.000008 0.032000 0.014905 
0.002210 0.017431 0.000000 
0.032000 -0.005824 0.008889 
-0.023839 -0.022161 0.013957 
-0.028957 0.006128 0.019200 
-0.017016 0.027323 0.054229 
-0.015821 -0.028119 0.012535 
-0.005459 0.031075 0.001000 
0.008589 0.031470 0.011362 
-0.029484 0.013774 0.024249 
0.001949 0.008387 0.000000 
0.025822 -0.015534 0.047613 
0.015134 0.010394 0.000000 
0.015382 -0.025694 0.011331 
0.015730 0.010430 0.000000 
0.027093 -0.017360 0.054695 
-0.028783 0.006650 0.046711 
-0.029854 0.003439 0.005345 
-0.008513 -0.031496 0.048633 
-0.032434 0.001698 0.058738 
0.031478 0.008566 0.020802 
-0.013431 -0.029713 0.003676 
-0.031312 -0.000000 0.023927 
0.016800 -0.002022 0.001000 
-0.012948 -0.019325 0.001000 
0.023201 -0.019439 0.041746 
-0.018367 -0.020905 0.001000 
0.003161 0.032000 0.037437 
-0.022121 0.020303 0.053904 
0.011475 0.006593 0.000000 
-0.017513 -0.026992 0.001832 
0.025942 0.019087 0.040782 
-0.032000 -0.004407 0.024133 
-0.013165 0.029890 0.054309 
-0.006921 0.032000 0.041735 
-0.026400 -0.018399 0.056883 
0.029572 0.004285 0.006687 
0.011182 0.030606 0.008708 
0.007211 -0.021396 0.000000 
-0.022022 0.023978 0.046066 
-0.001164 -0.032000 0.015375 
0.018698 -0.023042 0.028112 
0.001671 0.026249 0.001000 
-0.020518 0.021585 0.031925 
-0.006434 -0.032000 0.050668 
-0.029956 0.003132 0.017202 
-0.020018 -0.025321 0.007241 
0.004553 0.012896 0.000000 
-0.000753 0.000965 0.000000 
-0.000935 -0.032688 0.057499 
-0.017914 0.026724 0.052795 
-0.001782 -0.021685 0.000000 
-0.022074 -0.023926 0.044820 
-0.017854 -0.026764 0.033078 
-0.020566 0.024956 0.041510 
0.010231 0.020924 0.001000 
0.016644 -0.027570 0.022734 
-0.001927 -0.022322 0.000000 
0.007009 -0.024709 0.001000 
0.026919 -0.017621 0.040378 
0.018732 0.005052 0.001000 
-0.006892 0.032000 0.019086 
0.015708 -0.028195 0.022312 
-0.025148 0.018148 0.036741 
0.007718 -0.030000 0.013868 
-0.025767 -0.018767 0.000296 
-0.001040 -0.010304 0.000000 
0.026784 0.012648 0.016202 
-0.025660 0.016021 0.041168 
0.003971 0.032000 0.033465 
-0.030875 -0.010375 0.053543 
0.028703 0.006891 0.030136 
-0.027400 -0.016900 0.051015 
0.009646 -0.019709 0.001000 
-0.013690 0.007465 0.001000 
-0.029230 -0.006352 0.059000 
0.024424 0.018298 0.000000 
0.015792 -0.025367 0.053855 
0.021302 0.020958 0.032655 
0.022255 -0.008882 0.001000 
0.023519 0.019184 0.021240 
0.001973 0.032000 0.028952 
0.001236 0.030000 0.057738 
0.017389 0.024088 0.057543 
0.019671 -0.010824 0.001000 
0.019691 0.003299 0.000000 
0.029310 -0.005071 0.019100 
0.030506 -0.000204 0.000000 
0.024191 0.018647 0.011380 
0.025866 -0.014323 0.000000 
0.029671 -0.003986 0.058924 
-0.012257 -0.025372 0.001000 
0.027941 -0.016088 0.010271 
0.007331 0.030000 0.014396 
-0.006758 0.030000 0.027082 
0.025884 0.018884 0.016596 
-0.020659 0.010410 0.000000 
-0.024967 0.020549 0.009187 
-0.020853 -0.024764 0.058075 
0.000558 -0.030000 0.016683 
-0.010665 -0.029468 0.037503 
-0.009843 0.031052 0.039505 
0.015636 0.010609 0.000000 
0.020227 0.003963 0.000000 
-0.030719 -0.010842 0.042976 
0.001550 -0.032476 0.047482 
-0.011004 -0.029197 0.033041 
0.007117 -0.030000 0.000644 
0.026532 0.013405 0.047252 
-0.025795 -0.015616 0.017093 
-0.031593 -0.008220 0.027745 
-0.026891 0.012326 0.050092 
0.015970 0.025224 0.050662 
0.032000 -0.006050 0.009056 
-0.017889 -0.003189 0.001000 
0.025612 -0.018612 0.054153 
-0.029013 0.014481 0.003610 
0.009457 -0.012096 0.001000 
-0.001160 -0.032000 0.035292 
0.032000 -0.005122 0.011915 
0.003601 0.032000 0.047658 
0.004589 -0.006310 0.000000 
0.010000 0.030863 0.012265 
0.008021 0.010742 0.001000 
-0.020360 0.025093 0.056399 
-0.011588 0.007500 0.000000 
-0.003300 0.030000 0.045675 
-0.024192 -0.018647 0.049655 
0.030645 -0.001065 0.036290 
0.026852 -0.017722 0.008344 
0.029557 0.013664 0.018518 
0.011947 0.028442 0.030105 
-0.025296 -0.011682 0.000000 
0.016903 -0.024477 0.045563 
-0.002185 -0.032000 0.020196 
-0.000863 0.031330 0.059000 
-0.009417 0.007982 0.001000 
-0.025512 0.019733 0.002417 
0.017700 -0.014564 0.000000 
-0.017774 -0.017876 0.001000 
0.009114 0.031295 0.036352 
0.019330 -0.022536 0.022672 
0.032000 -0.005187 0.047091 
-0.032465 -0.001605 0.054451 
0.001816 0.032395 0.051352 
-0.014133 0.026694 0.042346 
0.027736 -0.009791 0.030849 
-0.028750 -0.006750 0.041180 
0.015584 -0.025533 0.019612 
0.032000 0.004202 0.040815 
-0.024053 -0.018757 0.026969 
-0.008672 0.031443 0.054079 
-0.022896 0.023104 0.057503 
0.030117 0.002648 0.005451 
-0.027415 0.010754 0.051787 
0.028589 0.007234 0.016574 
0.031855 -0.000000 0.057599 
0.029063 0.005812 0.024908 
0.022484 -0.020013 0.058865 
-0.025944 0.015167 0.012612 
0.032000 -0.001923 0.025953 
-0.031641 -0.008076 0.008543 
-0.005101 -0.030000 0.055333 
-0.015606 0.028262 0.027857 
-0.026078 0.018882 0.009635 
-0.025011 0.015527 0.000000 
-0.007537 0.031821 0.022651 
0.023491 0.019207 0.046630 
-0.031610 0.008170 0.007754 
0.007875 0.030000 0.035588 
-0.029860 -0.007493 0.000000 
0.019028 0.018180 0.001000 
0.026128 -0.014617 0.030116 
-0.032000 -0.003464 0.049754 
0.024467 -0.018427 0.035785 
-0.032000 0.003321 0.010193 
-0.031484 0.008548 0.039063 
-0.025032 -0.017903 0.004733 
0.032000 -0.006204 0.018674 
0.007548 0.001208 0.000000 
-0.005995 0.030000 0.044748 
-0.030476 0.001571 0.032818 
0.016449 0.023904 0.001000 
-0.013088 0.029941 0.020195 
0.004489 0.030000 0.028911 
0.028379 -0.015432 0.031281 
-0.031316 0.009053 0.024249 
-0.019844 0.023298 0.000000 
0.014462 -0.029025 0.058635 
-0.004100 0.030203 0.000000 
0.016247 0.025002 0.036266 
-0.020972 0.024685 0.008652 
0.000408 0.030000 0.025471 
-0.000830 0.028811 0.001000 
0.001325 -0.032000 0.027200 
-0.008294 0.014606 0.000000 
-0.032000 0.003551 0.045195 
-0.026365 0.006538 0.001000 
-0.032861 -0.000380 0.055934 
0.021387 0.016670 0.001000 
-0.025484 0.016548 0.028454 
0.008537 0.016102 0.001000 
-0.002395 -0.032000 0.034986 
-0.008024 0.030000 0.005043 
-0.030987 -0.003973 0.001000 
0.022586 -0.019932 0.049292 
-0.018872 0.022903 0.041604 
-0.026430 -0.018355 0.032319 
-0.010000 0.030250 0.050711 
-0.030869 0.000392 0.040484 
0.024952 0.018039 0.027017 
-0.025033 -0.017900 0.051290 
-0.011334 -0.028933 0.015634 
0.014972 -0.028686 0.036765 
0.003400 -0.009980 0.000000 
0.010552 0.030816 0.023857 
-0.020788 0.021900 0.059000 
-0.023092 0.022632 0.000000 
0.032000 0.005745 0.038466 
-0.002857 -0.015984 0.001000 
0.032000 -0.000607 0.019802 
-0.008236 0.031588 0.003615 
-0.032000 -0.000671 0.028893 
0.013989 0.026809 0.022053 
-0.026596 0.013211 0.035659 
-0.026098 0.018853 0.056914 
-0.026484 -0.013549 0.006043 
-0.019997 0.022003 0.024872 
-0.032000 -0.004081 0.032767 
-0.002924 -0.030000 0.050847 
0.020304 0.021757 0.047183 
-0.020624 0.014705 0.001000 
-0.008268 -0.028147 0.001000 
0.014944 -0.022462 0.000000 
-0.011305 -0.021559 0.000000 
0.023725 0.022275 0.044815 
-0.007266 0.005902 0.001000 
-0.013695 -0.024637 0.000000 
-0.029794 -0.003617 0.049561 
-0.000149 0.030000 0.001802 
0.026984 -0.017524 0.042938 
0.014715 0.004973 0.001000 
-0.025960 -0.019060 0.031330 
-0.005705 0.032000 0.036268 
-0.032000 -0.004724 0.000961 
-0.025335 -0.016995 0.046169 
-0.015771 0.003541 0.001000 
0.027059 0.011823 0.006487 
-0.000077 -0.032000 0.030139 
-0.001344 0.027192 0.000000 
-0.009251 0.022556 0.000000 
0.025057 0.017830 0.036919 
0.027286 -0.011143 0.030878 
0.019551 0.024925 0.059000 
-0.002686 0.007516 0.001000 
0.003072 -0.030000 0.020905 
0.014232 -0.020457 0.000000 
-0.013803 0.029465 0.013953 
0.025630 -0.019554 0.036445 
-0.008192 -0.030000 0.007025 
0.030588 0.011236 0.025870 
-0.001896 -0.030000 0.035042 
0.013520 0.029654 0.014351 
-0.021716 -0.020627 0.021584 
-0.030206 -0.002381 0.033744 
-0.031161 -0.009517 0.011199 
0.028372 -0.007884 0.015271 
-0.012768 0.027786 0.032243 
-0.014783 0.028811 0.010971 
0.032000 -0.005786 0.042083 
0.002710 -0.011923 0.000000 
-0.002924 0.021382 0.001000 
0.012649 0.008841 0.000000 
0.019888 -0.022090 0.025341 
0.032089 -0.000000 0.048844 
0.023433 -0.022567 0.049016 
0.001375 -0.030000 0.000296 
-0.022678 0.019858 0.044074 
-0.020379 -0.025081 0.033262 
-0.021526 0.024316 0.031814 
0.028085 0.015873 0.044943 
-0.032701 0.000578 0.052413 
0.031176 -0.009473 0.035495 
-0.025576 0.019636 0.030680 
0.030463 0.001610 0.001038 
-0.030098 0.012707 0.021218 
0.014649 -0.028901 0.018368 
0.012294 0.030235 0.056082 
-0.022389 0.023611 0.027483 
0.013873 -0.009153 0.001000 
0.024363 0.019707 0.059000 
-0.012979 0.030007 0.002940 
0.025344 0.016967 0.002897 
0.009615 0.031128 0.051708 
-0.030031 -0.012906 0.055483 
0.002748 0.030000 0.054456 
0.007228 -0.030000 0.007401 
0.024745 -0.018204 0.036012 
0.032000 -0.001403 0.024623 
-0.009635 0.030000 0.051805 
0.000724 0.030000 0.044493 
0.012620 0.030127 0.003363 
0.007655 0.030000 0.040828 
-0.027979 0.009062 0.053838 
0.027254 -0.017119 0.057766 
-0.002351 -0.032216 0.049131 
0.009893 0.031036 0.019060 
0.028168 0.015749 0.001700 
0.018253 0.026498 0.057788 
-0.028244 0.008267 0.015289 
0.019699 0.022241 0.009824 
-0.013995 0.029337 0.031633 
0.009038 0.026569 0.000000 
-0.019978 -0.015724 0.000000 
0.026677 0.012969 0.001494 
0.025154 -0.017537 0.009110 
-0.019502 0.025665 0.042659 
0.011266 -0.028987 0.033329 
0.008883 0.012169 0.000000 
0.026771 -0.012687 0.024326 
0.017905 -0.023676 0.049552 
0.013873 -0.026902 0.001041 
-0.010851 -0.029319 0.016713 
0.004023 -0.025682 0.001000 
-0.029246 -0.012202 0.001000 
0.027529 -0.016706 0.009421 
-0.014106 -0.029262 0.030833 
-0.001805 0.030000 0.025125 
-0.008001 -0.021766 0.000000 
0.009178 0.031274 0.015739 
-0.029380 -0.004861 0.014912 
-0.006343 -0.014505 0.000000 
0.026095 0.014715 0.013097 
0.027103 0.017345 0.011775 
0.006938 -0.032000 0.033270 
-0.013010 -0.022997 0.001000 
0.029654 0.004037 0.049227 
-0.009248 0.031251 0.033058 
0.000079 -0.030465 0.000000 
-0.008533 0.030000 0.026653 
-0.027608 -0.010175 0.021883 
-0.005736 -0.027043 0.000000 
-0.025120 0.017640 0.039783 
0.028306 0.008081 0.027624 
0.026587 -0.018119 0.043765 
0.024482 -0.018415 0.053417 
0.008866 -0.012107 0.000000 
-0.030816 -0.010551 0.046550 
0.000457 0.030000 0.049003 
-0.030746 0.000761 0.014481 
0.029528 -0.013708 0.034894 
0.005393 -0.021718 0.000000 
-0.002716 -0.030000 0.024447 
-0.031287 0.009140 0.052527 
-0.007993 0.031669 0.027033 
-0.020881 0.015950 0.001000 
-0.006376 0.030000 0.004801 
-0.030000 -0.002999 0.036358 
0.022312 -0.020151 0.019203 
0.021354 -0.024431 0.056514 
0.014670 0.026264 0.037026 
0.024740 -0.020889 0.022769 
-0.032000 -0.003800 0.010430 
0.010000 -0.030600 0.031106 
0.032705 0.000145 0.053567 
0.027160 0.011520 0.007906 
-0.020985 -0.006112 0.001000 
-0.025520 0.018520 0.004847 
0.017243 -0.024205 0.038319 
-0.030616 -0.001152 0.021719 
0.027490 -0.016765 0.022007 
-0.032000 0.006213 0.026993 
0.019531 0.022375 0.050537 
-0.030161 0.012518 0.057334 
-0.015345 -0.022429 0.000000 
-0.032000 -0.006742 0.056152 
0.027845 0.009464 0.013017 
-0.012369 -0.012945 0.000000 
0.010680 0.030773 0.004351 
0.005758 0.032000 0.049392 
-0.025572 -0.016284 0.028885 
-0.027122 -0.015646 0.000000 
-0.000630 0.030000 0.024919 
0.017767 0.023027 0.001000 
0.022496 -0.022565 0.000000 
-0.011388 0.008767 0.001000 
0.009137 0.031288 0.055148 
-0.019388 -0.025741 0.046985 
-0.016538 0.027642 0.017274 
0.008705 0.031432 0.029484 
-0.009109 0.030204 0.000000 
-0.030303 0.012091 0.048066 
0.003967 -0.030000 0.056824 
-0.010600 0.029520 0.016091 
0.001076 -0.032000 0.007891 
-0.025036 0.018036 0.049181 
-0.030514 0.000103 0.000000 
-0.026335 0.013994 0.009751 
-0.023062 -0.019551 0.021520 
-0.006666 0.006460 0.000000 
0.011514 -0.024515 0.000000 
0.032314 -0.001172 0.043904 
0.027474 -0.010579 0.021151 
-0.031490 -0.000000 0.058015 
0.022123 0.020302 0.019853 
0.003697 0.006533 0.001000 
-0.006240 0.024084 0.000000 
-0.026405 0.013786 0.033216 
-0.023381 -0.022619 0.025008 
-0.025906 -0.018906 0.018454 
-0.029144 -0.005567 0.040972 
-0.013444 0.027245 0.057937 
0.003821 -0.030000 0.026195 
0.025178 -0.017465 0.045239 
0.020449 0.025034 0.052720 
-0.005161 -0.032000 0.043248 
0.015967 -0.025249 0.000000 
0.023549 0.019216 0.000000 
-0.030009 0.012974 0.006273 
-0.005454 0.032000 0.015763 
0.006385 0.032000 0.049327 
-0.019462 -0.025692 0.021631 
-0.022097 -0.023903 0.030451 
0.017193 0.027205 0.005076 
0.021640 0.020688 0.027499 
0.008147 0.010392 0.000000 
0.007879 -0.030000 0.000318 
0.007511 -0.030000 0.049435 
-0.027685 -0.016472 0.025216 
-0.018697 0.016682 0.001000 
0.025133 -0.017601 0.043170 
0.014349 -0.026521 0.036299 
-0.008090 -0.003944 0.001000 
0.030884 0.010347 0.035792 
-0.029143 0.011233 0.059000 
0.022974 0.019621 0.012505 
-0.027872 -0.016192 0.045115 
-0.003214 -0.032000 0.008065 
0.025063 -0.017812 0.005150 
0.011305 -0.028956 0.031640 
0.022068 -0.023932 0.012366 
-0.019753 0.004559 0.001000 
-0.027698 -0.009905 0.048231 
0.022396 0.020083 0.021691 
0.013570 0.029620 0.038444 
0.009971 -0.030000 0.014413 
0.000894 -0.032000 0.035962 
0.031401 -0.008796 0.036353 
-0.013516 -0.027187 0.052930 
-0.026152 0.014543 0.042537 
-0.031451 0.008646 0.036946 
0.008088 -0.025274 0.001000 
0.011320 0.028944 0.055492 
-0.018492 -0.026338 0.041000 
0.016036 0.027976 0.049200 
0.025684 0.015948 0.007081 
-0.022065 -0.023935 0.015529 
0.004947 0.030000 0.052736 
0.029978 -0.013033 0.027833 
0.032000 -0.000196 0.027408 
0.015597 0.010141 0.001000 
-0.013850 0.026920 0.004377 
-0.028852 0.014722 0.006902 
0.020432 0.025045 0.048605 
0.002616 -0.030000 0.037410 
-0.016279 0.027814 0.026373 
0.001932 -0.030000 0.042552 
-0.031645 -0.000000 0.012197 
-0.023392 -0.022608 0.045225 
-0.019811 0.017999 0.000000 
-0.031132 -0.009604 0.018645 
0.015978 -0.028015 0.056695 
-0.029530 -0.013705 0.015781 
-0.010000 0.030420 0.001175 
-0.001126 -0.000930 0.000000 
0.026654 -0.013039 0.046790 
0.018799 -0.022961 0.050007 
0.018582 -0.023135 0.009060 
0.030680 -0.010961 0.009060 
0.027390 -0.016916 0.015388 
0.012062 0.030313 0.048679 
-0.023770 0.013754 0.000000 
-0.011149 -0.029080 0.057379 
-0.010000 0.030002 0.023035 
0.027064 -0.011807 0.011058 
0.026071 -0.014786 0.027514 
0.009446 0.031185 0.053236 
-0.017443 0.024046 0.047855 
0.014962 -0.028692 0.036572 
0.018249 0.003844 0.000000 
-0.030376 -0.001871 0.016510 
-0.025760 -0.015721 0.048549 
0.013192 -0.027446 0.030770 
0.010000 0.030689 0.022507 
0.032000 0.001856 0.014362 
-0.010455 -0.003090 0.001000 
-0.032000 -0.003602 0.015357 
-0.030164 0.000543 0.000000 
-0.012839 0.030054 0.014851 
0.029944 -0.003169 0.039147 
0.010068 -0.030977 0.014819 
0.025819 0.018819 0.031044 
-0.000751 -0.030000 0.002170 
0.007474 0.030000 0.021717 
-0.013097 0.008124 0.001000 
-0.025105 0.018105 0.039479 
-0.032000 -0.004961 0.013619 
0.007738 0.030000 0.034359 
0.024836 0.017065 0.000000 
-0.019192 -0.022646 0.008380 
0.020736 -0.012418 0.000000 
-0.015415 -0.015054 0.000000 
0.019347 0.022522 0.005476 
-0.016470 0.027687 0.009857 
0.006291 0.032000 0.054946 
0.020586 0.014672 0.000000 
-0.008407 0.002579 0.001000 
0.006209 -0.030000 0.049273 
-0.032400 0.001799 0.054327 
-0.025684 -0.015949 0.050235 
-0.020171 -0.025219 0.036270 
-0.005281 0.010686 0.001000 
-0.031339 -0.008984 0.029300 
0.025569 -0.019647 0.015842 
-0.025873 -0.018873 0.051380 
-0.030967 -0.010100 0.023384 
-0.027091 0.017363 0.000798 
-0.019482 0.023101 0.001000 
-0.032346 -0.001962 0.048523 
0.014636 0.028909 0.045903 
0.032000 0.006951 0.034242 
0.003116 -0.018448 0.000000 
-0.007981 0.027889 0.001000 
-0.003488 0.032000 0.053540 
-0.030971 -0.000087 0.046602 
0.000113 0.030000 0.002415 
0.027916 -0.009253 0.038843 
0.013496 0.029670 0.000693 
0.012382 0.030206 0.035374 
-0.017527 0.026867 0.059000 
0.020114 0.021909 0.025779 
-0.005848 0.030000 0.040417 
0.006036 0.001639 0.000000 
-0.030211 0.012367 0.006986 
-0.025272 -0.018272 0.045773 
-0.018230 0.023416 0.039447 
0.004700 0.032000 0.054952 
0.002488 0.015488 0.000000 
-0.012666 -0.030111 0.053921 
-0.011054 0.005952 0.001000 
0.006872 0.010795 0.000000 
-0.001873 0.030000 0.001532 
0.032000 -0.002311 0.015510 
-0.021224 -0.021021 0.013374 
0.003395 -0.001682 0.001000 
-0.025745 0.018745 0.021229 
0.024465 -0.020483 0.000000 
-0.006272 0.030000 0.044195 
-0.010063 -0.029184 0.001000 
0.031573 -0.008282 0.033009 
-0.000261 0.032067 0.038473 
-0.023249 0.022751 0.038306 
-0.007201 -0.030000 0.002921 
0.022292 0.003148 0.001000 
0.021506 0.023104 0.000000 
-0.012686 -0.027852 0.044679 
-0.018953 0.026031 0.007313 
-0.030095 0.012716 0.034681 
-0.025350 0.018350 0.043251 
0.022646 0.019883 0.009081 
0.007838 -0.012699 0.000000 
0.025255 0.020118 0.021144 
-0.027453 -0.010641 0.046212 
0.027747 0.009760 0.039530 
-0.003784 0.023926 0.000000 
-0.008097 -0.031634 0.053957 
-0.026848 -0.012455 0.000045 
-0.032000 -0.005884 0.003064 
0.022168 -0.017578 0.001000 
0.018462 0.023230 0.039018 
0.007028 0.030000 0.056458 
0.005153 0.030000 0.001003 
0.019580 0.022336 0.014050 
0.012773 -0.027782 0.034700 
0.029154 0.005538 0.042746 
0.023073 0.007635 0.001000 
0.026685 -0.012946 0.025791 
-0.030967 0.010100 0.032529 
-0.015741 0.025407 0.039869 
0.031095 -0.009715 0.009715 
-0.026559 -0.013323 0.053907 
0.020270 0.025153 0.046074 
-0.022174 -0.023826 0.011603 
0.003439 -0.032000 0.012239 
-0.029700 -0.013450 0.036445 
-0.015374 0.025701 0.017971 
0.013416 0.027268 0.012385 
0.002940 -0.018325 0.001000 
0.010337 0.009690 0.001000 
-0.025591 0.018591 0.035183 
0.027762 -0.014308 0.059000 
0.025914 0.019129 0.014677 
-0.016852 0.024518 0.030469 
0.027103 -0.011690 0.028605 
0.031700 -0.007901 0.005905 
0.013641 0.027087 0.038237 
0.024179 0.021731 0.046732 
0.019403 0.019433 0.001000 
-0.002066 -0.000752 0.000000 
0.002837 0.032054 0.048641 
0.001491 0.030545 0.001000 
-0.023133 0.015507 0.001000 
-0.008079 -0.030000 0.035140 
0.022732 -0.023268 0.052830 
0.001723 -0.030000 0.025258 
0.001182 0.030000 0.035455 
0.004274 -0.032000 0.004566 
0.014978 0.026017 0.027171 
-0.030567 -0.001298 0.053138 
0.028243 -0.013377 0.000000 
-0.029237 0.014145 0.038970 
0.027802 -0.009595 0.039649 
0.025209 0.020186 0.050686 
-0.027926 -0.009222 0.020262 
-0.026566 -0.013301 0.019831 
0.032000 -0.003399 0.020902 
0.027340 0.016991 0.020063 
-0.028734 -0.014898 0.011825 
-0.030603 0.001192 0.028895 
0.032000 -0.006882 0.035809 
-0.006398 0.032000 0.024376 
0.018081 -0.026613 0.013914 
0.025811 0.015567 0.052578 
0.029000 0.005999 0.048858 
-0.018243 -0.026505 0.051868 
-0.006128 0.030000 0.039247 
-0.022431 -0.020606 0.059000 
0.030093 -0.012722 0.033477 
-0.025675 -0.018675 0.017175 
-0.017727 0.026849 0.013838 
0.025347 0.018347 0.047094 
0.026916 -0.017626 0.033403 
-0.015643 -0.028238 0.012701 
0.024862 -0.011713 0.001000 
-0.030207 -0.012379 0.009802 
0.026204 -0.014387 0.042747 
0.005687 -0.025495 0.001000 
0.005939 -0.032000 0.001545 
-0.003743 -0.030000 0.004970 
0.027618 -0.010145 0.014056 
-0.025712 0.015863 0.050331 
-0.032000 -0.006781 0.028225 
0.011881 -0.017919 0.000000 
0.025291 0.017126 0.044063 
-0.003490 0.030000 0.013253 
-0.001863 0.032379 0.046073 
0.012833 0.008891 0.000000 
-0.028696 -0.006913 0.032296 
-0.023643 -0.019085 0.013441 
0.015108 0.025914 0.058019 
0.011493 -0.011677 0.000000 
-0.031859 -0.007422 0.057765 
-0.029029 -0.005914 0.007677 
-0.012490 0.028008 0.006910 
0.019937 -0.025376 0.015028 
0.024214 -0.021678 0.004192 
0.009673 -0.020649 0.000000 
-0.023519 -0.019185 0.032625 
0.014873 -0.028751 0.025410 
-0.002512 0.030000 0.019822 
0.032000 -0.000770 0.019290 
0.020040 -0.025307 0.007179 
-0.032330 0.002009 0.051853 
-0.004505 0.028876 0.000000 
0.005334 -0.032000 0.002933 
-0.025755 -0.009866 0.001000 
-0.022288 -0.020170 0.020394 
-0.009919 -0.020008 0.001000 
0.004296 -0.005343 0.000000 
0.017624 0.008215 0.000000 
0.023442 0.019246 0.023603 
-0.024938 0.020593 0.044829 
-0.032000 -0.006076 0.027710 
-0.025020 0.009735 0.000000 
0.021698 0.020641 0.054409 
-0.032000 0.005677 0.003724 
0.012354 -0.015064 0.001000 
0.023135 -0.019492 0.050423 
0.023021 -0.022979 0.038640 
0.015062 -0.028625 0.001948 
0.022488 0.020009 0.030239 
0.020615 0.024923 0.013877 
0.020567 -0.024955 0.042312 
0.022612 -0.016881 0.000000 
0.025945 0.018945 0.002706 
-0.002447 0.032000 0.024496 
0.007221 -0.031926 0.027082 
-0.006534 -0.032000 0.000904 
-0.023862 0.022138 0.049065 
0.016395 -0.027736 0.049619 
0.025835 0.015496 0.004467 
-0.016056 -0.000599 0.000000 
0.001012 -0.032000 0.015294 
-0.030032 0.012904 0.049842 
0.029519 0.004443 0.020111 
-0.018106 0.026596 0.017472 
0.019116 -0.025923 0.040876 
0.028320 0.008041 0.049921 
-0.031170 0.009491 0.049982 
0.027682 0.016477 0.005157 
-0.020632 -0.016460 0.001000 
0.024080 -0.018736 0.032007 
0.006451 0.031849 0.059000 
-0.009503 0.027779 0.001000 
-0.021762 0.024159 0.012754 
0.029149 0.005553 0.008090 
0.027243 0.017136 0.019730 
0.010000 -0.030182 0.016056 
-0.005957 -0.032000 0.057758 
-0.030738 -0.010787 0.013334 
-0.013851 -0.028487 0.000000 
0.021082 -0.024612 0.005188 
0.025228 0.020159 0.021600 
-0.006577 -0.032000 0.031168 
0.028601 0.015099 0.014546 
-0.005792 -0.000207 0.000000 
-0.022176 0.003282 0.001000 
-0.013640 -0.027088 0.047089 
-0.025652 -0.019522 0.021338 
-0.030295 0.012115 0.012300 
-0.007589 0.028120 0.001000 
0.014101 -0.029266 0.025488 
0.028786 -0.006643 0.041944 
-0.017954 -0.023637 0.053047 
-0.025533 0.019701 0.033788 
0.011611 0.030463 0.008650 
0.004613 0.032000 0.019008 
0.030734 0.010798 0.043844 
0.011573 0.028741 0.025588 
-0.013309 0.029794 0.034051 
-0.007542 -0.031819 0.007367 
-0.015027 -0.027261 0.000000 
0.023917 0.018867 0.035499 
-0.021941 -0.024040 0.016227 
0.005641 0.030000 0.056856 
-0.021163 -0.023814 0.000000 
-0.007215 -0.030000 0.018293 
0.028991 0.014513 0.023933 
0.009231 0.031256 0.057715 
-0.021124 -0.024584 0.024921 
0.027536 -0.016696 0.034077 
0.011390 0.028888 0.048022 
0.010028 -0.029978 0.004849 
0.001406 0.030000 0.026228 
0.013279 -0.027377 0.025243 
0.029780 -0.004151 0.000000 
-0.028287 -0.008140 0.019333 
-0.022408 -0.020073 0.007014 
-0.004557 0.030323 0.000000 
-0.031606 -0.004311 0.000000 
-0.029978 0.003065 0.035004 
0.025918 -0.018918 0.005049 
-0.010109 0.029912 0.002783 
-0.030805 -0.010584 0.042292 
0.032000 -0.006489 0.023895 
0.022900 0.019680 0.007842 
-0.028442 -0.007675 0.032310 
0.023679 -0.007178 0.001000 
-0.019903 0.018525 0.000000 
-0.011038 0.009717 0.000000 
-0.021417 -0.020866 0.020431 
-0.000360 -0.032000 0.008472 
0.032000 0.000678 0.027208 
0.009747 -0.030000 0.027204 
-0.014062 -0.026750 0.036379 
0.028549 -0.007352 0.029177 
0.030207 -0.002380 0.010943 
-0.030612 -0.011164 0.022872 
0.003477 -0.010719 0.001000 
0.010919 0.029265 0.058793 
-0.011126 -0.021963 0.000000 
0.029825 0.013262 0.035772 
0.014325 -0.027981 0.000000 
0.028476 0.007571 0.022428 
-0.005040 0.032000 0.044750 
0.012187 -0.028250 0.037390 
0.014393 -0.029071 0.040759 
0.032000 -0.003392 0.052499 
0.025472 0.018472 0.045325 
-0.020034 0.021973 0.036193 
-0.006093 0.032000 0.003010 
0.014668 -0.026266 0.000293 
-0.027099 -0.011703 0.044186 
-0.028063 0.008810 0.028767 
-0.015566 -0.025547 0.025912 
-0.012089 -0.030304 0.001706 
0.012594 -0.027925 0.014506 
-0.025392 -0.016824 0.002255 
-0.023238 0.019410 0.033686 
0.011097 0.029122 0.017336 
0.026454 -0.013639 0.027818 
-0.022654 -0.023346 0.015915 
-0.010397 -0.000836 0.001000 
0.031626 -0.000000 0.009150 
0.013770 -0.026984 0.056778 
0.010000 -0.030036 0.034149 
-0.032000 0.004168 0.044185 
0.012568 0.012639 0.001000 
-0.021391 0.020887 0.055524 
-0.032156 -0.000000 0.057543 
0.004981 0.025840 0.000000 
0.025101 -0.018101 0.056735 
0.026548 0.002642 0.000000 
0.023892 -0.018886 0.054234 
-0.027597 0.001114 0.000000 
-0.006184 0.030000 0.007770 
-0.030506 0.011482 0.000567 
0.026086 0.014741 0.041504 
-0.012013 0.030329 0.003469 
-0.003725 0.030000 0.053158 
0.025595 -0.019607 0.042350 
-0.001252 -0.030236 0.059000 
-0.026332 0.018502 0.005804 
0.025467 -0.016600 0.058774 
-0.012561 -0.005833 0.000000 
0.011933 0.028454 0.054804 
0.032293 -0.001556 0.043443 
0.008733 -0.031422 0.048485 
0.008839 0.031387 0.053539 
-0.031576 -0.008271 0.054319 
-0.024881 -0.013791 0.001000 
0.030273 0.010125 0.001000 
0.025412 -0.018412 0.043053 
-0.012688 0.019596 0.001000 
-0.016141 -0.027906 0.034189 
0.025804 0.019294 0.031236 
-0.013416 0.029722 0.007181 
-0.008479 -0.031507 0.033657 
-0.010288 0.024615 0.000000 
0.015277 -0.023523 0.001000 
0.029753 -0.013370 0.044446 
0.029468 -0.013798 0.056728 
-0.031724 -0.007827 0.026879 
-0.010000 0.030889 0.047959 
-0.020049 -0.025301 0.037944 
0.016930 0.024456 0.019981 
-0.018497 -0.026335 0.007718 
0.028859 -0.014712 0.031319 
0.030153 -0.012542 0.006204 
0.014077 -0.026739 0.032883 
0.002627 0.030000 0.047077 
-0.012505 -0.030165 0.011452 
0.030638 0.001085 0.052789 
0.010760 0.030747 0.048199 
0.019469 -0.022425 0.003643 
0.009489 0.030000 0.014258 
0.002245 0.032252 0.058065 
0.010819 0.010227 0.000000 
0.028344 -0.010998 0.000000 
-0.000334 -0.030000 0.018753 
0.025031 -0.020453 0.017799 
-0.010000 -0.030829 0.011386 
0.001973 0.032000 0.004396 
-0.025707 -0.019440 0.051323 
0.031477 -0.008570 0.003007 
-0.007713 0.013453 0.000000 
0.030577 -0.011269 0.014704 
0.025772 -0.015684 0.057447 
0.027551 0.010346 0.010480 
0.031795 0.007615 0.005797 
0.012520 -0.030160 0.008319 
0.006587 -0.031094 0.000000 
-0.011889 -0.007048 0.000000 
-0.029405 0.013893 0.044825 
-0.018438 -0.026374 0.010734 
-0.009784 0.030000 0.015792 
0.026145 0.014564 0.047855 
-0.020133 -0.013741 0.001000 
0.031655 -0.005091 0.059000 
0.025065 0.020403 0.017154 
-0.010016 0.006641 0.001000 
0.014232 -0.029179 0.006839 
-0.027893 -0.009321 0.025180 
-0.026945 -0.017582 0.005736 
0.020938 -0.021250 0.016335 
0.025373 0.016881 0.019894 
0.003925 0.003644 0.000000 
0.011143 -0.029086 0.031751 
-0.007872 0.010202 0.001000 
-0.015879 -0.025297 0.037885 
-0.032000 0.004879 0.014396 
-0.017641 -0.019687 0.001000 
0.025850 -0.015451 0.002599 
-0.032000 -0.001972 0.001222 
0.009460 0.030000 0.015692 
0.028878 -0.014683 0.027699 
-0.026969 0.012094 0.008101 
0.022187 0.020250 0.050723 
-0.030163 -0.012511 0.038828 
-0.022456 0.021725 0.000000 
-0.027488 0.010535 0.038995 
-0.012396 0.028083 0.018515 
0.002564 -0.028275 0.000000 
-0.010000 -0.030442 0.036310 
-0.012333 0.030222 0.021235 
-0.007351 -0.031883 0.017216 
0.010736 -0.029411 0.046461 
0.007130 -0.020881 0.000000 
0.029186 0.005441 0.045312 
-0.000975 -0.002061 0.000000 
-0.005660 -0.032000 0.004818 
-0.017629 0.026914 0.011964 
0.019730 0.022216 0.056253 
-0.022724 0.023276 0.018310 
-0.012031 -0.008564 0.001000 
-0.026006 -0.018991 0.037748 
-0.025554 0.018554 0.048620 
0.005039 -0.032000 0.050603 
-0.021745 -0.024170 0.042192 
0.012526 0.027979 0.005354 
-0.032000 0.004229 0.003550 
0.002211 -0.030000 0.033922 
0.024604 -0.021094 0.030284 
0.029922 -0.009733 0.000000 
-0.032000 -0.005601 0.013797 
0.009081 0.030000 0.025836 
-0.021825 -0.018001 0.001000 
0.020985 0.015614 0.001000 
0.007455 -0.030000 0.014016 
-0.013475 0.029131 0.000000 
0.026412 -0.013764 0.029734 
-0.010298 -0.029762 0.037958 
-0.014965 -0.028690 0.049579 
-0.027330 0.011010 0.056097 
0.028481 0.010304 0.000000 
-0.012189 -0.030270 0.025223 
-0.006341 -0.032000 0.033132 
-0.002988 -0.032004 0.045393 
0.025429 0.019857 0.031955 
-0.025454 -0.019819 0.004909 
-0.027817 -0.009550 0.047760 
0.004286 -0.030000 0.054293 
0.016916 0.027390 0.004434 
-0.026932 -0.017601 0.013479 
-0.000994 -0.032267 0.042871 
-0.022759 -0.019793 0.045245 
-0.017302 0.027132 0.024762 
-0.010610 -0.029512 0.019080 
