
# .PCD v.6 - Point Cloud Data file format
FIELDS x y z 
SIZE 4 4 4 
TYPE F F F 
COUNT 1 1 1 
WIDTH 1648
HEIGHT 1
VIEWPOINT 0.000000 0.000000 0.000000 1.000000 0.000000 0.000000 0.00000
POINTS 1648
DATA ascii
0.019228 -0.011225 0.028563 
-0.009773 0.014679 0.000000 
0.021886 -0.004015 0.000000 
-0.012400 -0.008705 0.000000 
-0.005132 -0.023516 0.050981 
0.018353 0.017647 0.041250 
-0.019532 -0.013490 0.019186 
-0.021752 0.009644 0.057517 
0.014931 0.011743 0.001000 
-0.010653 0.018614 0.021240 
0.001399 -0.021379 0.019994 
-0.022296 0.004566 0.008364 
0.017666 -0.015061 0.039332 
-0.020344 0.006055 0.019746 
0.024015 -0.009575 0.050407 
0.008389 0.007961 0.001000 
0.007601 0.023009 0.036298 
-0.013241 0.022608 0.054682 
-0.022851 0.003265 0.009451 
0.011291 0.018960 0.000736 
0.017860 -0.016181 0.053322 
0.007172 -0.022707 0.018067 
-0.005307 -0.023814 0.032832 
0.020448 -0.008821 0.034635 
-0.019055 0.009806 0.019191 
-0.000195 0.023676 0.053298 
0.000731 -0.021684 0.000000 
-0.019902 -0.014398 0.039873 
0.003451 0.021097 0.015908 
0.007350 0.022674 0.016494 
0.015287 0.015112 0.020883 
0.017906 0.010643 0.006573 
-0.007615 0.022265 0.036580 
-0.013332 0.021181 0.031865 
0.021848 -0.000000 0.004820 
0.021151 0.013407 0.032246 
-0.019132 -0.014132 0.024247 
-0.001113 -0.005591 0.001000 
0.010576 0.000661 0.001000 
-0.025053 -0.002291 0.037159 
-0.023582 -0.005814 0.058000 
0.013964 0.018534 0.047528 
-0.019548 -0.014446 0.027448 
-0.007537 -0.023537 0.035132 
0.004545 0.023355 0.048641 
0.005003 -0.024820 0.054043 
-0.020332 -0.014716 0.037064 
-0.000339 0.024598 0.029168 
-0.015267 -0.019083 0.027125 
0.015565 -0.013061 0.000181 
-0.002256 -0.021127 0.016341 
0.006414 0.022198 0.031873 
0.013925 0.019060 0.007312 
-0.018098 0.013972 0.030883 
0.012258 0.022243 0.041513 
0.020215 -0.012317 0.013375 
-0.021365 0.006124 0.000000 
-0.009168 -0.022783 0.027604 
0.022086 -0.000414 0.017746 
-0.012086 0.021974 0.031776 
0.007872 0.021272 0.004960 
0.003263 0.025401 0.047724 
-0.020143 -0.007857 0.001000 
-0.016825 0.016445 0.047650 
-0.018277 0.008658 0.002367 
-0.019763 0.014117 0.050293 
-0.006234 -0.002936 0.001000 
-0.015427 0.018331 0.056913 
-0.001609 0.023075 0.044591 
0.013780 0.019220 0.014052 
-0.006026 0.022997 0.018961 
0.013469 -0.015936 0.014549 
0.004105 -0.023817 0.025273 
0.006232 0.021062 0.015406 
0.016124 -0.019445 0.036162 
0.012816 0.018092 0.000391 
-0.022112 0.000697 0.019494 
0.015484 -0.017366 0.012102 
0.014574 0.010350 0.001000 
-0.007867 -0.024664 0.051275 
-0.005997 0.021502 0.000198 
0.024727 0.000000 0.053551 
0.022673 -0.005317 0.049963 
0.008743 -0.021366 0.008898 
-0.012992 0.018202 0.000925 
0.017007 0.016769 0.052984 
0.001907 0.003090 0.000000 
-0.000183 -0.023257 0.010087 
-0.015928 0.000032 0.000000 
-0.008448 -0.018436 0.002422 
0.006979 -0.019906 0.006569 
0.016298 0.010825 0.001000 
-0.006187 0.006303 0.000000 
0.019404 -0.006064 0.006172 
0.017873 -0.012873 0.007278 
-0.020926 -0.011814 0.056030 
0.003716 -0.022235 0.032405 
0.001503 -0.023829 0.016946 
0.024099 0.001737 0.020675 
-0.007157 0.024493 0.046857 
0.015887 0.016017 0.035900 
0.023260 0.010473 0.043278 
0.003989 0.025185 0.050951 
0.000946 -0.023738 0.054205 
0.022024 0.008025 0.053629 
0.016842 0.016754 0.051526 
0.019225 0.014225 0.038316 
-0.015278 0.018643 0.022192 
-0.014612 0.017776 0.009225 
0.007550 -0.022861 0.042414 
-0.020473 -0.013550 0.057855 
-0.021273 0.000142 0.004648 
-0.008693 -0.024728 0.057330 
0.007387 0.022242 0.024788 
-0.004721 0.023564 0.026217 
-0.013667 0.016768 0.025053 
-0.010802 -0.022993 0.058000 
0.014900 -0.017277 0.040894 
-0.017700 -0.012700 0.007854 
-0.009497 0.016219 0.001000 
-0.003325 0.023536 0.051276 
0.025603 0.000000 0.050401 
-0.010682 0.017163 0.006046 
0.013093 0.022754 0.056313 
0.003844 -0.000690 0.001000 
-0.003291 -0.025256 0.044833 
0.016024 0.015114 0.026912 
-0.002862 -0.022988 0.043320 
0.023476 -0.011724 0.055619 
-0.010827 0.020261 0.006086 
-0.007455 0.022715 0.017798 
-0.007762 -0.023597 0.050389 
0.020754 0.014433 0.040113 
-0.013860 -0.018301 0.044252 
0.010165 0.005935 0.001000 
0.020635 -0.012671 0.055956 
-0.020731 -0.010613 0.009422 
-0.015048 -0.015767 0.000000 
-0.012307 0.016282 0.009241 
-0.019282 -0.004567 0.000000 
0.004318 -0.014569 0.001000 
0.019426 0.014580 0.027111 
-0.002020 0.022722 0.039462 
-0.000626 0.021428 0.001000 
-0.014083 -0.017473 0.037289 
0.020644 0.009519 0.040853 
-0.014238 0.017951 0.042855 
-0.004316 -0.023692 0.053539 
-0.004196 0.022958 0.013667 
0.023039 0.001398 0.007473 
-0.001152 -0.024553 0.028403 
0.004609 0.024209 0.036288 
-0.002680 0.022766 0.006951 
-0.019264 -0.010028 0.023296 
-0.020913 -0.013327 0.029541 
0.019402 -0.013400 0.041592 
0.019566 -0.001918 0.001000 
-0.017238 0.018762 0.053463 
-0.017939 -0.012774 0.001000 
0.007528 -0.020767 0.000220 
-0.004597 -0.020953 0.013813 
-0.019998 0.012994 0.048270 
0.011032 0.005307 0.000000 
0.024914 -0.006329 0.056110 
-0.023274 -0.000801 0.010287 
0.009156 -0.021971 0.015396 
-0.004606 -0.024908 0.051644 
-0.005737 -0.023595 0.052130 
-0.021032 -0.004742 0.023389 
0.008745 -0.022676 0.023384 
-0.008425 0.019236 0.000000 
-0.008527 0.022266 0.043634 
-0.003939 -0.022791 0.012247 
-0.003178 0.022727 0.008075 
0.003366 0.019165 0.001000 
-0.010719 0.019140 0.000381 
-0.017922 0.010220 0.004767 
0.017422 -0.014789 0.007697 
0.021724 0.009522 0.056523 
0.020827 0.008592 0.004357 
-0.024019 0.000411 0.045764 
-0.002011 0.021353 0.019618 
-0.006654 0.022245 0.009941 
-0.000299 -0.017648 0.000000 
-0.023448 -0.000787 0.039303 
-0.012114 -0.016920 0.015302 
-0.015715 -0.016388 0.038651 
-0.024409 0.000097 0.025949 
0.007860 0.024127 0.053948 
-0.016981 0.001342 0.001000 
0.020621 -0.007552 0.031008 
0.018366 0.017350 0.033587 
-0.020587 0.006799 0.026871 
0.007717 -0.022241 0.012767 
0.021875 -0.009599 0.058000 
0.001108 0.025429 0.045434 
0.020780 -0.008398 0.003349 
0.023069 0.005191 0.020174 
-0.008587 -0.008526 0.001000 
0.018068 0.012966 0.005914 
-0.007981 0.024226 0.057461 
0.017816 -0.018184 0.052367 
-0.000936 0.023896 0.056497 
0.020665 0.013088 0.025405 
0.023421 -0.002642 0.047874 
-0.018749 0.012460 0.027588 
-0.023023 0.000497 0.007271 
0.007392 -0.022618 0.023077 
0.013439 0.022017 0.052019 
0.021422 -0.001837 0.015003 
0.024120 -0.000916 0.021046 
-0.021132 0.007821 0.003798 
0.016417 0.015056 0.029456 
0.021901 0.007472 0.049174 
0.000613 -0.022804 0.040656 
0.012985 -0.018147 0.034644 
0.021408 -0.000446 0.008075 
0.013134 -0.007255 0.001000 
0.017343 -0.014246 0.027652 
0.023627 -0.001293 0.014528 
0.006063 -0.020157 0.001811 
0.019725 0.014080 0.037423 
0.013271 -0.004623 0.001000 
0.021394 0.006506 0.037162 
0.009894 -0.023865 0.049697 
0.022695 0.006830 0.015341 
0.001393 -0.024855 0.033537 
0.022315 0.007444 0.055051 
0.010749 -0.018595 0.021782 
0.007489 0.022668 0.016970 
0.024079 -0.003745 0.026672 
-0.001052 -0.024916 0.034579 
0.022093 -0.006666 0.008120 
0.018748 0.017028 0.034091 
0.013036 0.022642 0.054457 
0.011922 0.021474 0.026395 
-0.021466 -0.006676 0.002132 
0.022831 0.006339 0.057189 
0.016896 -0.013077 0.011038 
0.019028 -0.006141 0.001086 
0.023809 -0.008860 0.041246 
-0.022014 -0.002269 0.025665 
0.010424 -0.023300 0.043504 
0.019335 -0.016331 0.046807 
0.006378 -0.021010 0.008435 
0.021693 0.005229 0.035319 
0.009418 -0.009788 0.001000 
-0.021735 -0.001739 0.019061 
0.004715 -0.018809 0.001000 
0.011537 0.022664 0.042341 
-0.020420 0.013709 0.031512 
0.017609 0.018391 0.054615 
0.003750 -0.021091 0.015818 
-0.016863 0.019137 0.057339 
-0.000955 0.022438 0.035354 
0.016295 0.001562 0.000000 
-0.010400 -0.017963 0.013013 
0.021514 0.003718 0.025425 
0.018616 0.015279 0.021890 
0.007124 -0.023241 0.023684 
-0.023049 0.012625 0.055973 
0.022428 -0.002170 0.031191 
-0.001869 0.022000 0.000813 
-0.003754 -0.020516 0.007484 
-0.023353 -0.005624 0.058000 
0.017849 -0.012497 0.014707 
0.025741 -0.003401 0.056704 
-0.004022 -0.006540 0.000000 
-0.019309 -0.011911 0.033047 
-0.010409 0.017764 0.010325 
0.011885 0.019609 0.042426 
0.006894 0.002152 0.001000 
-0.024868 -0.007900 0.055095 
0.025592 -0.002912 0.049019 
-0.015497 0.005878 0.000000 
0.007863 -0.022865 0.021604 
0.023145 -0.004128 0.016671 
-0.008828 0.018248 0.003233 
-0.007566 -0.023687 0.035791 
-0.024460 -0.002732 0.026828 
-0.007375 0.019679 0.007223 
-0.019910 0.012075 0.042559 
-0.025069 0.001171 0.037511 
-0.018424 0.010845 0.015058 
-0.023866 0.001058 0.017395 
-0.023144 -0.005726 0.021443 
0.000280 -0.025231 0.041083 
0.004245 0.022934 0.013683 
-0.016129 -0.019621 0.040069 
0.022779 0.002767 0.039161 
-0.016838 0.004170 0.001000 
0.021517 0.007519 0.043843 
0.003307 0.024137 0.023948 
-0.003712 0.020318 0.004608 
0.023791 -0.000528 0.016492 
-0.006999 0.022780 0.040312 
-0.007716 0.023522 0.049755 
-0.011851 -0.020895 0.055709 
-0.024289 -0.005890 0.042351 
-0.013270 0.022626 0.055709 
0.016200 0.018311 0.023654 
0.014612 0.014648 0.010204 
-0.007495 -0.023467 0.027092 
0.011786 -0.005201 0.000000 
-0.016619 0.009927 0.001000 
0.002588 -0.020143 0.002070 
-0.025485 -0.000187 0.046659 
-0.023705 -0.000298 0.040658 
0.007672 0.024461 0.046148 
0.020550 -0.006184 0.023356 
0.023673 -0.005042 0.030443 
-0.007334 0.023578 0.030047 
0.011859 0.019624 0.042367 
-0.013941 0.015641 0.015058 
0.009785 -0.017561 0.001000 
0.007326 0.022307 0.028452 
-0.000966 -0.025958 0.057084 
-0.009440 -0.020429 0.031732 
0.013711 0.019409 0.054752 
0.020990 0.001956 0.009309 
0.003998 -0.002049 0.000000 
-0.000917 -0.009758 0.001000 
-0.003798 0.024670 0.037527 
0.021241 -0.008085 0.005480 
-0.005042 -0.020699 0.001000 
0.005286 0.023780 0.032264 
-0.018613 -0.002367 0.001000 
0.019180 -0.015687 0.030599 
-0.007935 0.024269 0.056103 
0.001680 -0.021297 0.018803 
0.011070 0.019646 0.004767 
-0.015448 0.016837 0.008707 
0.024242 0.004239 0.033642 
-0.024423 -0.006009 0.045312 
0.018899 -0.013899 0.036291 
-0.007056 0.022537 0.028645 
0.005006 0.020578 0.008376 
0.007114 0.021401 0.008329 
-0.019052 0.010454 0.022273 
0.013682 0.016024 0.018030 
-0.015128 -0.017625 0.010520 
0.023340 -0.011496 0.051965 
0.018802 -0.013802 0.009459 
-0.012514 -0.016927 0.018636 
0.020720 0.003974 0.000000 
0.019375 0.014307 0.045584 
0.025141 -0.000425 0.039106 
0.021626 0.000000 0.005759 
-0.011865 0.020253 0.048621 
-0.023266 -0.009185 0.034394 
0.018165 -0.017835 0.052177 
0.020221 -0.014761 0.048687 
-0.017386 -0.017731 0.058000 
0.007359 0.022806 0.027976 
0.010944 -0.022340 0.031597 
0.023455 0.010235 0.044803 
-0.001489 -0.020026 0.000376 
0.025690 -0.001474 0.051189 
-0.019119 0.007856 0.010692 
0.005846 -0.022834 0.041096 
0.015936 -0.020064 0.057859 
-0.023255 -0.001416 0.039546 
-0.016080 0.015510 0.004133 
0.004500 -0.024472 0.040886 
-0.019486 0.006316 0.008574 
0.019197 -0.016605 0.040173 
-0.016365 0.019635 0.055998 
-0.012597 -0.023044 0.055690 
-0.013074 -0.010132 0.000000 
-0.000114 -0.023825 0.016903 
-0.007542 -0.023691 0.041542 
0.000918 0.021434 0.020800 
-0.009760 -0.020130 0.003571 
0.015387 -0.019899 0.038030 
0.018798 -0.015750 0.056333 
-0.002897 -0.025129 0.038839 
0.016852 0.015877 0.042184 
0.025381 0.002278 0.044389 
-0.018262 -0.013262 0.021105 
-0.018814 0.013814 0.032935 
0.003336 -0.024065 0.022963 
-0.024366 0.007235 0.044045 
0.017957 -0.010430 0.006290 
-0.001210 -0.024022 0.058000 
-0.020168 0.012915 0.050360 
0.017233 0.018421 0.033059 
-0.008755 -0.021907 0.041899 
-0.015674 0.008766 0.001000 
0.007589 0.024784 0.053258 
-0.022683 -0.011191 0.037329 
0.008007 -0.021634 0.008101 
-0.013875 0.018372 0.044501 
0.012032 0.021793 0.033019 
0.018876 -0.013876 0.021863 
0.000871 0.024315 0.024354 
-0.020989 0.006965 0.033502 
0.013281 -0.007512 0.000000 
0.003640 -0.023215 0.046613 
0.022322 0.006616 0.010862 
-0.018171 0.015984 0.053717 
-0.020732 -0.014947 0.052359 
-0.008349 0.021407 0.033119 
-0.024817 0.000716 0.032881 
0.013480 0.017031 0.027657 
0.005523 0.004435 0.001000 
-0.019551 -0.009898 0.000104 
-0.001312 0.022309 0.002161 
-0.011675 -0.020298 0.011711 
0.015610 -0.016466 0.037823 
0.019880 0.007014 0.017662 
0.018123 -0.014087 0.032364 
-0.020485 0.007028 0.026499 
0.024400 -0.007650 0.044804 
0.022217 0.012443 0.036686 
-0.004648 -0.013760 0.000000 
0.012896 0.004283 0.001000 
0.022995 0.002899 0.042935 
0.017947 0.012947 0.004125 
-0.004140 -0.007600 0.000000 
-0.021708 -0.009395 0.055679 
-0.002675 -0.012593 0.000000 
-0.002123 0.024535 0.028094 
0.008566 0.018254 0.000000 
-0.020866 -0.004470 0.019663 
0.021049 0.011847 0.018667 
-0.017003 0.013750 0.019366 
0.014322 -0.018947 0.020227 
-0.020760 0.008081 0.035584 
0.020150 0.010510 0.038474 
0.015062 0.018258 0.053299 
-0.022340 -0.011567 0.033657 
0.010123 0.021603 0.049516 
0.000292 -0.023386 0.011634 
-0.024201 0.000355 0.048125 
-0.008377 0.022775 0.021979 
-0.006056 -0.023897 0.056511 
0.006521 0.020082 0.004981 
0.012512 -0.022171 0.036191 
-0.019369 0.011770 0.004381 
0.022767 -0.001832 0.034480 
-0.022574 0.010643 0.034218 
0.011941 -0.020398 0.050859 
-0.016287 0.017358 0.053284 
0.017034 -0.017603 0.024413 
-0.014105 -0.021563 0.054356 
-0.018766 -0.013766 0.008875 
-0.017569 -0.017358 0.026882 
-0.013539 0.021809 0.043653 
0.021904 0.000015 0.013189 
-0.001593 -0.006970 0.000000 
0.017511 0.012511 0.008859 
0.004260 -0.023884 0.056319 
0.020959 0.008258 0.039319 
0.007318 -0.023033 0.021181 
-0.022620 0.009871 0.028432 
-0.009889 -0.022268 0.054675 
-0.003711 0.019020 0.001000 
0.014266 -0.008918 0.000000 
0.020584 -0.014453 0.036822 
0.004959 -0.021817 0.026352 
-0.002484 0.020910 0.013189 
-0.015160 -0.017207 0.009108 
0.005362 -0.022232 0.009781 
0.001700 0.004089 0.001000 
-0.006269 0.005627 0.001000 
0.002277 0.021133 0.016427 
0.023886 0.004067 0.026128 
-0.015175 0.017348 0.043962 
0.008051 0.020136 0.001000 
0.006701 0.006365 0.000000 
-0.021706 -0.013573 0.042132 
0.023532 -0.007880 0.029522 
-0.015034 0.015865 0.026408 
0.011777 -0.017614 0.019303 
-0.010107 -0.018475 0.016369 
-0.014916 0.019152 0.025914 
0.020436 -0.011430 0.009957 
0.018522 -0.010183 0.013283 
-0.007454 0.023605 0.041602 
-0.023805 0.007745 0.032686 
0.018157 -0.011257 0.013188 
0.019689 0.016311 0.056477 
-0.017352 -0.016208 0.049803 
-0.019547 -0.014536 0.028347 
-0.021087 0.014651 0.052231 
-0.011363 -0.020117 0.009139 
-0.023589 -0.000000 0.035067 
0.022061 -0.004818 0.002245 
-0.018576 0.017424 0.040380 
-0.024460 0.006352 0.058000 
-0.018303 0.013303 0.015706 
0.021114 0.009260 0.046410 
0.022023 0.005334 0.007272 
0.013940 0.014728 0.005620 
0.000530 0.020158 0.002293 
0.011238 0.018278 0.023270 
0.013410 -0.017072 0.001000 
0.023923 -0.001381 0.018073 
-0.012807 0.019441 0.047458 
-0.017810 -0.010842 0.000000 
-0.000661 0.023242 0.047005 
-0.017153 0.012578 0.007652 
0.005427 0.021147 0.016634 
0.007067 0.023409 0.049431 
0.014488 0.018710 0.053531 
0.020297 -0.010311 0.039644 
-0.021770 0.011118 0.024596 
0.003564 0.022524 0.036604 
0.016761 -0.019239 0.053456 
-0.018009 0.013009 0.013596 
-0.023484 -0.008347 0.032113 
0.009323 0.021983 0.047189 
-0.000586 0.025684 0.051052 
-0.017141 -0.014028 0.001182 
0.024906 0.004333 0.048600 
-0.018433 0.012134 0.000805 
0.010117 0.023614 0.046777 
0.015816 0.014821 0.000000 
-0.010515 -0.024114 0.057205 
0.003355 -0.007979 0.001000 
0.016530 -0.017720 0.021125 
0.025718 -0.001904 0.051806 
0.015403 0.016561 0.038052 
-0.006184 0.024725 0.051961 
-0.006651 0.021484 0.016099 
0.017095 0.018905 0.038653 
-0.018704 0.009499 0.012613 
-0.002276 0.020083 0.001205 
0.001745 0.002914 0.000000 
-0.015585 -0.017849 0.053128 
-0.017092 0.017185 0.021350 
0.012129 -0.017574 0.021594 
-0.012439 -0.021479 0.033674 
0.023118 0.002032 0.040533 
0.015406 0.018213 0.055549 
0.013811 -0.019095 0.009814 
0.022681 0.009223 0.026182 
-0.006600 -0.021434 0.001641 
0.020683 0.008896 0.038400 
-0.018132 0.014664 0.038812 
-0.014500 0.016772 0.001908 
-0.022183 0.006597 0.009200 
0.018278 -0.015629 0.020044 
-0.003782 -0.024674 0.037429 
-0.007157 -0.022903 0.027649 
-0.001168 -0.001218 0.000000 
0.013651 0.020868 0.035679 
-0.013013 0.018255 0.036063 
0.006278 -0.022393 0.034704 
0.024052 0.007561 0.037135 
0.005071 0.023875 0.056182 
0.022339 -0.010620 0.028277 
0.024647 0.002944 0.029992 
-0.016559 -0.016122 0.042552 
-0.019765 0.014765 0.038018 
-0.006074 -0.023145 0.021464 
0.010686 -0.007640 0.001000 
0.006061 0.020508 0.007362 
-0.005301 0.017641 0.000000 
-0.022709 -0.000710 0.028206 
-0.005641 -0.022637 0.014643 
0.007880 0.021555 0.031269 
-0.000206 -0.001444 0.001000 
-0.010896 -0.017941 0.016811 
0.021129 -0.000516 0.001000 
0.015074 -0.020324 0.043956 
-0.018504 -0.015909 0.055751 
-0.023613 0.006032 0.029414 
-0.001807 0.025489 0.046768 
-0.015096 -0.001571 0.001000 
0.017626 0.018374 0.048999 
0.020523 0.009036 0.036754 
-0.003031 0.016627 0.001000 
-0.006197 -0.020464 0.005036 
-0.014083 0.018835 0.010540 
0.015059 -0.019495 0.030609 
-0.012977 0.016631 0.018138 
0.021705 0.013648 0.043749 
0.019853 -0.006733 0.015905 
0.018559 0.015866 0.055737 
0.018828 -0.014086 0.010572 
-0.004536 0.022390 0.009117 
-0.007351 -0.022782 0.040342 
0.012810 -0.022862 0.053583 
-0.010226 -0.021724 0.017694 
-0.011280 0.019009 0.030289 
-0.001924 0.024074 0.020255 
-0.012225 -0.021361 0.028972 
-0.022771 -0.006058 0.054966 
-0.009115 -0.001086 0.001000 
-0.020769 -0.007838 0.034526 
0.021964 0.006087 0.043396 
0.022310 0.004211 0.007558 
-0.000574 0.013475 0.000000 
-0.011795 0.007837 0.001000 
0.005813 0.010554 0.000000 
-0.011675 0.016997 0.011954 
-0.023082 0.012413 0.054893 
0.019837 -0.014837 0.053764 
0.007875 -0.004314 0.000000 
0.020022 0.004914 0.009573 
-0.010265 -0.019498 0.000910 
-0.017398 0.016707 0.055295 
0.008477 -0.018462 0.002797 
-0.001757 -0.024416 0.026067 
-0.008000 -0.024215 0.041799 
0.015147 -0.015853 0.000590 
0.020264 0.013703 0.055562 
-0.019997 0.014114 0.029937 
0.018768 0.012481 0.027966 
0.008485 0.020287 0.022679 
0.019750 -0.009473 0.027654 
-0.008751 0.024302 0.048141 
-0.011902 -0.020967 0.018344 
0.005169 -0.012897 0.000000 
-0.013592 0.015709 0.013082 
0.020048 -0.010558 0.003970 
-0.019132 0.005764 0.001000 
0.000310 0.020006 0.000000 
0.008372 -0.024484 0.050745 
0.023040 0.011100 0.044650 
0.007837 -0.024212 0.053283 
0.007680 -0.023341 0.026713 
0.020601 -0.006870 0.027425 
-0.013236 0.019562 0.052361 
-0.020462 -0.012107 0.050721 
0.016727 0.012726 0.005896 
-0.020931 -0.014841 0.052991 
0.003933 0.011153 0.001000 
0.021641 0.006122 0.038889 
-0.019393 0.006044 0.005915 
0.023774 0.008090 0.033951 
-0.019421 0.013941 0.044485 
-0.018719 0.010738 0.001000 
0.016675 -0.017904 0.023924 
0.006196 0.024415 0.045126 
0.011716 0.023211 0.051671 
0.009059 0.016984 0.001000 
-0.006149 0.010208 0.000000 
-0.022495 -0.012424 0.041008 
0.018497 0.012513 0.024190 
-0.019033 0.014033 0.037399 
0.015259 -0.011908 0.001000 
0.000502 0.020569 0.008245 
0.019406 0.003682 0.000000 
0.023408 -0.002064 0.011901 
-0.007654 -0.023017 0.044897 
-0.019861 -0.005236 0.008788 
-0.002519 -0.024147 0.021500 
0.013101 -0.020665 0.058000 
-0.019735 0.012321 0.008577 
0.014365 -0.018271 0.007643 
0.007502 0.023160 0.034476 
0.021983 0.003968 0.033428 
-0.011552 0.017254 0.001000 
0.004493 -0.022210 0.032047 
-0.008930 0.006898 0.001000 
-0.015538 -0.016316 0.036405 
0.024433 0.009431 0.058000 
-0.019276 -0.013032 0.037994 
-0.021878 0.011863 0.032756 
-0.003352 -0.021725 0.025006 
0.006859 -0.021727 0.008244 
-0.003626 -0.022214 0.032096 
-0.013890 0.021687 0.048678 
-0.014147 0.019109 0.054892 
0.016982 0.015499 0.039020 
0.023188 -0.006634 0.022188 
-0.001186 0.025031 0.036672 
-0.019073 0.012475 0.032356 
-0.007164 0.024361 0.043947 
0.021631 -0.007947 0.047556 
0.010689 -0.023169 0.043534 
-0.017219 0.016786 0.019045 
0.010474 -0.010158 0.001000 
0.024561 -0.008737 0.054804 
-0.014378 -0.016680 0.031038 
-0.023985 -0.009006 0.043159 
-0.013649 0.017986 0.038366 
-0.008000 -0.024574 0.056687 
0.024335 0.008029 0.043679 
0.005443 0.022119 0.030723 
-0.024742 0.008750 0.057826 
0.012262 -0.017662 0.001000 
0.023487 -0.002895 0.050054 
-0.011577 0.007734 0.000000 
0.010331 -0.017898 0.011139 
-0.011180 0.007290 0.000000 
0.023578 -0.006410 0.058000 
-0.022161 -0.007417 0.011433 
-0.020708 -0.012473 0.020540 
-0.001008 -0.022529 0.003702 
-0.018710 0.013519 0.032139 
0.022437 0.007121 0.055264 
-0.013787 -0.015081 0.008331 
-0.019468 0.007980 0.016362 
0.024138 0.000000 0.027184 
0.004596 0.001951 0.000000 
0.017684 -0.015202 0.041038 
0.002939 0.020505 0.000000 
-0.005803 0.020241 0.003487 
-0.024278 0.004827 0.040222 
-0.018508 0.003497 0.000000 
-0.012239 -0.016819 0.015180 
0.010005 0.022337 0.056316 
-0.021541 -0.013810 0.043737 
-0.007033 0.020412 0.012367 
-0.007293 0.023218 0.046665 
-0.018186 -0.009598 0.005581 
0.007113 0.022465 0.015637 
0.012465 0.019929 0.050380 
0.021167 0.005702 0.001000 
-0.007299 0.022262 0.034099 
0.001933 -0.025388 0.044538 
0.013388 -0.017211 0.027635 
0.022533 0.012730 0.045748 
-0.023381 0.010861 0.047904 
-0.000525 -0.020566 0.008202 
-0.022882 -0.006417 0.017590 
-0.010954 -0.018155 0.019682 
0.014373 0.004205 0.001000 
0.008030 -0.010660 0.001000 
-0.004458 -0.022754 0.039933 
-0.017128 0.013804 0.020989 
0.007812 0.014147 0.001000 
-0.015429 -0.016482 0.037383 
-0.017764 -0.012764 0.004489 
-0.014761 0.016421 0.030285 
0.024153 0.001698 0.021602 
0.010805 -0.023161 0.044263 
0.007715 0.014593 0.001000 
0.019156 0.014156 0.022952 
0.021694 -0.005151 0.000000 
0.022000 0.005581 0.004959 
-0.005707 0.020281 0.004077 
0.013272 -0.021961 0.041133 
-0.021013 0.001778 0.000000 
0.017242 -0.018758 0.055490 
-0.021764 -0.000507 0.013527 
0.007678 -0.007459 0.001000 
0.007252 0.021801 0.015928 
-0.019220 -0.013780 0.016692 
-0.004604 0.023861 0.055983 
-0.018492 -0.009023 0.007244 
0.007511 0.022915 0.032305 
-0.021252 -0.003598 0.021050 
0.018329 0.013329 0.007618 
0.018542 -0.005233 0.000000 
-0.022603 -0.003130 0.038372 
-0.004155 -0.012671 0.000000 
0.012372 -0.020263 0.052943 
0.007307 0.022967 0.032101 
0.018464 0.008087 0.002321 
0.006080 0.024541 0.047909 
0.001110 0.022630 0.038141 
-0.012102 0.023417 0.057529 
-0.007015 0.022512 0.028884 
0.019633 0.007831 0.018030 
-0.007684 -0.010989 0.000000 
0.019140 -0.008960 0.016340 
-0.000089 0.000277 0.000000 
-0.003386 0.024861 0.037186 
-0.002201 -0.016353 0.000000 
0.021879 -0.000019 0.012845 
0.001799 -0.001453 0.000000 
0.024971 -0.005755 0.057355 
-0.020379 0.015488 0.049696 
-0.018785 0.013785 0.031377 
-0.004446 0.022069 0.006191 
-0.012106 -0.007584 0.001000 
-0.012016 0.016543 0.009758 
-0.018895 -0.013853 0.023164 
0.003097 -0.023243 0.047019 
0.006863 -0.023591 0.029052 
-0.015228 0.019939 0.037155 
-0.011242 0.007485 0.000000 
-0.006182 0.004271 0.000000 
-0.021036 -0.003260 0.016280 
-0.001316 -0.022067 0.029969 
-0.012294 -0.018068 0.029401 
0.007559 -0.023467 0.050272 
0.011764 0.017131 0.014805 
-0.014603 -0.020422 0.039460 
-0.021058 -0.006946 0.034413 
-0.022685 -0.010453 0.033208 
0.001268 0.021592 0.023084 
0.024604 -0.008554 0.054521 
0.011841 -0.005492 0.000000 
0.025876 -0.001537 0.055266 
-0.022928 0.000140 0.028631 
0.020625 0.011214 0.010264 
0.000301 -0.025613 0.049495 
0.024152 -0.009030 0.049682 
0.000482 0.022539 0.036816 
0.013794 0.004344 0.001000 
-0.004789 0.022242 0.008639 
0.024408 0.000961 0.025928 
-0.014205 0.018725 0.051143 
-0.002439 0.001289 0.001000 
-0.011683 0.022774 0.043370 
-0.006949 -0.021111 0.003125 
0.019638 -0.004796 0.003431 
0.024323 -0.006278 0.043098 
0.021221 0.009968 0.051387 
0.002611 0.025510 0.047226 
-0.015648 0.009262 0.001000 
0.012839 -0.019175 0.044791 
0.000781 -0.025012 0.036253 
0.003085 0.023103 0.044997 
-0.015664 0.015336 0.000597 
-0.008888 0.018451 0.005860 
-0.008527 0.007027 0.000000 
0.004062 -0.004509 0.000000 
0.002988 0.020152 0.002210 
0.012786 -0.015099 0.000366 
0.018547 -0.013531 0.003789 
-0.018137 -0.013137 0.008837 
-0.000991 0.022609 0.037837 
-0.021282 0.010609 0.015694 
0.020790 -0.007157 0.031550 
-0.020323 -0.015604 0.049751 
0.010760 -0.018352 0.019279 
0.016653 0.019347 0.051391 
0.001629 -0.024937 0.034927 
-0.016553 0.019447 0.045742 
-0.011063 0.016689 0.003947 
0.009945 0.021668 0.016126 
-0.022720 -0.005244 0.015636 
0.007952 0.022402 0.015629 
0.017918 -0.012918 0.003979 
0.009609 0.023901 0.048712 
0.007685 -0.023302 0.048137 
-0.024786 -0.005472 0.053297 
0.021573 -0.013718 0.042397 
-0.017957 -0.012957 0.016172 
-0.000366 -0.023755 0.016061 
-0.008367 0.020799 0.026806 
-0.024026 0.002452 0.055724 
-0.016750 -0.000588 0.001000 
-0.015711 0.018179 0.019391 
0.007690 0.024061 0.045839 
-0.020680 0.008278 0.035373 
-0.019687 0.016206 0.042392 
-0.019930 0.005193 0.001000 
0.019656 0.013230 0.017637 
0.021801 -0.007343 0.047101 
-0.020768 -0.014768 0.047797 
0.011470 -0.019136 0.033117 
-0.018058 0.011773 0.014244 
-0.022595 0.001407 0.029924 
-0.019075 -0.014091 0.020364 
0.023903 -0.008398 0.038244 
0.020661 0.005122 0.001000 
-0.009675 0.024242 0.053594 
-0.020644 -0.010419 0.008047 
0.022611 0.004834 0.013665 
-0.016699 0.012281 0.000666 
-0.007214 0.022685 0.028421 
0.024664 -0.006422 0.050599 
-0.021934 0.000986 0.018312 
-0.011473 -0.008548 0.001000 
0.011587 -0.022487 0.036365 
0.004175 -0.020765 0.001000 
0.000595 0.025416 0.045163 
-0.012608 0.018745 0.038131 
-0.006952 0.022247 0.025039 
0.024277 0.009971 0.056904 
0.007442 -0.023865 0.036221 
-0.000316 -0.003015 0.001000 
-0.018668 0.011465 0.021604 
0.009241 -0.001506 0.000000 
-0.018987 -0.011405 0.000886 
0.024806 0.007736 0.058000 
-0.024482 -0.009311 0.056225 
0.024236 0.002815 0.023004 
0.000355 -0.025202 0.040437 
-0.010171 0.022816 0.034321 
0.004900 -0.020727 0.000000 
0.017575 -0.015955 0.048456 
-0.024114 0.004183 0.030988 
-0.020759 -0.003304 0.012475 
-0.012069 0.019591 0.005253 
-0.023664 -0.002730 0.015234 
-0.001383 0.025542 0.047926 
-0.012011 -0.021120 0.021221 
-0.016468 -0.016681 0.047790 
0.010699 -0.022328 0.030407 
0.013200 0.005814 0.001000 
-0.000638 0.023957 0.018485 
-0.023565 0.005539 0.028598 
-0.014079 0.000572 0.001000 
0.016867 0.019133 0.042904 
0.018784 0.011433 0.000726 
0.019828 -0.014767 0.032561 
-0.009406 0.019072 0.000000 
-0.023076 -0.010971 0.042585 
0.005238 0.021064 0.015424 
-0.024604 -0.003259 0.031477 
-0.021948 0.012193 0.037008 
-0.018795 -0.017205 0.054813 
-0.018598 0.013598 0.024450 
-0.019360 -0.013933 0.043559 
0.015923 -0.017370 0.014755 
0.006020 0.022748 0.039841 
0.015131 -0.009458 0.000000 
0.001491 0.002808 0.000000 
-0.011704 -0.014412 0.000000 
-0.001709 -0.003537 0.001000 
0.004567 0.020218 0.000000 
0.024384 0.006567 0.044453 
-0.005463 0.018175 0.001000 
-0.012119 -0.022242 0.040421 
-0.007076 0.022183 0.031205 
0.025222 -0.003207 0.058000 
0.022652 0.005853 0.014826 
-0.009951 -0.017231 0.001169 
-0.006663 0.022705 0.039216 
0.020315 0.008419 0.030758 
-0.012112 -0.021106 0.022697 
0.014428 -0.006141 0.000000 
0.008356 0.023657 0.034131 
0.001134 -0.025596 0.049121 
0.006104 -0.018143 0.001000 
-0.001220 0.011009 0.001000 
0.017412 0.012403 0.000549 
0.021093 -0.007150 0.035906 
0.003609 0.023787 0.020561 
0.024113 0.009131 0.049584 
0.016331 -0.018354 0.024889 
-0.012179 -0.012492 0.000000 
-0.015393 0.016013 0.031019 
0.017848 -0.012848 0.000621 
0.004514 -0.020838 0.012149 
0.022138 0.003643 0.034112 
-0.001505 -0.023997 0.057950 
0.008948 0.020179 0.025203 
0.005732 -0.022219 0.009627 
-0.019895 -0.006863 0.017154 
-0.019194 -0.014194 0.036074 
0.019349 -0.010208 0.025404 
-0.024815 0.006086 0.053940 
-0.015315 0.016385 0.034480 
0.019696 -0.012607 0.007870 
0.012807 0.006803 0.001000 
0.024064 0.010144 0.054350 
-0.015351 0.008636 0.000000 
0.012453 -0.015791 0.005145 
0.018551 -0.013551 0.010967 
0.018092 -0.014454 0.010401 
0.007067 -0.022295 0.033278 
-0.023113 -0.000000 0.014209 
-0.012841 -0.019680 0.009639 
-0.012641 0.018918 0.040307 
0.017765 0.018150 0.035278 
-0.019872 0.011791 0.040634 
0.021913 -0.010440 0.020505 
-0.010513 0.017874 0.012291 
0.017928 0.015875 0.017927 
-0.021261 0.000388 0.005656 
0.011623 -0.020576 0.012405 
0.002602 0.024368 0.025257 
-0.012649 0.016504 0.014240 
0.024456 0.000000 0.033455 
0.007130 0.023298 0.024060 
-0.018658 0.013802 0.033639 
0.007967 0.023943 0.035165 
0.005125 0.021326 0.019224 
-0.020706 -0.012508 0.056190 
-0.008802 0.023714 0.037694 
0.005967 -0.023947 0.057237 
0.011473 -0.019256 0.034415 
0.021131 -0.014065 0.040305 
-0.010915 0.023860 0.055317 
-0.019464 0.014464 0.031678 
0.008732 0.021289 0.035207 
-0.011736 0.021499 0.024236 
-0.022416 -0.007175 0.013041 
0.023190 -0.005597 0.058000 
-0.002410 -0.020865 0.012541 
0.005716 0.020289 0.004195 
0.011569 0.023590 0.056157 
0.002803 0.022806 0.007661 
-0.024800 -0.001378 0.032597 
0.007040 0.022246 0.030156 
-0.010178 0.018884 0.020447 
0.019754 -0.002734 0.001000 
-0.010630 -0.000611 0.001000 
0.008483 0.023721 0.035570 
0.020669 -0.012684 0.056507 
-0.015763 0.014278 0.014920 
0.022649 -0.003305 0.008013 
0.018628 -0.003943 0.001000 
0.020881 -0.008816 0.040880 
0.008495 -0.020186 0.021279 
0.008875 -0.018005 0.001024 
-0.016148 -0.016643 0.044861 
0.021897 0.013204 0.038214 
0.002115 -0.000363 0.000000 
0.024765 -0.005559 0.052823 
-0.008912 -0.022994 0.029731 
-0.018606 0.013606 0.011843 
0.000309 0.000509 0.001000 
0.003369 0.021311 0.019011 
-0.013937 -0.020287 0.031703 
0.002493 0.009972 0.001000 
0.017113 0.012863 0.010586 
0.011265 0.021919 0.028378 
-0.000658 -0.024796 0.032533 
0.003523 0.005460 0.000000 
0.020269 0.014493 0.044992 
-0.014733 0.018981 0.022942 
-0.002885 -0.020930 0.013487 
-0.008514 0.024328 0.058000 
-0.016258 -0.019742 0.056595 
0.002948 0.018592 0.001000 
-0.021369 -0.013591 0.035660 
0.007249 0.022449 0.013382 
0.024280 -0.007797 0.058000 
0.019301 -0.015027 0.052512 
-0.021378 -0.001892 0.000000 
-0.019998 -0.005209 0.010648 
-0.015353 0.019662 0.058000 
-0.023245 -0.001636 0.009945 
0.024876 -0.005336 0.055275 
0.016321 -0.001552 0.001000 
0.000928 -0.023114 0.045156 
-0.020324 0.010586 0.041365 
-0.015662 0.019752 0.037818 
0.016289 -0.011767 0.000000 
-0.007200 0.020982 0.000570 
-0.019404 -0.007395 0.012595 
0.013712 -0.015189 0.008482 
0.007569 -0.023251 0.045505 
-0.007066 0.024684 0.051043 
0.019141 -0.014141 0.034115 
-0.019936 -0.014736 0.047711 
-0.002275 -0.022146 0.031112 
0.015801 0.015494 0.002066 
0.008732 0.020774 0.004480 
0.006581 -0.007992 0.000000 
-0.022270 0.007205 0.053235 
0.012743 -0.018602 0.037670 
-0.016264 -0.019736 0.045507 
0.025137 -0.004490 0.055403 
-0.022157 0.006170 0.046592 
-0.005430 0.024635 0.049979 
-0.017870 0.010299 0.004392 
-0.006563 0.016812 0.001000 
-0.022195 -0.012870 0.038848 
0.018493 0.014254 0.009647 
-0.002211 0.012745 0.001000 
0.012089 0.019687 0.044852 
-0.014494 0.016816 0.002173 
-0.009722 -0.024299 0.055902 
-0.023364 -0.002903 0.048309 
-0.018954 0.015687 0.028035 
0.023172 0.002006 0.009059 
-0.004936 0.012037 0.000000 
0.018307 0.012386 0.000714 
0.002898 0.020700 0.010156 
-0.019055 -0.013638 0.028829 
-0.009978 0.021575 0.047608 
0.000169 0.021727 0.025045 
-0.018796 0.017204 0.055559 
-0.019704 0.009853 0.028826 
0.015375 -0.017228 0.010620 
-0.023273 0.004535 0.019680 
-0.005827 -0.024359 0.058000 
-0.021684 0.000437 0.000000 
-0.020514 -0.000032 0.001000 
-0.020553 -0.014002 0.032216 
0.002106 -0.023494 0.012928 
0.000965 0.018324 0.001000 
-0.016991 -0.011019 0.000000 
0.021791 -0.005862 0.039798 
0.020197 -0.009461 0.034088 
-0.020065 0.003342 0.002597 
-0.004327 0.024145 0.032739 
0.022602 0.001144 0.004215 
0.000627 0.013638 0.001000 
-0.024797 -0.002298 0.032550 
-0.010288 -0.018408 0.017085 
-0.018386 -0.009357 0.007315 
-0.011381 -0.022306 0.035937 
-0.024752 0.003459 0.035694 
0.015247 -0.018174 0.017380 
0.023715 -0.003498 0.056275 
0.001449 0.024715 0.031147 
-0.000085 -0.021136 0.016472 
-0.011022 -0.017107 0.000000 
-0.002676 0.019034 0.000000 
-0.020484 0.013443 0.057494 
-0.002664 0.023758 0.054489 
-0.004660 0.022241 0.032499 
-0.013692 -0.019308 0.017849 
-0.018310 -0.014233 0.035655 
0.011053 0.021035 0.050874 
-0.003620 0.024156 0.026924 
0.019714 0.002687 0.001000 
0.007713 -0.023597 0.052160 
0.015038 -0.017411 0.010439 
-0.022513 -0.001889 0.031074 
0.021131 0.006610 0.000000 
0.023570 -0.004024 0.056714 
0.024805 -0.004810 0.051622 
0.020512 0.001340 0.000000 
0.020295 0.013263 0.053877 
-0.018610 0.008660 0.007206 
0.007212 0.022501 0.016864 
-0.023269 -0.000766 0.036606 
-0.004729 -0.024189 0.037177 
0.020395 -0.013691 0.057393 
0.008030 -0.021449 0.031104 
0.012481 -0.021345 0.026017 
0.013504 0.009657 0.000000 
-0.011815 -0.022918 0.048106 
0.007479 0.024632 0.049912 
0.005249 0.022190 0.009281 
0.017486 -0.018514 0.057968 
0.007939 -0.024237 0.041517 
0.021637 -0.010840 0.019647 
-0.007909 -0.020423 0.019564 
-0.020105 -0.014337 0.031256 
-0.022730 0.006772 0.057815 
0.020385 0.002193 0.001684 
-0.004055 0.020352 0.005104 
-0.007806 -0.023780 0.050668 
0.004976 0.022457 0.012345 
0.017276 0.012390 0.006611 
-0.013314 -0.014850 0.001894 
-0.008439 0.024106 0.041559 
0.023989 -0.001404 0.018867 
0.018307 -0.013307 0.017126 
0.020189 0.012547 0.015832 
-0.022892 0.010439 0.037632 
-0.020496 0.008401 0.033299 
0.001432 0.024528 0.027968 
0.015738 -0.019896 0.041827 
-0.016339 0.017257 0.052601 
0.019279 -0.016442 0.044875 
-0.018272 0.009964 0.008603 
-0.013800 -0.015904 0.017643 
-0.011541 -0.013135 0.001000 
-0.019049 -0.014049 0.022538 
0.010337 -0.022993 0.038305 
-0.022499 -0.000000 0.013622 
-0.023420 0.006663 0.026141 
0.008249 0.000956 0.001000 
0.022863 -0.003104 0.042014 
0.014582 -0.018264 0.049160 
0.012600 -0.016037 0.008907 
0.025201 0.000000 0.042016 
0.024695 -0.006936 0.051285 
0.001593 0.024782 0.032290 
-0.014385 0.012479 0.001000 
-0.006538 -0.020169 0.006038 
-0.013218 0.019388 0.006987 
0.019718 -0.011719 0.038046 
0.021617 -0.008005 0.047644 
0.004307 0.021048 0.015197 
-0.021819 0.010992 0.024353 
0.010717 -0.022333 0.030544 
-0.007833 0.013934 0.000000 
-0.016440 -0.019560 0.044443 
-0.009253 -0.020177 0.002126 
0.009384 -0.020384 0.030248 
0.004526 0.021246 0.018062 
0.013290 0.020196 0.026373 
0.016954 0.004040 0.000000 
-0.019564 -0.014357 0.029619 
-0.020164 -0.000363 0.001000 
-0.016739 0.017154 0.018356 
0.020182 -0.004566 0.010212 
0.012985 -0.020143 0.056695 
0.020806 0.015026 0.054008 
0.006410 -0.021997 0.028954 
-0.013264 0.019736 0.017484 
0.021767 -0.005467 0.000700 
-0.021759 0.008465 0.051922 
-0.019981 -0.014491 0.038144 
-0.007469 0.023216 0.033776 
-0.003495 -0.003610 0.000000 
0.002574 -0.024613 0.029418 
-0.005843 -0.010190 0.000000 
-0.006610 0.011388 0.001000 
0.006716 0.020994 0.005384 
-0.016893 0.016508 0.048915 
-0.004796 0.023263 0.047313 
-0.005943 0.013233 0.000000 
-0.019874 -0.009251 0.000419 
0.015214 -0.019646 0.033197 
-0.019012 0.010613 0.022469 
-0.019965 -0.015297 0.038507 
-0.012872 -0.019433 0.007516 
0.023836 0.004350 0.027678 
-0.019683 -0.010515 0.031731 
0.013431 -0.021889 0.043037 
-0.018446 -0.016154 0.057878 
-0.020728 -0.012415 0.056063 
0.021465 0.005151 0.031644 
0.020035 -0.000857 0.000000 
-0.018168 -0.013168 0.006574 
0.006091 0.022405 0.011856 
0.024289 0.000185 0.048591 
0.013058 0.010435 0.001000 
0.024486 0.004141 0.037236 
0.004273 0.023512 0.050928 
-0.014196 -0.019220 0.022572 
-0.008918 0.020547 0.003540 
0.021348 -0.005125 0.029816 
0.009785 0.022117 0.052257 
-0.001588 0.023096 0.008147 
-0.024318 0.007827 0.042999 
0.003651 0.025111 0.045612 
-0.009900 0.023523 0.042929 
0.017518 -0.000184 0.001000 
-0.023947 0.003137 0.057888 
-0.010818 -0.020654 0.044997 
-0.023669 0.004760 0.028327 
0.001566 0.023264 0.047327 
0.012659 -0.008541 0.001000 
-0.007915 -0.022546 0.017664 
-0.022000 0.000698 0.000909 
0.017936 -0.004322 0.001000 
-0.007239 0.022504 0.035938 
0.019920 -0.013539 0.022906 
0.005453 -0.022252 0.010021 
0.022474 0.001250 0.003316 
-0.022285 0.003828 0.037131 
-0.004302 -0.021052 0.000000 
-0.011312 0.022749 0.040101 
0.000640 0.019887 0.000000 
0.021662 -0.011380 0.022991 
-0.006755 0.023652 0.052960 
-0.007783 0.021786 0.032778 
0.005587 -0.020758 0.010989 
0.023359 0.000000 0.030578 
0.004222 0.023864 0.027078 
0.007093 -0.023578 0.028830 
-0.016970 0.012149 0.001396 
-0.023981 0.001420 0.050088 
-0.019350 0.010905 0.002120 
0.007154 0.022305 0.013751 
0.018973 0.004907 0.001000 
0.008197 0.022173 0.040296 
-0.020192 -0.015434 0.044994 
0.016039 0.015071 0.026551 
0.004791 -0.013380 0.001000 
-0.000458 -0.022137 0.000956 
-0.022226 -0.000009 0.017824 
-0.022528 -0.009682 0.058000 
0.019086 0.009204 0.016736 
0.000292 0.025564 0.048411 
-0.008340 0.023895 0.036948 
-0.007034 0.022225 0.009908 
-0.003476 0.025123 0.043949 
0.009210 -0.020874 0.034112 
0.018723 0.014334 0.040155 
0.022081 0.000000 0.010688 
0.021063 -0.008443 0.041716 
-0.023718 0.003445 0.056070 
-0.024324 0.006852 0.043134 
0.022095 -0.000418 0.000664 
-0.012913 -0.022568 0.052284 
0.000493 0.023588 0.014051 
-0.010156 -0.017429 0.005058 
0.007183 -0.022964 0.028348 
-0.020489 -0.013141 0.056108 
-0.022054 0.006391 0.007644 
0.004545 0.024438 0.040618 
0.022806 0.010641 0.036436 
0.020666 0.013691 0.030532 
-0.017951 0.011724 0.000000 
0.021436 -0.007356 0.004296 
0.014741 0.016703 0.034250 
-0.019973 0.012908 0.012482 
0.021022 -0.007727 0.037668 
0.021844 -0.005601 0.005905 
-0.006757 0.021163 0.002837 
0.008369 0.021783 0.037539 
0.021193 0.011430 0.017899 
0.006646 0.008102 0.001000 
-0.006190 0.022117 0.030691 
0.022526 0.012932 0.047067 
0.013640 -0.014721 0.000000 
-0.002146 -0.022766 0.040114 
0.018439 -0.014280 0.014608 
0.016558 -0.016270 0.011966 
-0.013882 0.022076 0.057079 
0.006666 -0.021362 0.006607 
0.005120 0.021328 0.019249 
-0.017506 -0.010808 0.001581 
0.020717 -0.014459 0.039868 
-0.023147 0.003942 0.014421 
0.021492 -0.004920 0.030917 
0.015221 0.018488 0.056988 
-0.016313 -0.019687 0.054827 
-0.014217 -0.020597 0.037652 
0.022100 -0.012841 0.037026 
0.012657 0.020336 0.014993 
-0.023746 -0.000000 0.023360 
-0.022934 -0.003469 0.012082 
0.023040 -0.010129 0.037542 
0.004182 0.023398 0.049266 
0.009515 -0.022468 0.024209 
0.017649 0.012514 0.007838 
0.017225 0.015291 0.038671 
-0.006901 -0.022053 0.023594 
-0.015137 0.018141 0.016677 
-0.009574 -0.021873 0.048021 
0.021736 0.000000 0.008404 
-0.010725 -0.019843 0.035710 
-0.017359 0.014492 0.030506 
-0.006305 0.021347 0.001603 
0.024754 -0.003916 0.040654 
-0.008000 -0.024561 0.055383 
0.019166 0.010228 0.022839 
-0.024957 -0.000000 0.045996 
0.022820 -0.004132 0.046358 
0.022074 0.007149 0.008479 
0.006470 -0.021486 0.001545 
0.005446 -0.021588 0.023032 
0.023056 -0.002973 0.044183 
-0.024972 -0.002644 0.035520 
-0.020597 -0.007015 0.028061 
-0.015792 0.002627 0.000000 
0.009465 0.017732 0.002818 
-0.013551 0.019449 0.010906 
-0.001869 0.023866 0.056063 
-0.013702 0.007847 0.000000 
-0.019085 -0.006569 0.003977 
-0.003181 -0.024137 0.022873 
-0.007319 0.023281 0.037885 
-0.014372 0.010748 0.000000 
-0.023594 -0.002530 0.049843 
-0.022645 -0.001561 0.031396 
-0.024570 -0.000000 0.049191 
0.008853 -0.022070 0.015254 
0.014412 -0.021187 0.049176 
-0.021831 -0.002649 0.000000 
0.002356 -0.023652 0.014820 
0.013636 -0.022057 0.051267 
-0.013328 0.019672 0.011493 
0.019853 -0.014634 0.031636 
0.007041 -0.022640 0.014842 
-0.019334 0.009136 0.019995 
0.003871 -0.019853 0.001000 
0.006167 -0.021835 0.002933 
0.003731 -0.014150 0.000000 
-0.005362 -0.022000 0.003685 
0.006382 0.005188 0.000000 
0.014815 0.005818 0.001000 
-0.009917 0.006850 0.000000 
0.003208 0.025296 0.044801 
-0.010141 0.017606 0.006567 
-0.019473 -0.010024 0.026306 
-0.015227 0.000089 0.001000 
0.003440 0.025702 0.056288 
-0.019476 0.006988 0.011678 
0.019362 0.014362 0.028453 
0.018072 -0.015683 0.049568 
0.017564 -0.015340 0.012875 
0.012625 -0.020096 0.015660 
-0.004360 0.024807 0.046724 
0.013424 0.017393 0.031224 
0.007281 -0.022848 0.030303 
-0.004556 0.015044 0.000000 
0.020018 0.015111 0.037609 
0.004137 0.023263 0.047317 
-0.001250 -0.024074 0.020252 
0.024055 0.001437 0.051244 
-0.012798 0.017143 0.022191 
0.012009 -0.015930 0.000000 
0.007012 0.021164 0.004391 
-0.007037 0.000459 0.001000 
0.003220 -0.024337 0.058000 
-0.018377 0.012864 0.024144 
0.009919 0.023906 0.050501 
-0.013325 0.018985 0.046720 
0.006862 -0.020978 0.002241 
0.015439 0.016002 0.032090 
-0.021371 0.008851 0.048162 
0.013049 0.022633 0.054500 
0.003242 -0.008446 0.000000 
0.017892 -0.014179 0.031464 
-0.004900 0.021003 0.014542 
0.024948 0.005151 0.056851 
-0.014027 0.019063 0.053391 
0.007137 0.021720 0.010112 
0.014180 0.021778 0.057542 
0.004586 -0.022998 0.043468 
0.001673 -0.021043 0.015120 
-0.024260 -0.000000 0.043468 
-0.013215 -0.018828 0.044710 
0.007953 -0.024647 0.050468 
0.008545 0.021985 0.041057 
0.001672 -0.020423 0.006127 
0.020896 0.008707 0.040581 
0.001611 0.008708 0.001000 
0.009786 -0.010980 0.000000 
-0.009312 -0.019961 0.025782 
-0.008150 -0.018845 0.004566 
-0.021882 0.004460 0.034352 
0.024621 0.003867 0.037203 
0.013646 -0.022310 0.057028 
0.021031 -0.004336 0.021405 
-0.008473 -0.021617 0.036607 
-0.008546 0.019423 0.013554 
0.014189 0.018660 0.050640 
-0.001009 0.020305 0.004427 
0.016955 0.017891 0.026192 
0.002685 0.025434 0.045541 
-0.009356 0.021507 0.041971 
-0.007944 -0.024068 0.056363 
-0.006352 0.020307 0.001000 
-0.004203 0.024471 0.037589 
-0.017653 -0.013029 0.016832 
-0.009528 0.022400 0.022088 
-0.010971 -0.008954 0.001000 
0.001938 -0.021797 0.026059 
0.021661 0.003962 0.028739 
0.003041 0.020234 0.003387 
-0.012584 -0.020416 0.015526 
0.024404 -0.004536 0.039783 
-0.006907 0.022536 0.015007 
0.006185 -0.020314 0.004767 
-0.009822 0.021319 0.012335 
0.025135 -0.004293 0.053191 
0.022621 -0.013140 0.052755 
-0.020570 -0.003932 0.012766 
-0.006762 -0.021292 0.001210 
-0.018677 0.017323 0.049706 
-0.020310 -0.007434 0.025931 
-0.020764 -0.010390 0.009043 
0.009810 -0.023355 0.040816 
-0.019015 0.013985 0.018522 
-0.020816 -0.002887 0.011288 
0.022872 -0.012313 0.050150 
-0.004734 0.023993 0.033620 
-0.017121 -0.016931 0.019441 
0.018283 0.008693 0.002623 
-0.011602 -0.013544 0.001000 
-0.000698 -0.021872 0.001000 
0.000717 -0.024415 0.026053 
0.002640 -0.025233 0.041133 
0.011074 0.022802 0.040970 
-0.006655 -0.024987 0.057722 
-0.011909 -0.019166 0.037944 
0.020203 -0.007291 0.023688 
0.018139 -0.010171 0.007669 
-0.022553 -0.005314 0.048201 
0.022333 0.001573 0.002328 
-0.005100 0.020245 0.003553 
-0.001721 -0.000658 0.001000 
0.020148 0.013690 0.053812 
0.013649 -0.018142 0.040083 
0.008860 0.022801 0.026151 
-0.001343 0.021960 0.028414 
0.008872 -0.021368 0.036756 
0.010730 -0.022100 0.026894 
0.019802 -0.009689 0.000686 
-0.002998 0.022946 0.009504 
-0.023944 0.001840 0.018334 
-0.017860 0.018140 0.040988 
0.009433 -0.017530 0.000288 
-0.020099 -0.015502 0.043696 
-0.025002 -0.004021 0.047273 
-0.014593 -0.018680 0.054048 
-0.014487 -0.018756 0.010643 
0.008394 -0.019600 0.014261 
-0.012158 -0.021831 0.035350 
-0.022145 0.011644 0.058000 
0.000662 0.025073 0.037609 
0.021388 -0.007928 0.043949 
-0.014525 -0.015495 0.018974 
0.018448 0.008664 0.000000 
0.019535 -0.014535 0.035231 
0.010903 -0.021625 0.055816 
0.018300 -0.014064 0.033570 
-0.019148 0.009475 0.018942 
0.021199 0.013227 0.031116 
-0.025241 0.002823 0.041294 
-0.019165 -0.012841 0.035457 
0.014183 0.000970 0.001000 
0.010697 -0.024100 0.057982 
-0.002951 -0.009941 0.000000 
0.008579 -0.022735 0.049031 
-0.017597 -0.000817 0.001000 
-0.007132 0.022454 0.014425 
-0.022570 0.001215 0.028645 
0.018021 0.012840 0.010501 
-0.014565 0.016475 0.029253 
-0.014373 0.021040 0.045081 
0.019959 -0.014757 0.036316 
-0.001291 -0.021679 0.024342 
-0.021659 0.000075 0.009912 
0.024670 -0.000057 0.053490 
-0.002762 0.015564 0.001000 
-0.007742 0.024285 0.048963 
0.017896 -0.012896 0.001320 
-0.000464 -0.023778 0.054781 
0.001852 0.020993 0.014397 
-0.020546 -0.008277 0.033420 
0.002761 -0.013989 0.000000 
0.017826 0.012826 0.015662 
0.009648 -0.024295 0.055432 
0.023821 0.007383 0.032953 
-0.018906 -0.013906 0.016123 
0.008498 0.021762 0.038336 
-0.015917 0.013541 0.008051 
-0.002410 -0.025507 0.047151 
-0.002288 -0.017401 0.001000 
0.019457 0.005853 0.005911 
0.022462 -0.009108 0.021096 
0.023163 -0.007576 0.023522 
-0.021196 -0.008103 0.042004 
-0.023889 0.007276 0.034114 
-0.020479 -0.014871 0.047819 
0.006801 0.021817 0.019642 
-0.008617 -0.018383 0.003204 
0.024666 -0.005709 0.050648 
0.025620 0.000000 0.053564 
0.010104 -0.020055 0.032326 
-0.008939 0.023833 0.040446 
-0.009988 -0.021492 0.014890 
0.007895 0.023850 0.053354 
-0.002240 0.024509 0.027654 
0.023369 -0.005185 0.025268 
-0.019051 0.016949 0.052684 
-0.003890 0.023830 0.055535 
-0.017454 0.004949 0.000000 
-0.001656 -0.014413 0.000000 
0.002517 -0.023205 0.046466 
0.013969 -0.021201 0.039726 
0.003386 -0.024978 0.039770 
-0.017313 0.017943 0.029677 
-0.010278 -0.017648 0.008501 
0.021477 -0.006047 0.003007 
0.001413 -0.019542 0.001000 
0.024984 -0.001778 0.035734 
0.024354 -0.000395 0.050536 
0.007495 0.021575 0.005757 
0.020338 0.011923 0.048033 
0.017777 -0.016134 0.052117 
-0.005122 -0.020803 0.011644 
-0.002018 0.005701 0.001000 
-0.023653 0.009586 0.042546 
-0.012081 -0.017066 0.016659 
-0.010273 0.024224 0.058000 
0.010751 0.017534 0.011073 
0.004319 -0.007081 0.000000 
0.019395 -0.013311 0.015469 
0.016188 0.015349 0.030875 
0.014302 -0.016698 0.000563 
0.013179 -0.019411 0.007276 
-0.019514 -0.005121 0.003213 
-0.019485 -0.010873 0.030581 
0.014581 -0.015268 0.016058 
0.017911 0.012849 0.003604 
0.012349 0.010003 0.001000 
0.007914 -0.021543 0.031213 
0.024319 0.007983 0.043027 
0.006176 -0.023642 0.029916 
-0.018841 0.006943 0.002245 
0.003140 0.014208 0.000000 
0.019751 -0.014047 0.049786 
-0.021386 -0.006730 0.038127 
-0.007613 0.022441 0.015808 
0.024453 -0.005042 0.045963 
-0.024328 -0.006396 0.043218 
0.003375 0.025672 0.054914 
-0.020150 -0.013552 0.053181 
-0.013456 -0.016221 0.001000 
-0.021924 -0.011168 0.024764 
-0.021994 0.010319 0.021619 
0.010709 0.016934 0.001000 
0.001674 -0.025826 0.054182 
-0.017115 0.016782 0.053786 
-0.006428 -0.020974 0.012423 
0.023163 -0.007065 0.021779 
0.019043 0.007250 0.001000 
0.018320 0.014655 0.040466 
0.008350 0.001613 0.001000 
0.005070 -0.024665 0.050628 
-0.013789 0.016808 0.026505 
0.003640 0.022595 0.037624 
-0.008706 0.021512 0.037002 
0.012080 0.000023 0.000000 
-0.024716 -0.000408 0.055850 
-0.021434 0.004047 0.025852 
-0.005226 -0.021527 0.022136 
-0.020509 -0.014745 0.049746 
0.007091 0.022350 0.012560 
-0.019750 0.009835 0.029411 
0.019425 -0.016150 0.044568 
0.018209 -0.013209 0.005736 
0.020495 -0.014985 0.046569 
-0.020128 -0.014650 0.040553 
-0.010986 0.020922 0.012255 
0.002714 -0.004529 0.000000 
0.025875 0.001201 0.058000 
0.016365 -0.017856 0.020875 
-0.009614 0.018953 0.016814 
0.021579 -0.007440 0.044351 
-0.011033 -0.018296 0.021836 
-0.017202 -0.016108 0.014860 
-0.020710 -0.007678 0.000344 
-0.001519 0.015160 0.000000 
-0.016885 -0.014386 0.001891 
0.002940 -0.020659 0.009552 
-0.001476 -0.020016 0.000226 
0.001429 0.022418 0.002923 
-0.013106 -0.016246 0.015829 
-0.008592 -0.022809 0.024781 
0.015571 -0.020349 0.049959 
0.010396 0.018719 0.021261 
-0.018778 -0.013070 0.030960 
-0.002558 -0.021067 0.015477 
-0.004552 -0.022233 0.008004 
-0.012367 0.019254 0.041752 
-0.015554 -0.016780 0.041604 
-0.010479 -0.022709 0.035133 
0.001688 -0.008989 0.001000 
-0.019805 0.013460 0.023500 
-0.022991 0.011499 0.058000 
-0.008813 -0.020492 0.027431 
0.008673 0.023002 0.052790 
0.019268 -0.016463 0.045277 
-0.022378 -0.012865 0.042825 
-0.005140 0.023868 0.056082 
0.019743 0.013051 0.044853 
-0.018450 0.015457 0.021026 
0.020349 0.014875 0.040943 
0.012792 0.018199 0.000661 
0.023807 -0.001602 0.048438 
0.007709 0.021247 0.004213 
0.019682 -0.014157 0.026129 
-0.006930 -0.022502 0.014226 
-0.011858 0.020288 0.048958 
0.007660 0.019388 0.006663 
0.024925 -0.002973 0.034729 
-0.021732 0.012637 0.038064 
-0.010801 -0.021704 0.055940 
-0.007173 0.002174 0.000000 
-0.015046 -0.000801 0.000000 
-0.017174 0.015456 0.010778 
-0.006575 -0.024175 0.039857 
-0.014036 0.018333 0.005610 
