
# .PCD v.6 - Point Cloud Data file format
FIELDS x y z 
SIZE 4 4 4 
TYPE F F F 
COUNT 1 1 1 
WIDTH 1647
HEIGHT 1
VIEWPOINT 0.000000 0.000000 0.000000 1.000000 0.000000 0.000000 0.00000
POINTS 1647
DATA ascii
0.028465 -0.024083 0.021773 
0.022379 -0.029540 0.021258 
-0.020401 -0.030671 0.019679 
0.030080 -0.018609 0.035438 
0.033401 -0.002840 0.005394 
-0.003999 -0.036870 0.067208 
0.002253 -0.036868 0.021150 
-0.036468 -0.012929 0.041652 
0.022576 0.013988 0.000000 
0.037578 0.007409 0.034551 
-0.023731 0.031910 0.064665 
0.038293 0.009785 0.062231 
-0.037602 -0.011605 0.056085 
-0.030631 0.022844 0.054319 
0.018944 -0.031486 0.064768 
-0.005739 0.009367 0.000000 
-0.007107 0.036330 0.018309 
0.008673 -0.034647 0.036530 
0.004728 0.039078 0.057012 
0.032758 0.015449 0.057118 
-0.028296 -0.024681 0.023997 
-0.005500 -0.036743 0.019404 
0.026408 -0.028388 0.040963 
-0.030827 0.014585 0.000000 
0.036017 0.006196 0.057666 
-0.015896 0.034279 0.031668 
-0.005176 -0.010296 0.000000 
-0.030536 -0.018645 0.008814 
-0.002962 -0.008305 0.000000 
0.029218 0.018111 0.021361 
0.020063 0.034248 0.058524 
-0.007921 0.036636 0.020449 
-0.000800 0.015915 0.000000 
-0.023155 0.030107 0.033519 
-0.023107 0.031177 0.046814 
-0.037376 -0.000913 0.050993 
0.031402 0.024088 0.060584 
0.000675 0.032252 0.003474 
-0.029029 0.021577 0.027207 
-0.017790 0.030838 0.048799 
0.033378 0.017795 0.032766 
0.014706 -0.033958 0.057827 
-0.035168 -0.018482 0.058758 
0.003046 -0.034634 0.036344 
-0.029739 0.018648 0.004523 
-0.007575 -0.032933 0.012878 
0.005893 0.014934 0.001000 
-0.019944 0.003398 0.001000 
0.013892 0.036524 0.055229 
-0.030086 0.018308 0.034070 
0.036382 0.001120 0.014348 
-0.033061 -0.010106 0.035840 
-0.036135 0.011951 0.025448 
0.002603 -0.034136 0.029480 
-0.036317 0.004204 0.052149 
0.032980 -0.006832 0.018738 
-0.011805 0.034281 0.038491 
-0.029720 0.025343 0.047397 
0.033864 0.013072 0.060941 
0.011967 0.037671 0.061889 
0.036214 0.000816 0.034499 
-0.031552 0.016637 0.007075 
0.016375 0.027177 0.001000 
-0.010784 0.034275 0.010375 
0.006819 0.034038 0.028120 
0.008828 0.038117 0.051426 
-0.002393 0.032472 0.006512 
-0.002698 -0.034150 0.029669 
0.002463 0.032898 0.012386 
-0.024668 -0.000849 0.000000 
-0.033697 -0.013220 0.059356 
0.018902 -0.031266 0.016284 
0.034456 -0.008093 0.005249 
0.028644 -0.018273 0.014211 
-0.035762 0.013108 0.033016 
-0.012630 0.030484 0.004035 
0.034338 -0.015442 0.030276 
0.010986 0.033459 0.023189 
-0.019356 0.001646 0.001000 
0.031525 0.015875 0.042279 
0.021852 -0.023122 0.000000 
-0.025334 0.005028 0.001000 
-0.004329 -0.008941 0.000000 
-0.034406 -0.019757 0.069000 
0.025554 0.026137 0.058832 
-0.022105 -0.032561 0.056217 
-0.012598 -0.034152 0.042891 
-0.017104 0.027020 0.000407 
-0.006680 -0.035469 0.009972 
-0.013579 0.030574 0.012903 
-0.018931 -0.031440 0.063748 
-0.022195 -0.007443 0.000000 
-0.031905 0.015411 0.004567 
0.007629 -0.035796 0.052382 
-0.029137 0.026119 0.046374 
-0.025566 -0.025785 0.054860 
0.030964 -0.024907 0.062278 
-0.001535 0.025116 0.000000 
0.037246 0.012630 0.057587 
-0.037267 -0.001997 0.028338 
0.009024 -0.028126 0.000000 
-0.028524 -0.026946 0.069000 
-0.030136 -0.022136 0.025909 
0.015074 -0.036239 0.056095 
0.021683 -0.016832 0.000000 
0.002655 0.028557 0.000000 
0.015999 -0.035853 0.054081 
0.002266 -0.036301 0.059360 
-0.033652 -0.018714 0.038092 
0.023195 0.028414 0.065085 
0.014877 0.035193 0.036326 
0.018273 0.027311 0.012388 
0.033894 -0.019135 0.042951 
0.018260 -0.006562 0.000000 
0.011874 0.037473 0.060921 
0.006442 -0.038045 0.043591 
-0.037832 -0.000000 0.039476 
0.031075 -0.020252 0.022239 
-0.019499 0.031354 0.020370 
-0.005821 -0.004712 0.000000 
-0.032166 0.020192 0.032609 
0.029440 0.021830 0.040097 
0.035717 -0.013188 0.069000 
-0.022028 -0.030710 0.031351 
-0.029605 0.021605 0.018029 
-0.002233 -0.014472 0.001000 
-0.030305 -0.021895 0.025591 
-0.021789 -0.025398 0.018505 
0.031682 0.019722 0.062726 
-0.007088 0.026462 0.000000 
-0.031546 0.002493 0.000000 
0.023491 -0.025058 0.030585 
0.032755 -0.005766 0.010568 
-0.000925 0.017368 0.000000 
-0.010141 -0.037376 0.041225 
-0.035831 -0.006660 0.057334 
0.015037 0.036548 0.059994 
-0.037239 0.011558 0.046345 
0.039993 -0.003326 0.068912 
-0.038480 0.009324 0.064084 
-0.030441 0.015763 0.000000 
-0.027028 0.029292 0.060160 
0.029941 -0.022057 0.047322 
-0.035305 -0.000000 0.016017 
-0.029217 -0.019805 0.005872 
0.018772 0.016435 0.001000 
0.010910 -0.037346 0.044905 
0.031609 -0.011821 0.023855 
0.013119 -0.034778 0.054105 
0.031846 0.011165 0.024202 
-0.029618 0.014115 0.007621 
0.000897 0.036916 0.067843 
0.022916 -0.025352 0.029255 
0.033190 0.011555 0.002955 
-0.036887 -0.001088 0.045095 
0.034934 0.007465 0.048897 
0.015911 -0.024848 0.000000 
0.029494 0.010702 0.000000 
-0.029423 0.021783 0.041626 
0.018106 -0.031965 0.063282 
-0.011714 0.022787 0.001000 
-0.009177 -0.035372 0.046535 
0.039881 0.004328 0.068034 
-0.036785 -0.010511 0.031247 
0.029351 0.019034 0.003816 
-0.011947 -0.032290 0.000000 
-0.006238 0.032805 0.011112 
-0.033825 -0.003937 0.016599 
-0.025954 0.025946 0.060772 
0.011151 0.034650 0.028082 
-0.031331 0.015232 0.000820 
-0.023815 0.022321 0.000854 
-0.034738 -0.001037 0.015191 
0.020664 -0.030391 0.018803 
0.018748 -0.031212 0.060304 
-0.023745 -0.026538 0.048025 
0.019655 -0.026207 0.000000 
-0.003402 -0.027354 0.001000 
0.008773 -0.036719 0.022456 
0.018654 -0.029121 0.037283 
-0.029824 0.020428 0.040631 
-0.014682 -0.032984 0.008175 
-0.018782 -0.030610 0.052844 
-0.005918 -0.037454 0.032080 
0.031327 0.003690 0.001000 
-0.002547 -0.036864 0.021090 
-0.011655 0.036883 0.038939 
-0.011434 0.031225 0.002816 
0.033582 0.010882 0.046661 
0.038951 -0.007966 0.067493 
0.022837 -0.016088 0.001000 
-0.019675 0.028252 0.036031 
-0.019766 0.029752 0.008622 
0.023933 0.031796 0.065121 
0.036053 -0.016167 0.069000 
-0.023598 -0.032240 0.068075 
-0.000510 0.036524 0.016330 
-0.014752 0.037092 0.066140 
-0.032974 0.011630 0.041659 
-0.026827 0.014748 0.001000 
0.029626 0.027336 0.068505 
-0.002067 0.036049 0.055878 
-0.020837 0.030286 0.066843 
-0.012213 -0.032962 0.027166 
0.033972 0.005051 0.024016 
-0.032988 0.018168 0.030109 
-0.036835 0.003048 0.053754 
0.003542 -0.014611 0.001000 
-0.000356 -0.004620 0.000000 
0.026743 -0.001258 0.000000 
-0.024947 -0.027836 0.069000 
0.027175 0.025329 0.019530 
0.017423 -0.031727 0.055386 
0.035379 -0.014003 0.031575 
-0.003104 -0.039214 0.058783 
0.035142 0.018839 0.063300 
0.007789 -0.021653 0.000000 
0.023504 0.024998 0.028103 
0.020911 0.025339 0.011199 
0.000634 -0.002565 0.001000 
0.027959 -0.020125 0.013704 
0.001755 -0.037198 0.026964 
-0.029196 0.026574 0.053013 
0.031950 0.015164 0.044705 
-0.006713 0.035832 0.052877 
-0.027793 -0.013325 0.001000 
-0.018639 0.030063 0.047207 
-0.023137 0.026504 0.044587 
0.011322 0.029709 0.001000 
-0.011556 -0.035842 0.033567 
0.035121 0.009839 0.062749 
0.016559 0.031388 0.043241 
0.025060 -0.023070 0.020150 
-0.028790 0.017759 0.013743 
0.016667 0.016987 0.000000 
0.036829 -0.004801 0.062082 
-0.022017 0.032675 0.056938 
0.007260 -0.036764 0.065744 
-0.011556 0.036686 0.034494 
0.018694 -0.030574 0.053077 
0.016765 -0.027839 0.000000 
0.013104 -0.025864 0.000000 
0.027501 0.018785 0.001053 
-0.003085 -0.032417 0.005758 
-0.037256 0.010365 0.039938 
0.030642 -0.020363 0.019228 
-0.035562 0.006736 0.053889 
-0.007201 0.032054 0.000739 
0.030509 0.024408 0.049981 
0.023703 -0.027670 0.012964 
0.024890 -0.023618 0.025216 
0.037764 0.000000 0.041045 
-0.030261 0.025096 0.053270 
-0.029369 -0.006894 0.000000 
-0.005928 0.037213 0.027252 
-0.026195 -0.001848 0.000000 
0.030828 0.020500 0.054751 
0.030156 -0.019660 0.041499 
-0.015207 0.030380 0.023628 
0.007229 0.036067 0.016467 
0.035133 0.019577 0.067982 
0.038739 0.008783 0.067303 
-0.012275 -0.001966 0.001000 
0.037868 -0.010197 0.053836 
0.003600 0.005874 0.001000 
-0.017117 0.000117 0.000000 
-0.003790 -0.015811 0.000000 
0.027400 0.020805 0.012753 
0.005375 0.035180 0.004717 
-0.033883 -0.011972 0.010769 
-0.032315 -0.021499 0.045813 
0.012503 -0.031453 0.013831 
0.012570 0.033062 0.030946 
-0.000056 -0.039405 0.053889 
-0.010656 -0.033805 0.019827 
-0.014397 -0.031043 0.023104 
0.031486 0.016115 0.042886 
0.028988 -0.020741 0.030709 
0.020611 -0.026905 0.028374 
-0.019332 0.031251 0.065304 
0.025753 0.026743 0.067566 
-0.023192 0.029764 0.029708 
0.007994 0.034405 0.033193 
0.001118 0.035642 0.050254 
0.034007 -0.015912 0.027671 
-0.035763 -0.013846 0.036709 
0.030940 -0.021570 0.061337 
-0.029327 -0.006069 0.000000 
0.011974 0.036038 0.024425 
0.017593 0.029626 0.032129 
-0.029341 -0.021341 0.015324 
0.038690 -0.000064 0.065024 
-0.009457 0.001947 0.000000 
0.009376 -0.035181 0.013480 
0.009380 0.034796 0.010793 
0.021473 0.003278 0.000000 
-0.035722 -0.002192 0.006494 
0.010433 0.033142 0.000027 
-0.030020 0.012897 0.007301 
0.028132 0.019910 0.000388 
-0.027034 0.026366 0.027006 
-0.033755 0.020476 0.055817 
-0.025139 -0.026338 0.057622 
-0.015611 0.033773 0.062964 
-0.013127 0.033224 0.037604 
-0.020838 0.025262 0.000000 
-0.015065 0.029996 0.018421 
-0.037943 -0.000000 0.049177 
-0.014351 0.015046 0.001000 
0.004247 0.037808 0.039154 
-0.017081 0.033760 0.031002 
-0.023889 -0.032079 0.068938 
-0.004344 0.020165 0.000000 
0.011766 0.035382 0.049813 
-0.031083 -0.016217 0.003029 
-0.022312 0.029734 0.022513 
-0.030881 0.013075 0.019906 
0.031949 -0.014741 0.042476 
-0.034739 0.008312 0.050096 
0.002486 -0.028994 0.000000 
0.012732 -0.003222 0.000000 
0.020165 -0.016657 0.001000 
0.006818 0.038141 0.044831 
0.011872 0.037243 0.061345 
-0.029170 -0.021426 0.027160 
-0.033156 0.010497 0.038743 
0.006204 -0.033272 0.017553 
-0.024998 0.026146 0.055396 
0.019752 -0.028163 0.000000 
-0.025519 0.030623 0.063320 
0.027788 0.018078 0.000000 
-0.005524 0.036319 0.059602 
-0.033931 -0.010776 0.050937 
-0.038362 0.008911 0.058325 
-0.011761 0.037276 0.048629 
-0.032536 -0.006965 0.013437 
0.026391 -0.021260 0.000000 
0.000195 0.036426 0.014961 
-0.011944 0.034113 0.012897 
-0.011707 -0.035668 0.023978 
0.031987 0.022469 0.051755 
-0.033549 0.000817 0.001000 
0.011990 -0.036909 0.067943 
-0.011780 -0.035409 0.050203 
-0.029497 0.027217 0.065287 
-0.025464 0.026024 0.012420 
0.022231 0.033152 0.066406 
0.003959 0.036273 0.012824 
-0.028625 -0.024590 0.027225 
0.031321 0.006198 0.000000 
-0.007926 0.003511 0.000000 
0.000404 -0.036871 0.067224 
-0.031470 0.010688 0.016539 
-0.020630 -0.030161 0.016679 
0.036942 0.009775 0.030718 
-0.037493 0.001741 0.027932 
-0.037907 0.006515 0.041145 
-0.019528 0.026195 0.010904 
-0.038594 -0.002858 0.050723 
0.024015 -0.030800 0.050441 
-0.009421 0.035493 0.015767 
0.017803 0.031921 0.016671 
-0.027038 -0.012778 0.000000 
-0.007239 -0.034773 0.038265 
0.028486 0.022228 0.011558 
-0.033140 -0.014980 0.060121 
-0.030656 0.023031 0.066488 
-0.039866 0.004179 0.067258 
0.038108 0.008132 0.046661 
-0.029985 -0.012970 0.000000 
0.031672 0.018871 0.019523 
0.001784 0.039287 0.069000 
0.006106 -0.004112 0.001000 
0.035160 -0.015337 0.039623 
-0.024575 0.030856 0.057132 
-0.029796 -0.020512 0.040690 
0.011255 -0.034676 0.013600 
-0.013506 -0.021245 0.001000 
0.010828 -0.000206 0.001000 
-0.036047 0.016525 0.058886 
0.036819 -0.000350 0.020470 
0.017446 0.033092 0.026149 
0.030599 0.018928 0.010828 
-0.032330 0.008075 0.000000 
-0.038149 0.000498 0.059645 
0.024777 0.014179 0.001000 
-0.017850 -0.026631 0.001853 
0.037112 -0.003162 0.025232 
0.006781 -0.032900 0.012415 
-0.033466 -0.020833 0.055499 
0.010952 -0.032453 0.012304 
0.030703 -0.022703 0.046799 
-0.007448 0.007937 0.001000 
-0.012399 0.037651 0.065114 
0.028628 0.021881 0.035744 
-0.035808 0.005066 0.049273 
0.018120 -0.030230 0.044909 
-0.035212 0.013521 0.027523 
0.001877 0.032648 0.008938 
-0.023967 0.026444 0.006347 
0.030692 -0.016810 0.035195 
-0.030067 -0.009833 0.000000 
-0.019569 0.029369 0.047112 
0.009989 0.026319 0.001000 
-0.007180 -0.034780 0.005938 
-0.031291 -0.013722 0.028835 
0.009138 0.038307 0.058371 
0.014943 -0.035889 0.051114 
0.008569 -0.033739 0.023996 
0.023705 0.025478 0.035379 
-0.039150 -0.002415 0.057949 
-0.017768 0.032741 0.024255 
0.000204 -0.039420 0.055247 
0.015457 0.035891 0.052817 
-0.011241 0.032556 0.015671 
0.030158 -0.022158 0.034574 
-0.026093 -0.028968 0.043802 
-0.022539 -0.024478 0.014307 
-0.033588 0.009006 0.000647 
-0.036642 0.014715 0.055988 
0.034370 -0.005267 0.030392 
0.000255 -0.033403 0.019357 
0.029563 -0.021315 0.015499 
0.006393 -0.038443 0.069000 
-0.032840 0.013939 0.005939 
0.026407 0.026439 0.021926 
0.033816 0.014091 0.065126 
0.014968 0.032546 0.006435 
-0.033890 0.004302 0.019139 
0.019520 -0.034785 0.061690 
-0.035206 -0.018759 0.061811 
0.030495 0.016071 0.029124 
0.032341 0.015615 0.007656 
0.029815 0.018449 0.031138 
0.029227 0.021189 0.036123 
0.000343 -0.010440 0.000000 
-0.037457 0.006304 0.032135 
-0.006515 -0.022193 0.001000 
-0.012592 -0.035440 0.056709 
-0.026463 0.028285 0.040477 
-0.029096 0.019127 0.002775 
-0.006746 0.014718 0.001000 
0.017096 -0.033595 0.031574 
-0.016028 -0.028995 0.013455 
0.039872 -0.002872 0.067339 
0.016423 -0.027816 0.004149 
-0.030082 0.022686 0.057600 
-0.013139 0.032725 0.032378 
-0.003997 0.033562 0.021551 
0.012664 -0.035885 0.029557 
-0.039037 -0.001487 0.053628 
0.008577 0.028747 0.000000 
-0.039808 -0.000000 0.065691 
-0.010709 -0.032934 0.003868 
-0.024334 0.029375 0.034169 
-0.024204 -0.028642 0.024336 
-0.006760 0.034379 0.032834 
0.014159 0.035124 0.029761 
0.031906 0.020895 0.036278 
0.037116 0.000157 0.024553 
-0.013023 0.037404 0.064573 
-0.024663 0.025410 0.044551 
0.024982 -0.026587 0.012984 
-0.019619 0.010892 0.000000 
-0.005160 -0.033299 0.017923 
0.004908 0.024152 0.001000 
0.033114 -0.017219 0.025236 
-0.028313 -0.020442 0.020068 
0.022960 -0.030177 0.032801 
0.022654 0.010345 0.000000 
0.036169 -0.010874 0.022209 
-0.025409 -0.028471 0.031925 
-0.023179 0.027731 0.058003 
-0.015255 -0.024147 0.001000 
0.012963 -0.036222 0.039043 
-0.011749 -0.036995 0.055993 
0.025959 -0.028552 0.038109 
-0.006852 -0.021463 0.001000 
0.036424 0.003441 0.050068 
0.017657 -0.035963 0.066297 
-0.007988 0.014756 0.000000 
-0.014564 -0.020990 0.000000 
-0.031789 -0.021661 0.040540 
0.011485 0.035511 0.026936 
0.009039 -0.038493 0.062578 
0.037520 0.004187 0.033397 
0.037077 0.002212 0.053147 
-0.032380 -0.017148 0.060029 
0.010891 0.022146 0.001000 
-0.033594 0.005057 0.000000 
0.014890 -0.025347 0.000000 
-0.002668 0.027006 0.000000 
-0.024531 -0.029693 0.039556 
-0.016433 -0.034827 0.042569 
-0.035243 -0.013092 0.022846 
0.003287 0.035143 0.001291 
-0.024717 0.015909 0.000000 
0.007037 -0.030937 0.001000 
0.008635 -0.033648 0.022740 
0.002927 -0.032535 0.000000 
0.036137 0.008899 0.018534 
0.031243 0.018461 0.013621 
0.033359 -0.009519 0.036849 
0.011316 0.035665 0.045406 
0.019571 0.028137 0.000000 
0.013498 0.036427 0.047567 
-0.020628 -0.018452 0.001000 
-0.029372 -0.021512 0.027320 
-0.021433 0.033883 0.068362 
-0.031408 -0.022479 0.043261 
0.024951 -0.030289 0.052188 
-0.019933 -0.024796 0.001000 
-0.035562 0.004936 0.045242 
-0.032548 -0.008031 0.018751 
0.031011 0.008374 0.001000 
-0.021516 -0.028399 0.050554 
0.025079 0.023311 0.021996 
0.036512 -0.005935 0.063146 
0.034163 0.004641 0.024660 
0.007408 -0.001347 0.000000 
0.010804 -0.002341 0.000000 
0.031560 -0.003908 0.001000 
-0.026239 0.026131 0.064984 
0.028735 -0.013188 0.000000 
0.036087 -0.005426 0.054842 
0.037439 0.002596 0.059996 
-0.008552 -0.011961 0.001000 
-0.020199 -0.034731 0.067228 
-0.017921 -0.011354 0.001000 
0.021574 0.015140 0.001000 
-0.030840 -0.022840 0.062271 
0.033779 0.012988 0.059378 
-0.031460 0.023460 0.060977 
-0.029468 -0.025195 0.042182 
0.009190 0.032057 0.000782 
0.011631 0.036447 0.045081 
-0.011412 -0.001931 0.000000 
0.017875 0.031746 0.058270 
-0.011927 -0.027719 0.001000 
-0.038059 -0.001825 0.064808 
0.012630 0.034288 0.044601 
-0.013117 -0.032713 0.002828 
0.037725 0.010982 0.055230 
-0.039974 -0.003070 0.068664 
-0.012985 0.033745 0.042045 
-0.020826 -0.027656 0.001112 
0.008952 0.011012 0.000000 
0.016270 0.029087 0.016273 
-0.029622 0.022016 0.041818 
-0.037339 0.013188 0.059535 
-0.037205 -0.007742 0.027109 
0.037041 -0.012179 0.046404 
0.022088 -0.016319 0.000000 
-0.017057 0.034712 0.043838 
-0.010805 0.033388 0.005243 
0.035601 0.015470 0.049086 
0.007194 -0.036900 0.021598 
-0.035019 0.003950 0.033024 
-0.030398 0.020781 0.050170 
0.001699 -0.036361 0.014060 
-0.018324 -0.033376 0.033375 
0.029681 0.007594 0.001000 
-0.023812 0.029996 0.037456 
0.027389 0.022598 0.033465 
0.025986 -0.029979 0.058134 
-0.024575 -0.030730 0.055164 
0.036578 -0.004741 0.019692 
0.003645 -0.030617 0.000000 
-0.021857 -0.024508 0.000000 
-0.037135 -0.013529 0.056449 
-0.022512 0.031230 0.041635 
0.022884 0.032271 0.060590 
-0.024795 0.024205 0.000687 
-0.032805 0.004207 0.003790 
-0.024020 -0.028120 0.018520 
-0.029267 0.019021 0.026296 
-0.022665 0.031020 0.040564 
-0.018322 0.032380 0.069000 
0.035287 -0.003598 0.035036 
-0.016456 0.031783 0.007667 
0.033771 0.014599 0.066931 
-0.035822 0.007012 0.058802 
-0.013762 -0.034648 0.057076 
-0.029392 -0.024127 0.068327 
-0.035416 0.013277 0.028337 
-0.033871 -0.012342 0.057559 
-0.027221 0.018671 0.001000 
-0.017857 -0.027212 0.008164 
0.009078 -0.025865 0.000000 
0.020796 0.005423 0.000000 
0.034147 0.004044 0.001000 
0.032298 0.011957 0.034210 
0.036442 -0.003220 0.049156 
-0.013892 -0.034925 0.061108 
0.007897 -0.032384 0.005298 
0.012056 0.031880 0.014333 
0.005466 -0.032813 0.011216 
-0.021559 0.012926 0.001000 
0.032646 0.013767 0.003834 
0.001632 -0.039400 0.061194 
0.022092 0.024534 0.011512 
-0.014791 0.032150 0.003659 
-0.009848 -0.015181 0.000000 
-0.021448 0.032844 0.053111 
-0.034606 0.006254 0.003022 
-0.009953 -0.037543 0.043812 
-0.004948 0.032648 0.008940 
-0.010539 0.037074 0.037181 
-0.018847 -0.030275 0.049516 
0.029945 -0.013198 0.000000 
-0.028997 0.015077 0.003741 
-0.036343 0.012901 0.040251 
0.001940 -0.033836 0.000000 
0.023320 -0.028290 0.065062 
0.010907 -0.032979 0.001242 
-0.038022 0.011600 0.066973 
0.024001 0.030608 0.047295 
0.017966 0.031486 0.056031 
0.026974 -0.023516 0.041442 
-0.034054 -0.008896 0.004631 
0.022854 0.024728 0.019415 
0.022990 0.026736 0.043867 
0.016428 -0.032414 0.014121 
-0.008226 0.032653 0.009018 
0.020394 -0.029146 0.051208 
-0.034078 -0.002282 0.012093 
-0.000643 0.033195 0.016492 
-0.008067 0.009796 0.001000 
0.014779 0.033315 0.012634 
0.038755 0.005709 0.052813 
-0.003260 -0.035793 0.052350 
-0.025773 0.029827 0.053537 
0.032109 -0.006126 0.000000 
0.019958 -0.030133 0.058310 
0.032778 -0.004291 0.003827 
0.013208 -0.032057 0.000000 
-0.036751 -0.011494 0.035494 
0.024751 -0.029290 0.036488 
0.004564 -0.038055 0.043715 
0.027486 -0.028699 0.069000 
-0.023520 -0.029894 0.033895 
-0.001409 0.037495 0.027952 
0.030711 0.012447 0.014736 
0.018403 0.028067 0.021508 
-0.007285 0.035460 0.012217 
0.024235 -0.025570 0.042880 
0.023934 -0.025366 0.037935 
-0.034159 -0.002125 0.012461 
-0.007173 0.033294 0.017861 
0.028374 -0.017758 0.008053 
-0.024627 0.031558 0.068616 
0.027627 0.026605 0.035327 
-0.015932 0.035679 0.051609 
0.022185 -0.024033 0.001000 
-0.007230 0.039169 0.068699 
-0.023390 0.027368 0.055793 
0.028395 0.019203 0.015289 
-0.001666 -0.038425 0.039821 
0.038983 0.001234 0.050581 
0.028154 0.018512 0.008713 
-0.000048 -0.039019 0.043801 
-0.036918 0.009442 0.028571 
-0.021511 -0.027745 0.042935 
0.034162 0.003437 0.018836 
0.010482 -0.018207 0.000000 
0.018858 -0.029405 0.041909 
0.032343 0.022906 0.069000 
-0.015797 0.034996 0.041326 
-0.021778 0.032796 0.056060 
0.025316 -0.017291 0.000000 
0.000455 0.032757 0.010452 
0.011971 0.016948 0.001000 
0.008719 -0.037885 0.044678 
0.037260 -0.001123 0.050380 
0.035297 0.015870 0.046434 
-0.026350 -0.025840 0.017326 
0.006244 0.034797 0.038602 
-0.031973 0.008675 0.013790 
-0.003403 -0.037473 0.029472 
-0.003439 -0.034904 0.040078 
0.009646 0.024299 0.001000 
0.033116 -0.020457 0.046107 
0.032281 -0.003680 0.001000 
-0.016415 0.020150 0.001000 
0.011628 -0.036530 0.031740 
0.024114 0.022877 0.009040 
-0.009145 0.034196 0.030306 
0.023301 -0.026306 0.043772 
0.012306 -0.035050 0.017564 
-0.016173 0.023994 0.001000 
-0.036743 -0.002301 0.019398 
0.037262 0.005956 0.028236 
-0.017838 -0.033144 0.028627 
0.016713 -0.035385 0.052637 
-0.017018 0.033315 0.026245 
0.028351 -0.028296 0.064415 
-0.031975 -0.012126 0.030594 
-0.008261 0.038626 0.060964 
0.032409 0.013290 0.042074 
0.036608 0.003105 0.050992 
-0.035944 -0.013527 0.037152 
-0.028183 0.017802 0.000000 
0.025807 -0.012937 0.000000 
0.033936 0.016432 0.031689 
-0.037531 -0.008192 0.034582 
0.034601 0.009352 0.009306 
-0.036010 -0.016845 0.059787 
0.035560 0.005115 0.007546 
0.002618 0.033482 0.020456 
0.014403 0.035387 0.034867 
0.020217 -0.028215 0.039899 
0.016895 -0.034725 0.043462 
0.029126 -0.015594 0.007975 
0.035157 0.008438 0.056577 
0.017449 0.029702 0.031859 
0.006348 0.035856 0.053206 
-0.013058 0.032967 0.034323 
-0.034460 0.015755 0.069000 
-0.019320 0.031143 0.064060 
-0.028688 0.020688 0.009913 
-0.017691 0.027747 0.013926 
-0.034656 0.006295 0.039265 
-0.013616 -0.036440 0.049447 
0.034797 -0.016114 0.040519 
0.014962 -0.031695 0.035717 
0.011301 0.035718 0.041684 
-0.031708 -0.019179 0.060501 
-0.034812 0.007244 0.006288 
0.037410 0.000000 0.042929 
-0.008814 0.021600 0.000000 
0.003796 -0.033290 0.017808 
-0.039779 -0.002316 0.066131 
0.004134 -0.039773 0.066045 
0.011689 0.036352 0.039824 
-0.034626 0.006257 0.003167 
-0.029333 0.021803 0.031106 
0.018773 0.030998 0.057266 
0.031237 0.011609 0.017945 
0.026730 -0.023966 0.044726 
-0.010807 -0.012702 0.000000 
-0.014382 0.030908 0.022779 
-0.012842 -0.033263 0.035178 
-0.018307 -0.035276 0.061584 
0.002760 0.034013 0.000000 
0.029567 0.027234 0.066423 
0.013415 0.033026 0.036981 
-0.037308 0.000718 0.026076 
0.029811 -0.022379 0.023764 
0.011911 -0.009468 0.000000 
-0.028362 0.020769 0.013263 
0.014776 -0.033975 0.020566 
0.002225 0.037893 0.031985 
-0.002337 -0.033331 0.018367 
-0.031095 -0.012757 0.021525 
0.027613 -0.026585 0.034986 
-0.016809 0.032114 0.054692 
-0.033199 -0.005670 0.016337 
0.033860 -0.010370 0.047850 
-0.000729 -0.032965 0.013310 
0.036736 -0.000328 0.019304 
-0.003256 0.034561 0.000000 
-0.031962 -0.008951 0.015104 
-0.009384 0.033439 0.019861 
0.032603 0.013213 0.044363 
-0.024724 -0.027415 0.066573 
0.033801 -0.020275 0.069000 
0.034184 -0.014905 0.024449 
-0.024961 -0.024260 0.031992 
-0.033501 0.014720 0.063777 
-0.022316 -0.032662 0.060068 
0.004653 0.004148 0.001000 
0.019945 0.030737 0.064256 
0.034304 0.009829 0.051530 
-0.005029 -0.000845 0.000000 
0.035899 0.000106 0.026715 
-0.013579 -0.036379 0.047371 
-0.023267 -0.025398 0.030717 
-0.037981 0.011166 0.063076 
-0.031677 -0.020501 0.066369 
0.011412 0.034828 0.014884 
0.027337 -0.025588 0.022475 
0.034327 -0.000936 0.000000 
0.014014 -0.031004 0.020908 
0.007092 0.037415 0.031302 
0.021218 -0.025602 0.018024 
-0.024583 0.029297 0.035235 
0.035027 0.005400 0.003391 
-0.028608 0.026688 0.046852 
-0.019453 -0.025397 0.000747 
0.012838 -0.032836 0.031193 
-0.021676 0.002355 0.000000 
0.020730 -0.026193 0.020945 
-0.032046 -0.009941 0.021044 
-0.011866 -0.032939 0.024281 
0.024102 0.002437 0.001000 
-0.023309 0.012575 0.000000 
0.033417 -0.018482 0.034578 
-0.011083 -0.035629 0.050079 
0.024412 -0.025831 0.047430 
0.022114 -0.030006 0.023989 
0.015791 -0.036813 0.069000 
0.005740 0.036110 0.016633 
-0.033100 -0.005976 0.016443 
-0.001119 0.035736 0.006620 
-0.018365 0.010443 0.000000 
-0.031557 -0.011574 0.022189 
0.030796 0.022847 0.045057 
0.008996 -0.038321 0.057823 
0.032411 0.014080 0.045850 
-0.002843 -0.038506 0.048628 
-0.030892 -0.010184 0.006304 
0.022320 0.025547 0.024347 
0.011330 0.035199 0.028813 
-0.037446 -0.003934 0.066457 
0.009143 -0.038615 0.066409 
-0.025834 0.024431 0.042746 
0.028951 -0.022931 0.051043 
0.035129 0.019612 0.068147 
-0.028996 -0.022404 0.016830 
0.022866 -0.022958 0.000468 
-0.011551 0.035169 0.045964 
-0.027389 0.020030 0.000000 
-0.026005 -0.025794 0.014594 
-0.014223 0.032782 0.005779 
0.025720 -0.023280 0.028155 
-0.018268 -0.021895 0.001000 
0.022102 0.023785 0.003530 
0.039657 0.000000 0.068506 
-0.031624 0.024138 0.064569 
-0.030490 -0.022490 0.033269 
0.001956 -0.038912 0.053421 
0.039237 0.002683 0.069000 
-0.036036 -0.014411 0.046139 
0.015153 0.032534 0.007033 
-0.027236 -0.011053 0.000000 
-0.003748 0.035505 0.048368 
0.015766 0.032999 0.054779 
0.007557 0.034547 0.035146 
-0.028925 0.023867 0.061923 
0.033803 -0.006725 0.029557 
0.035249 -0.007676 0.010742 
-0.021285 -0.032723 0.049486 
-0.034456 0.019590 0.056343 
-0.020867 0.028314 0.046061 
-0.031504 -0.013647 0.031384 
0.036078 -0.005880 0.056905 
-0.030576 0.011119 0.006393 
-0.009395 -0.006798 0.000000 
-0.005559 -0.036733 0.065315 
0.023162 0.025109 0.026468 
-0.035419 -0.002843 0.003768 
-0.001157 0.003960 0.000000 
-0.003677 -0.033211 0.016708 
-0.005077 -0.034340 0.032286 
0.027114 0.029651 0.069000 
0.020933 -0.024518 0.002796 
-0.021401 -0.029093 0.012030 
-0.012470 0.020911 0.000000 
0.038881 0.001125 0.047228 
0.035600 0.000084 0.022490 
-0.036585 0.006845 0.068528 
-0.029848 0.022512 0.025273 
-0.002020 -0.015253 0.001000 
0.027345 0.008582 0.000000 
0.010619 -0.035668 0.018786 
-0.010478 0.035063 0.042275 
-0.030178 0.007891 0.001000 
0.000064 0.003530 0.001000 
0.004834 0.035012 0.041560 
-0.001693 -0.038975 0.053351 
-0.013715 -0.015138 0.000000 
0.010860 0.033978 0.020908 
0.026568 -0.023260 0.035011 
-0.009305 -0.033992 0.005111 
0.013962 0.030624 0.015284 
0.022803 -0.024973 0.023819 
-0.009660 0.033275 0.017591 
-0.012083 -0.036620 0.036234 
-0.012580 0.034640 0.048407 
0.005377 0.037050 0.024008 
0.011846 0.036789 0.046078 
0.017920 0.031754 0.015662 
-0.034901 -0.016675 0.044636 
-0.038536 0.002094 0.044550 
-0.033738 -0.014234 0.064750 
0.024375 -0.023672 0.021556 
0.011916 -0.036643 0.035444 
-0.017209 0.031839 0.013144 
-0.015438 -0.034718 0.035112 
0.003923 -0.038035 0.043406 
0.039239 0.003180 0.059108 
0.026395 -0.022568 0.025367 
0.034624 0.014744 0.028439 
0.037465 -0.013165 0.065833 
0.013460 -0.034801 0.019840 
-0.010244 0.014062 0.001000 
-0.021168 -0.028850 0.052819 
0.002967 -0.035683 0.050829 
0.030367 0.017873 0.005127 
-0.024368 0.027265 0.013437 
0.011460 -0.014996 0.001000 
0.035079 -0.016241 0.045071 
-0.032773 0.006115 0.012478 
-0.024501 -0.028119 0.021207 
-0.018498 0.027817 0.021516 
0.036050 -0.008090 0.067121 
-0.039809 0.002665 0.066523 
-0.024899 0.012365 0.000000 
0.006517 0.039215 0.064944 
-0.016624 -0.029878 0.027487 
0.007797 -0.012986 0.000000 
0.027667 0.027929 0.050745 
-0.037966 0.000887 0.058983 
0.008575 -0.010576 0.000000 
-0.029392 -0.021863 0.036536 
-0.023321 -0.026719 0.005039 
-0.028379 0.017421 0.006508 
0.025371 -0.026540 0.015372 
0.001582 0.036107 0.010495 
0.032243 0.005105 0.000407 
-0.037190 -0.004893 0.067521 
-0.035461 -0.001739 0.004150 
-0.006644 0.035844 0.053051 
-0.033796 -0.015964 0.025782 
-0.005844 0.032858 0.000000 
0.031534 -0.020660 0.065138 
0.005335 -0.033018 0.014043 
-0.021254 0.028124 0.047071 
-0.038937 0.005754 0.055182 
-0.021020 -0.025581 0.000000 
-0.031930 0.013765 0.037546 
0.028691 -0.017595 0.000000 
0.036086 -0.009962 0.020039 
0.027732 -0.022318 0.033596 
0.010825 0.007182 0.000000 
-0.037785 -0.010196 0.051676 
0.010451 0.035902 0.053844 
-0.038581 0.001596 0.042599 
-0.025908 0.026233 0.016987 
-0.033275 -0.014818 0.061192 
0.037898 0.003399 0.040479 
0.030870 0.022870 0.042481 
-0.012830 -0.016880 0.000000 
0.012798 0.017433 0.001000 
0.036255 -0.007845 0.017786 
-0.004016 0.032592 0.008169 
0.014412 -0.031343 0.027647 
-0.029094 -0.027725 0.066650 
0.002205 -0.031692 0.000000 
0.033358 0.015062 0.063488 
0.002961 0.037771 0.033215 
0.009024 -0.032733 0.010119 
0.010595 0.033686 0.018816 
0.029940 -0.013501 0.009086 
0.005993 0.033778 0.024534 
0.032230 -0.018090 0.019846 
0.026940 0.024378 0.050277 
-0.030549 -0.009856 0.001000 
-0.010750 -0.033911 0.020032 
0.001097 -0.035609 0.005483 
-0.025693 -0.023618 0.030794 
-0.039813 0.001871 0.066567 
-0.023191 -0.024572 0.020481 
-0.014464 0.004510 0.000000 
-0.038369 -0.001689 0.040908 
0.006100 -0.032056 0.000779 
-0.035936 -0.006319 0.057154 
0.034093 0.008005 0.039942 
-0.018229 -0.031546 0.058970 
0.025887 -0.025850 0.059221 
-0.004344 -0.028218 0.000000 
-0.036415 -0.002067 0.043317 
-0.025575 0.029470 0.045910 
-0.000714 0.038962 0.046648 
-0.007171 -0.037832 0.039638 
0.005812 -0.033098 0.015147 
-0.026905 -0.026984 0.031897 
0.000363 0.007702 0.000000 
0.031368 0.016649 0.006126 
-0.005979 0.034940 0.040574 
-0.033462 0.011108 0.004480 
0.032158 -0.012716 0.035644 
0.002969 0.038844 0.053971 
-0.016448 -0.029365 0.020618 
-0.032656 0.015542 0.056054 
0.008278 -0.034026 0.027961 
0.031229 0.012658 0.022896 
-0.030660 -0.014930 0.025951 
-0.029106 0.000953 0.001000 
-0.011408 -0.035070 0.019805 
-0.025008 0.001677 0.000000 
-0.027795 -0.020612 0.012565 
-0.023733 -0.024339 0.022409 
0.004677 -0.035966 0.009945 
0.003575 -0.036673 0.018426 
-0.015293 0.002748 0.000000 
0.004805 0.007681 0.001000 
0.038739 0.006619 0.053237 
0.011793 -0.013027 0.001000 
0.024424 0.028347 0.022692 
-0.026344 -0.024356 0.007648 
-0.010118 -0.035592 0.049570 
0.004602 -0.020782 0.001000 
-0.030628 -0.021239 0.055535 
-0.036959 -0.004114 0.022426 
-0.035989 0.006758 0.059891 
0.032702 -0.015144 0.054779 
-0.034433 -0.008902 0.007200 
0.013801 -0.033029 0.040828 
0.030631 -0.017686 0.038539 
0.003648 -0.036868 0.021148 
0.016193 0.030620 0.000446 
-0.035266 -0.005172 0.042450 
-0.022631 0.030489 0.069000 
-0.015525 0.036023 0.054759 
-0.021955 0.027727 0.048354 
-0.025420 -0.021310 0.002101 
-0.005643 0.030075 0.001000 
0.018596 0.027527 0.017154 
-0.014659 0.028874 0.001929 
0.008864 0.026109 0.001000 
0.033671 -0.011294 0.006703 
0.009462 0.033010 0.013940 
-0.032814 0.008462 0.024267 
0.019937 0.031661 0.025854 
-0.010493 -0.033641 0.022644 
0.030965 0.012175 0.016921 
-0.020384 0.031246 0.025025 
0.034332 -0.009163 0.048564 
-0.032953 0.019857 0.038384 
0.022230 0.030307 0.028484 
0.020093 0.028967 0.005556 
-0.029818 -0.019415 0.035771 
-0.022298 -0.028101 0.008815 
0.000462 0.029024 0.000000 
0.034691 0.006479 0.040824 
-0.035326 0.003382 0.002934 
-0.014268 -0.000558 0.001000 
0.030618 -0.022618 0.059755 
0.016188 -0.033219 0.021248 
0.002719 -0.036551 0.016712 
-0.010768 0.037081 0.038469 
-0.023848 0.017457 0.001000 
-0.019080 0.033356 0.037154 
0.036232 -0.001453 0.012244 
-0.012158 -0.037514 0.058415 
-0.017469 -0.030435 0.039888 
0.020139 -0.028227 0.039417 
-0.002504 -0.033633 0.022529 
-0.001273 -0.038224 0.069000 
0.016410 -0.027772 0.003514 
0.010736 0.033074 0.005835 
-0.037224 -0.002031 0.027476 
0.014744 0.037112 0.066372 
0.020324 0.027145 0.000000 
0.014175 0.029616 0.006057 
-0.016003 -0.028131 0.003967 
-0.000686 0.036081 0.010128 
0.034138 0.020116 0.057488 
-0.014888 -0.028782 0.002503 
0.025836 0.023393 0.029418 
-0.028021 -0.018867 0.008573 
-0.031311 -0.015310 0.036657 
-0.016298 -0.032387 0.012526 
-0.015593 -0.033654 0.022532 
-0.030791 -0.019075 0.047469 
0.011854 -0.036635 0.063089 
-0.007525 0.034626 0.036239 
-0.037013 -0.001477 0.023261 
-0.038744 0.003925 0.052675 
0.026592 0.026945 0.028366 
-0.016592 0.029420 0.024269 
0.029896 -0.020294 0.012573 
-0.018256 -0.031211 0.012202 
0.027379 0.025585 0.022748 
-0.032560 -0.021936 0.054314 
0.032158 -0.014412 0.043758 
0.029682 0.020004 0.009154 
-0.000906 -0.039370 0.058516 
-0.032310 0.021386 0.044476 
-0.030845 0.022845 0.048168 
0.029888 -0.022511 0.053907 
-0.037297 0.012476 0.053821 
0.022246 0.006204 0.001000 
-0.038486 0.007891 0.054923 
0.010493 -0.035700 0.051057 
0.027993 0.020939 0.019379 
-0.031013 -0.001408 0.000000 
-0.028348 0.020901 0.015535 
0.031592 -0.023592 0.065129 
-0.011754 0.037020 0.060512 
-0.032231 0.009771 0.022564 
-0.028199 -0.022767 0.042349 
-0.009158 0.036158 0.057376 
0.034253 0.007065 0.037610 
-0.027317 -0.024107 0.012264 
0.005393 0.015862 0.001000 
0.033960 0.012791 0.014706 
-0.015566 0.027731 0.001000 
0.033481 0.003093 0.007775 
-0.007372 -0.019903 0.000000 
0.000370 0.037027 0.069000 
0.037282 0.002354 0.056655 
-0.034106 -0.006579 0.033240 
0.015659 0.022614 0.001000 
-0.008666 -0.037834 0.043013 
-0.021109 0.006518 0.001000 
-0.007799 0.033432 0.019756 
-0.030826 -0.015761 0.000204 
-0.012082 -0.036696 0.066351 
-0.034640 0.007907 0.006238 
0.003706 0.032354 0.004887 
0.030242 -0.007728 0.001000 
-0.029912 -0.012459 0.003763 
-0.033392 0.006390 0.000000 
-0.028400 -0.025904 0.036038 
-0.004048 0.036395 0.060652 
-0.030000 0.012039 0.002918 
-0.021627 -0.032590 0.051329 
0.015279 -0.032068 0.004969 
0.036586 0.000000 0.024547 
-0.002137 -0.022649 0.000000 
-0.020774 -0.032690 0.043304 
-0.031764 0.016865 0.050105 
-0.039150 0.006330 0.062052 
0.011005 0.034495 0.033772 
0.034035 0.011210 0.054412 
0.000541 -0.038978 0.045944 
0.016178 -0.029529 0.022183 
0.007423 0.038227 0.045947 
0.039837 0.002971 0.066875 
-0.015742 -0.035402 0.047394 
-0.014838 0.029204 0.007330 
0.005174 0.018633 0.001000 
-0.036456 -0.015779 0.060486 
0.011971 -0.036786 0.039493 
0.016471 0.027898 0.005020 
0.008326 0.036211 0.058116 
-0.031855 0.014221 0.038701 
-0.000121 0.009682 0.000000 
-0.005131 0.032412 0.000000 
-0.005151 0.033877 0.025902 
-0.009534 0.035631 0.050107 
0.001799 0.032915 0.012633 
-0.003340 -0.038065 0.040994 
-0.025576 0.029098 0.040777 
-0.037637 0.005858 0.035734 
0.037963 0.000000 0.034829 
0.033956 0.008187 0.002270 
0.005398 -0.036892 0.021488 
-0.004793 0.038905 0.057345 
-0.031833 -0.011427 0.025291 
0.011377 0.018139 0.001000 
-0.027868 -0.020563 0.010490 
-0.026716 -0.023418 0.005372 
0.005038 0.037664 0.036286 
-0.022393 0.023819 0.006714 
0.006346 -0.000411 0.001000 
0.032114 -0.007839 0.011714 
0.015654 -0.026782 0.000000 
-0.031804 -0.012456 0.029830 
0.030573 0.022845 0.050238 
-0.003174 0.026112 0.001000 
-0.025323 0.027365 0.020819 
-0.012067 0.033593 0.007737 
0.038397 0.000000 0.044841 
-0.017545 -0.032137 0.017486 
-0.000119 -0.036137 0.057094 
0.014875 -0.032939 0.008332 
0.000232 -0.033868 0.025778 
-0.021765 -0.025369 0.000000 
0.026577 -0.023076 0.003390 
-0.018508 0.026643 0.000000 
-0.034941 0.000539 0.015572 
-0.030961 0.009937 0.006002 
-0.017425 -0.015629 0.001000 
-0.000769 0.026069 0.000000 
0.034058 0.018224 0.040991 
-0.016552 -0.033258 0.023343 
0.020562 -0.025337 0.009397 
-0.033231 -0.017078 0.025704 
0.031668 0.019468 0.061326 
0.033170 -0.006386 0.019196 
-0.003244 -0.034853 0.039366 
-0.000153 -0.032325 0.000000 
0.033070 0.005298 0.012753 
-0.028380 0.027496 0.054397 
0.000520 0.007248 0.001000 
0.000930 -0.036044 0.055806 
0.035710 -0.004162 0.043570 
-0.038755 0.008531 0.066082 
0.032450 0.009383 0.000000 
0.020606 0.034528 0.068731 
0.021879 0.027424 0.003654 
0.027064 0.024358 0.051106 
-0.037937 0.005420 0.041746 
-0.036096 -0.001925 0.038230 
-0.012850 0.001075 0.000000 
0.015295 -0.033099 0.013146 
-0.029742 -0.015666 0.016888 
-0.035824 -0.017360 0.060401 
-0.024751 0.011887 0.000000 
0.010299 -0.036411 0.060877 
0.022262 0.032518 0.057333 
-0.028050 -0.027599 0.051439 
0.027401 -0.027653 0.043704 
-0.036089 0.003232 0.010242 
0.027699 -0.021608 0.024896 
-0.009453 -0.022251 0.001000 
0.029969 -0.025738 0.055384 
0.012776 0.030345 0.003276 
-0.016631 0.028283 0.011411 
-0.004281 0.003819 0.000000 
0.010814 -0.034055 0.028067 
-0.018871 -0.027372 0.017587 
-0.004603 -0.023385 0.000000 
0.037476 0.009962 0.042323 
-0.028402 -0.020406 0.003630 
0.011412 -0.037636 0.055715 
0.004292 0.036870 0.067199 
-0.031692 0.007273 0.000000 
0.024238 -0.029547 0.035472 
0.013797 -0.027756 0.000000 
0.002039 -0.027274 0.000000 
0.038692 0.005619 0.051992 
-0.017106 0.000992 0.001000 
0.039606 -0.003586 0.063876 
0.026634 -0.024710 0.011405 
-0.015915 0.010764 0.000000 
-0.000223 -0.033342 0.018516 
-0.031160 -0.013592 0.026420 
-0.026699 0.025347 0.060232 
0.028207 0.024132 0.019877 
0.013533 -0.029692 0.002200 
0.017627 0.032753 0.023664 
0.016137 0.032348 0.010488 
-0.016359 0.001168 0.000000 
0.028724 -0.021253 0.028808 
-0.025162 -0.027448 0.020274 
0.031277 0.021077 0.063647 
-0.007168 -0.026495 0.000000 
-0.025105 0.005748 0.000000 
0.015874 0.032429 0.009168 
0.039882 0.004453 0.068873 
0.018460 0.010909 0.000000 
-0.030946 -0.016097 0.001859 
0.006332 -0.037379 0.069000 
-0.036962 -0.005680 0.068149 
-0.030442 -0.011891 0.001000 
0.030734 0.021294 0.026162 
0.034303 -0.001441 0.001000 
-0.030039 -0.020940 0.017392 
-0.018882 0.033616 0.038576 
-0.029731 -0.023732 0.066643 
-0.017464 0.028796 0.024469 
0.037186 0.009509 0.034258 
-0.008586 -0.038270 0.053829 
0.029029 -0.014999 0.003804 
0.018266 -0.027932 0.020938 
0.038386 0.000000 0.044417 
0.009331 0.030725 0.001000 
-0.013361 0.035338 0.061970 
0.031943 0.018185 0.017954 
0.003957 -0.036076 0.010057 
-0.020805 -0.028879 0.007648 
0.034603 -0.010485 0.058648 
0.006401 -0.038796 0.053342 
-0.021176 0.026351 0.026541 
0.017691 0.031672 0.055837 
0.018977 -0.030024 0.049443 
-0.005368 0.011350 0.000000 
0.006229 -0.036570 0.063070 
-0.014389 0.032791 0.006212 
-0.016142 0.018944 0.001000 
-0.017157 -0.030658 0.039918 
0.029052 0.021052 0.011423 
0.039808 0.001993 0.066506 
-0.005634 -0.034455 0.000982 
-0.000772 -0.035677 0.050745 
-0.037316 -0.012091 0.051811 
0.032305 0.014264 0.002650 
-0.027140 -0.027599 0.040388 
-0.026922 0.010408 0.001000 
0.019774 0.011720 0.000000 
-0.018205 -0.027461 0.013486 
0.039781 -0.002066 0.066154 
-0.019885 -0.034232 0.056316 
0.020546 0.016669 0.001000 
-0.008664 -0.021080 0.001000 
-0.000548 -0.036579 0.063192 
-0.033587 0.021328 0.062808 
-0.027347 0.020985 0.014575 
0.015431 0.033657 0.021808 
-0.009584 0.034083 0.028745 
-0.007675 -0.013002 0.000000 
0.017130 -0.034864 0.047686 
-0.031841 -0.023968 0.066175 
0.015591 -0.036743 0.064326 
-0.032125 0.017775 0.059446 
-0.034178 -0.004134 0.001000 
-0.033412 -0.009405 0.000119 
0.032904 0.018575 0.030628 
0.007874 0.037398 0.030960 
0.000303 -0.032180 0.002482 
-0.037334 -0.004609 0.029676 
-0.020583 -0.002528 0.001000 
0.037312 0.000810 0.049620 
0.032547 -0.009836 0.027186 
0.020823 0.013447 0.001000 
-0.004848 0.034389 0.032965 
-0.016564 -0.033445 0.066771 
0.026524 0.024962 0.012400 
-0.034789 0.000620 0.013872 
0.031038 -0.023107 0.064246 
-0.007008 -0.034993 0.041305 
0.003049 -0.025880 0.000000 
0.028290 -0.024574 0.023073 
-0.009735 0.028033 0.001000 
-0.029981 0.016134 0.022246 
-0.036894 -0.010162 0.031681 
-0.024973 -0.029133 0.036379 
0.029255 -0.024796 0.036423 
0.038139 -0.004215 0.069000 
0.018111 -0.031447 0.057812 
-0.018272 -0.026843 0.007338 
0.025640 -0.025058 0.007643 
0.034845 -0.019820 0.069000 
0.011142 0.034303 0.011440 
0.027299 -0.024660 0.057627 
-0.003946 -0.037048 0.023684 
0.000247 0.035539 0.048842 
-0.017917 0.030019 0.041064 
-0.011898 -0.037523 0.061298 
0.013837 0.032397 0.033423 
0.037599 -0.003110 0.034980 
0.037338 -0.004314 0.029765 
0.015989 -0.014935 0.000000 
0.012756 -0.005738 0.000000 
-0.010304 0.033636 0.003636 
-0.015569 -0.028355 0.003079 
0.039776 0.000346 0.065419 
-0.028129 0.023301 0.048547 
-0.012045 -0.036320 0.062026 
0.009425 -0.034130 0.005449 
-0.016977 0.033244 0.068059 
0.026240 0.021706 0.013297 
0.007392 -0.015813 0.000000 
-0.024201 0.025946 0.047002 
0.023142 -0.029830 0.030094 
0.036938 0.000777 0.044306 
0.016750 0.031412 0.044946 
-0.034129 -0.010845 0.053967 
-0.037978 0.005025 0.042554 
0.009427 0.037696 0.044374 
-0.030532 -0.022532 0.039152 
0.035006 0.006002 0.004559 
-0.012509 0.036114 0.030374 
0.029668 0.022039 0.035172 
0.034503 -0.008133 0.045980 
-0.011459 0.027030 0.000000 
0.035109 0.004746 0.038227 
-0.007057 -0.037482 0.032648 
-0.003518 -0.038734 0.052540 
0.024748 0.027662 0.018874 
0.015574 -0.036179 0.056945 
0.011935 0.037865 0.065068 
0.034315 -0.019240 0.050532 
-0.018614 -0.030988 0.055797 
-0.028777 -0.009197 0.000000 
0.035813 -0.008521 0.065920 
0.019385 -0.030180 0.009870 
-0.010754 0.022970 0.000000 
0.029440 0.018409 0.025811 
-0.005084 0.039399 0.064709 
-0.007547 -0.038092 0.045389 
0.029519 0.021519 0.019657 
-0.028736 0.018586 0.016955 
-0.028307 -0.021172 0.005877 
0.025875 0.023327 0.028986 
-0.025436 0.029709 0.048199 
0.012494 -0.033509 0.008157 
0.012002 -0.036530 0.064006 
0.027863 -0.023726 0.051366 
-0.011462 -0.034270 0.035539 
-0.038892 0.004118 0.054593 
-0.017365 -0.028095 0.013926 
-0.021336 0.033419 0.060390 
0.023971 0.001838 0.001000 
-0.036322 -0.003955 0.051143 
0.000892 -0.018204 0.000000 
-0.015739 -0.033870 0.064653 
0.019983 -0.029268 0.006787 
-0.029407 -0.026826 0.059023 
0.027292 0.029436 0.065466 
0.037011 -0.003726 0.023229 
0.015791 -0.017520 0.000000 
-0.020747 0.017629 0.000000 
0.035321 0.005459 0.006170 
0.038170 0.000000 0.041945 
0.030504 0.016082 0.029297 
-0.037211 0.012392 0.051039 
0.015807 -0.029522 0.019202 
-0.026960 0.026560 0.028201 
-0.001176 0.034324 0.032072 
-0.034302 0.003832 0.022565 
0.029627 -0.020676 0.039122 
0.033638 0.014484 0.064559 
-0.027461 -0.021928 0.026311 
0.035195 0.009097 0.060230 
-0.030088 0.015403 0.020213 
-0.017768 0.027033 0.006122 
-0.006104 -0.002406 0.001000 
-0.000382 -0.035870 0.053406 
0.002265 -0.036965 0.068523 
0.028073 -0.020531 0.017204 
0.013612 -0.027283 0.000000 
-0.036498 0.001658 0.042427 
-0.038168 0.008886 0.053136 
-0.032674 0.013274 0.045415 
0.006864 0.037620 0.035400 
0.032617 -0.017920 0.023770 
-0.033747 0.016561 0.030026 
0.004020 0.037482 0.032635 
-0.008518 0.038124 0.049581 
-0.023200 -0.030685 0.040819 
0.009482 0.038286 0.060054 
-0.035964 -0.015590 0.052864 
-0.007327 0.025580 0.001000 
0.011750 0.031108 0.003696 
-0.012120 -0.033488 0.006910 
0.027435 0.008778 0.000000 
0.022833 -0.009214 0.001000 
-0.005834 0.037979 0.042574 
0.001681 0.035000 0.000879 
-0.038580 -0.007191 0.058068 
-0.001881 -0.035448 0.047584 
-0.012094 -0.037922 0.068199 
0.037337 -0.001548 0.053474 
-0.006941 0.032204 0.002811 
0.033756 0.014338 0.065490 
-0.036883 -0.009342 0.027370 
0.035717 0.000000 0.021824 
-0.022538 0.027231 0.047640 
0.031187 -0.017917 0.010103 
0.036037 0.002031 0.037923 
0.031099 0.016562 0.039722 
-0.027606 -0.024053 0.014389 
-0.014358 0.035114 0.067413 
-0.037677 -0.001395 0.057479 
0.011234 0.034858 0.021262 
0.038484 -0.005011 0.049290 
0.008676 0.021592 0.000000 
-0.037444 -0.006141 0.031882 
0.022659 -0.029710 0.024795 
-0.036602 -0.000655 0.039075 
0.025506 -0.028754 0.036090 
0.004313 0.037299 0.028983 
-0.015903 -0.033004 0.017482 
0.017764 -0.028867 0.027579 
0.010502 -0.033339 0.018481 
-0.017001 -0.007844 0.000000 
-0.020397 -0.004895 0.001000 
-0.035129 -0.005848 0.043824 
0.004445 -0.008164 0.000000 
-0.015955 -0.024133 0.000000 
0.035401 0.006483 0.050616 
0.037238 0.005000 0.068692 
0.020595 -0.027849 0.001328 
0.011153 0.034744 0.032697 
-0.002649 0.036215 0.012010 
-0.030489 -0.011136 0.005335 
0.017217 -0.016442 0.000000 
0.022242 0.028524 0.058223 
0.019792 0.031199 0.068302 
0.012918 0.011783 0.001000 
-0.038465 0.001203 0.067395 
0.035234 -0.007450 0.052786 
-0.025468 0.027961 0.027297 
0.024911 0.027069 0.015858 
0.029087 0.021592 0.034149 
0.035869 0.006123 0.055299 
0.031944 0.006734 0.004155 
-0.016542 0.032313 0.013778 
0.033684 0.018495 0.038153 
-0.013680 0.032187 0.030894 
0.035052 0.009636 0.060846 
0.021198 -0.024834 0.008756 
-0.011001 -0.035461 0.047755 
-0.033873 0.004533 0.020005 
-0.020775 -0.027391 0.032537 
0.006459 -0.002787 0.001000 
0.036300 -0.003720 0.013197 
-0.011618 -0.037670 0.057931 
0.022756 0.000892 0.001000 
-0.010469 -0.032201 0.005728 
0.028996 0.021497 0.025346 
0.002451 -0.039474 0.062158 
-0.036537 -0.013767 0.048470 
-0.030285 0.024848 0.069000 
0.021844 0.026771 0.000714 
-0.033392 -0.016689 0.069000 
0.038187 -0.008317 0.069000 
0.013083 -0.034870 0.017655 
-0.011922 -0.035472 0.051963 
-0.025248 0.025710 0.052715 
0.035096 0.008816 0.057541 
-0.015231 -0.031932 0.038998 
0.009010 0.032733 0.010112 
-0.029101 0.018294 0.020552 
0.010540 0.034483 0.034265 
-0.019319 0.031632 0.021690 
0.034185 -0.013389 0.066821 
-0.014284 -0.031085 0.022692 
0.002227 -0.037473 0.032457 
0.027896 -0.022539 0.037579 
-0.028224 0.018536 0.009717 
0.026565 -0.003289 0.001000 
-0.035103 0.000676 0.018467 
0.017728 -0.029793 0.001500 
0.037387 -0.001914 0.030737 
-0.013824 0.033802 0.016107 
-0.011881 0.036453 0.031472 
-0.032625 -0.009022 0.024597 
-0.033235 -0.013858 0.056076 
0.018735 -0.025894 0.000704 
-0.026488 -0.004087 0.001000 
-0.035158 -0.003814 0.034399 
0.004339 0.037797 0.038944 
-0.007034 0.034423 0.033433 
0.025475 0.015238 0.001000 
-0.007909 0.002977 0.000000 
0.024147 -0.029330 0.032138 
0.001716 -0.039600 0.063797 
-0.029802 0.026676 0.062548 
-0.022219 0.024553 0.013958 
0.013960 0.032237 0.001638 
0.013463 -0.023581 0.001000 
-0.037369 0.005562 0.030387 
-0.011749 0.037175 0.058462 
-0.018873 -0.030807 0.055898 
-0.034164 -0.012184 0.060822 
-0.024697 -0.013177 0.001000 
0.028741 0.017182 0.001000 
0.023420 -0.022784 0.003042 
0.032666 0.010580 0.032698 
-0.022951 -0.025718 0.031727 
0.035586 0.007357 0.013102 
0.005813 0.033495 0.020634 
0.003661 0.039205 0.058661 
-0.011351 -0.036321 0.026175 
0.031593 -0.023593 0.061181 
0.033957 -0.007216 0.000078 
-0.038603 -0.001730 0.043913 
-0.039241 0.000385 0.051759 
-0.034490 -0.003402 0.023191 
0.019286 -0.029617 0.047531 
0.002660 -0.036445 0.015224 
0.007883 -0.035453 0.047647 
-0.009824 0.037855 0.051075 
-0.005892 0.000879 0.001000 
-0.030021 -0.022320 0.040021 
-0.031003 -0.025337 0.067350 
0.033860 0.018907 0.041290 
0.020921 -0.033966 0.063893 
0.021742 -0.023902 0.002262 
0.036171 0.000000 0.013531 
-0.020181 0.007593 0.000000 
0.000414 -0.036952 0.022334 
-0.015874 -0.033598 0.023352 
0.007561 -0.034964 0.040898 
-0.031189 0.017095 0.006766 
-0.004828 0.036299 0.059327 
-0.024096 0.024410 0.000000 
-0.031529 -0.019936 0.024532 
0.038437 0.000704 0.039130 
-0.000058 0.033402 0.019348 
0.021862 -0.006294 0.001000 
-0.037984 -0.004035 0.042680 
-0.023331 -0.027563 0.009979 
0.032911 0.004127 0.004905 
0.030124 0.001581 0.000000 
-0.001840 -0.027846 0.001000 
-0.009481 0.036817 0.066481 
-0.009953 -0.023023 0.001000 
0.034540 0.008516 0.048510 
-0.031109 0.022487 0.039846 
0.031933 -0.021152 0.038471 
-0.009512 -0.035253 0.014300 
0.024412 -0.031372 0.063495 
0.018026 -0.034361 0.043717 
-0.010407 -0.024471 0.001000 
0.001166 -0.037077 0.069000 
0.014500 0.023369 0.001000 
-0.011989 0.035770 0.055807 
0.025238 -0.021304 0.000712 
0.001293 0.034121 0.029269 
-0.011732 0.023352 0.001000 
0.022759 -0.024609 0.019143 
0.029320 -0.016339 0.014187 
-0.032838 -0.004106 0.003799 
0.035887 -0.005509 0.012705 
0.017102 0.030989 0.005707 
-0.028778 -0.016865 0.009394 
-0.038314 -0.002585 0.042605 
-0.019625 0.017763 0.000000 
0.034619 0.008649 0.050226 
-0.035296 -0.018366 0.059976 
0.016220 0.034281 0.033319 
-0.012509 -0.017433 0.001000 
0.032846 0.022351 0.063191 
-0.035137 -0.014771 0.034804 
-0.009331 -0.034463 0.033989 
0.028572 0.020875 0.025673 
-0.028792 -0.021172 0.022156 
-0.018108 -0.035589 0.064363 
-0.016305 -0.022227 0.000000 
-0.036553 0.002165 0.016748 
-0.025822 0.023178 0.000556 
0.009708 -0.022709 0.001000 
-0.031114 0.019604 0.054312 
0.034255 0.011562 0.059105 
-0.005399 -0.039145 0.062432 
0.022330 -0.024149 0.010096 
-0.021987 0.032405 0.052579 
0.038756 -0.008085 0.063211 
0.033806 -0.006665 0.029323 
0.015458 0.026684 0.001000 
-0.016561 -0.032689 0.018044 
-0.036769 -0.013655 0.050752 
-0.031155 0.023155 0.059125 
-0.021992 -0.002141 0.000000 
0.000351 0.036876 0.021261 
0.024687 0.029697 0.069000 
-0.029645 -0.021943 0.045433 
-0.038227 -0.010187 0.063108 
-0.036603 -0.000717 0.039385 
0.001855 -0.035953 0.054553 
0.039099 0.003878 0.069000 
-0.002236 0.032981 0.013532 
-0.013016 -0.033067 0.005139 
0.033647 -0.014227 0.011824 
-0.021237 0.022735 0.001000 
0.032059 0.010351 0.023211 
0.016425 -0.013981 0.001000 
-0.029104 0.014804 0.003898 
0.006786 -0.036408 0.060830 
-0.013062 -0.034198 0.046916 
