
# .PCD v.6 - Point Cloud Data file format
FIELDS x y z 
SIZE 4 4 4 
TYPE F F F 
COUNT 1 1 1 
WIDTH 1649
HEIGHT 1
VIEWPOINT 0.000000 0.000000 0.000000 1.000000 0.000000 0.000000 0.00000
POINTS 1649
DATA ascii
-0.008042 0.032000 0.056946 
-0.035000 0.002701 0.058779 
-0.034461 0.005617 0.029456 
0.023220 -0.022348 0.000000 
0.030810 -0.015786 0.027683 
0.021880 -0.027120 0.061090 
-0.002148 -0.035000 0.052208 
-0.023577 -0.025423 0.052611 
0.018426 -0.026052 0.020705 
0.028660 0.015258 0.061411 
-0.014424 -0.028877 0.011062 
0.008813 0.008445 0.001000 
0.016708 -0.027265 0.034938 
0.023563 -0.008486 0.000000 
0.011060 -0.005136 0.000000 
-0.013818 0.029305 0.055160 
0.033577 -0.008694 0.007809 
0.014904 -0.031397 0.049104 
-0.014180 0.031880 0.029119 
-0.035000 -0.001225 0.004815 
0.010586 0.031627 0.062000 
-0.033406 -0.009377 0.008738 
-0.013014 -0.032329 0.020761 
-0.026190 0.022810 0.010225 
0.019439 0.025337 0.059613 
-0.034205 -0.000000 0.021123 
0.000513 0.032000 0.046132 
0.010157 -0.031889 0.033004 
-0.027954 -0.021046 0.055759 
-0.005278 0.034574 0.059714 
0.017521 -0.029914 0.062000 
-0.006293 -0.034236 0.002202 
-0.028329 -0.016203 0.061651 
0.016875 0.030083 0.009579 
0.031119 -0.008232 0.044083 
0.023250 0.022647 0.013577 
-0.031931 0.013448 0.062000 
0.001496 -0.028029 0.000000 
-0.026674 0.022326 0.017630 
0.024946 -0.024054 0.004663 
0.006566 -0.026685 0.001000 
0.031578 -0.006920 0.048812 
0.019147 0.025543 0.039907 
-0.023044 0.022792 0.001451 
0.033311 -0.009758 0.026011 
0.019157 0.028921 0.019476 
0.003946 0.032000 0.053809 
-0.002056 0.034559 0.001000 
0.016572 -0.024046 0.001000 
-0.004845 0.015550 0.000000 
-0.033275 -0.009901 0.011725 
0.032358 -0.004690 0.005150 
-0.026586 0.022414 0.019465 
0.010957 0.032957 0.050005 
0.021448 0.023919 0.039401 
0.022905 -0.022891 0.002579 
0.005186 0.032000 0.035582 
-0.033478 -0.001493 0.032353 
0.033144 -0.010422 0.006460 
0.014969 0.031354 0.035327 
0.030695 -0.009443 0.040261 
0.027770 0.020770 0.025125 
-0.025210 -0.011234 0.001000 
-0.018201 0.026211 0.005180 
0.033364 -0.009545 0.054057 
-0.007616 0.032000 0.046190 
-0.011278 -0.031098 0.031378 
-0.006698 0.033000 0.000000 
-0.019505 -0.016873 0.001000 
-0.020480 0.028260 0.029507 
0.003358 0.032000 0.061487 
-0.034489 -0.000000 0.046268 
-0.004857 0.015533 0.000000 
-0.011878 -0.030674 0.055959 
-0.027942 -0.017308 0.015230 
0.028465 -0.018741 0.062000 
-0.033877 -0.007493 0.051888 
0.002527 -0.035000 0.019118 
0.028331 0.020338 0.029793 
-0.028012 -0.020976 0.014364 
-0.024084 -0.022058 0.032437 
0.010915 0.033021 0.051129 
0.016807 0.030129 0.023868 
0.022361 0.026639 0.043932 
-0.020329 0.028336 0.036670 
0.021682 0.023754 0.017001 
0.029086 0.018828 0.008248 
-0.013070 -0.007827 0.001000 
-0.034203 -0.006390 0.020429 
-0.028738 -0.015035 0.050768 
-0.027463 0.020463 0.038569 
0.025107 -0.023893 0.048014 
-0.008851 0.032869 0.001000 
0.013868 0.029269 0.059038 
0.015128 -0.028380 0.060300 
-0.014382 -0.028907 0.035145 
0.016174 -0.027642 0.055394 
-0.023166 0.025834 0.024004 
-0.033939 0.007244 0.039768 
-0.032286 -0.013143 0.057246 
-0.003573 -0.035000 0.042164 
0.010607 0.032607 0.058094 
0.029240 0.013601 0.050972 
0.027964 0.020964 0.048326 
0.031441 -0.007312 0.054290 
-0.011112 0.032963 0.005199 
0.026636 0.020257 0.004241 
-0.018631 -0.029185 0.053772 
0.033255 -0.009981 0.002533 
-0.005801 0.034400 0.031096 
0.008052 0.000066 0.001000 
0.021429 -0.027571 0.050078 
0.022702 -0.023034 0.013214 
-0.025851 0.019293 0.001000 
-0.006063 0.032000 0.022745 
0.024465 0.017199 0.000000 
0.010439 0.026431 0.001000 
0.034659 0.005022 0.053492 
-0.013126 -0.032291 0.014385 
-0.000681 0.032000 0.042830 
0.030256 0.010697 0.013161 
-0.031040 -0.008456 0.043019 
-0.034790 0.004630 0.013932 
0.007821 0.030725 0.001000 
0.027296 -0.019154 0.003115 
-0.033756 0.000696 0.008376 
-0.035000 -0.001658 0.000718 
-0.031644 -0.006731 0.022545 
0.002278 0.032000 0.046864 
0.014320 -0.031787 0.000462 
-0.032973 0.011081 0.025163 
0.028691 0.015170 0.042550 
-0.007875 0.032000 0.059312 
-0.021968 0.023552 0.015137 
0.023562 -0.022427 0.060951 
0.017951 -0.029524 0.008618 
-0.008737 -0.033566 0.011986 
-0.018927 0.029036 0.022021 
-0.027630 0.007794 0.000000 
0.031842 0.002113 0.000000 
-0.012311 -0.032563 0.033460 
-0.021973 0.023549 0.000500 
-0.032719 -0.003660 0.053144 
0.000876 -0.016085 0.000000 
0.027244 -0.020244 0.005030 
0.016104 0.030597 0.050851 
0.031420 -0.014870 0.053010 
0.035000 -0.004000 0.060986 
-0.017860 -0.026452 0.011332 
-0.007534 -0.032000 0.041980 
0.033902 0.007390 0.040177 
-0.027402 -0.020402 0.055048 
-0.031656 0.014517 0.035274 
-0.031932 0.014102 0.027239 
0.018268 -0.029366 0.023571 
-0.028691 0.015169 0.055856 
-0.018893 -0.006709 0.001000 
-0.011574 0.032809 0.032589 
-0.005731 0.034423 0.019845 
0.029826 0.017348 0.012327 
-0.030268 0.002045 0.000000 
0.025867 0.023133 0.051551 
0.030030 -0.016346 0.000000 
-0.027447 -0.018723 0.027954 
0.010974 0.032974 0.038873 
0.016075 0.027712 0.026954 
0.030568 0.008939 0.001000 
-0.030718 0.009378 0.061584 
-0.035000 -0.001728 0.016912 
0.005124 -0.034625 0.059333 
0.000658 -0.032000 0.020654 
0.001069 0.006859 0.000000 
0.008007 0.033748 0.057759 
-0.016010 -0.030660 0.002579 
-0.015081 0.011486 0.001000 
-0.029681 -0.017638 0.024448 
0.035000 0.002363 0.003493 
0.024327 -0.021886 0.035272 
-0.001648 0.032000 0.014581 
-0.010230 0.032230 0.042445 
-0.028824 -0.014789 0.014091 
0.003105 -0.032000 0.048693 
-0.003919 0.034272 0.000000 
0.029947 -0.011579 0.048285 
-0.012751 0.030058 0.039459 
-0.030939 0.008747 0.010092 
-0.000234 -0.014967 0.001000 
0.003465 0.032000 0.033784 
-0.027008 0.019976 0.012828 
0.014068 -0.029129 0.011653 
-0.003357 -0.032000 0.041754 
0.027866 0.017525 0.030550 
-0.001406 0.033770 0.001000 
-0.030643 -0.009592 0.022229 
0.033814 -0.000533 0.033195 
0.017484 0.026717 0.019552 
-0.003481 -0.032000 0.045917 
0.017103 0.029949 0.022720 
-0.012910 0.029946 0.043120 
0.009162 -0.032000 0.005745 
-0.012676 -0.032441 0.001935 
-0.007034 -0.033991 0.036530 
0.035000 -0.002544 0.026411 
-0.021290 -0.026419 0.062000 
0.016500 0.027412 0.048291 
0.005978 -0.032000 0.050115 
-0.022805 0.026195 0.008739 
-0.025420 -0.021703 0.001000 
-0.002227 -0.032000 0.018037 
0.028789 0.019423 0.027829 
0.033065 -0.010740 0.023560 
0.029526 -0.012782 0.034238 
-0.030012 -0.016982 0.021958 
0.027544 0.020544 0.055661 
-0.031340 0.007600 0.026226 
-0.029183 -0.019200 0.061417 
0.028597 0.011006 0.000000 
0.032369 0.004659 0.027967 
0.034225 0.006326 0.059829 
0.027602 0.018279 0.011736 
0.012773 0.024288 0.001000 
0.032811 0.003396 0.052331 
-0.022481 0.023190 0.058585 
-0.019066 0.025600 0.059847 
0.013922 -0.032026 0.058768 
0.032867 -0.011399 0.017632 
-0.028634 -0.015331 0.028138 
0.025500 -0.023500 0.051194 
0.010097 -0.032097 0.004427 
-0.007334 0.033916 0.046132 
0.028418 0.020164 0.013766 
-0.003719 -0.035000 0.039758 
-0.032378 -0.004636 0.026758 
-0.010220 0.031845 0.029318 
0.007234 0.032000 0.009974 
0.006183 -0.009797 0.000000 
0.016798 0.030134 0.033351 
0.026272 0.022728 0.022882 
0.017035 0.027034 0.024521 
0.005298 0.021165 0.001000 
-0.034362 0.005913 0.004455 
0.028887 -0.014609 0.028142 
0.023703 0.025297 0.025698 
-0.008233 0.019597 0.000000 
0.014673 -0.031552 0.018332 
-0.033494 0.009023 0.022596 
0.024277 -0.024723 0.019804 
0.026820 0.009277 0.001000 
-0.029010 0.014257 0.022745 
-0.019386 -0.028807 0.046009 
0.022338 -0.026662 0.025419 
0.022304 0.026696 0.018070 
0.027910 0.020910 0.022447 
-0.024476 0.015778 0.001000 
-0.014564 0.016473 0.001000 
0.008049 0.033738 0.017990 
-0.032129 -0.013612 0.030189 
-0.033499 0.009002 0.000010 
-0.009162 0.033459 0.042572 
-0.027156 -0.019554 0.019451 
0.006910 -0.034030 0.012243 
-0.008711 0.022262 0.000000 
0.007670 0.004924 0.000000 
0.027225 0.019356 0.040892 
-0.034547 0.005360 0.015321 
-0.020403 0.028035 0.062000 
-0.025345 -0.023655 0.026955 
0.013358 0.029630 0.028481 
-0.031754 -0.006417 0.014441 
0.031205 -0.015193 0.010597 
0.005812 0.007373 0.001000 
0.009572 -0.033357 0.012830 
-0.013741 -0.022222 0.000000 
-0.003524 0.032000 0.021439 
0.011524 -0.003013 0.000000 
0.032982 0.002909 0.059968 
-0.025191 0.021277 0.027311 
0.011505 -0.032832 0.049457 
-0.015292 0.031139 0.038700 
0.014656 0.028713 0.021768 
0.012399 -0.030307 0.011192 
0.035000 -0.001133 0.056849 
-0.009844 -0.033289 0.024024 
-0.014109 0.022424 0.000000 
0.029866 0.013158 0.000000 
0.027975 0.020975 0.000452 
-0.028643 0.015306 0.000598 
-0.023259 -0.025741 0.022224 
0.015621 -0.031072 0.056599 
-0.024405 -0.021832 0.020070 
-0.024894 0.021487 0.047888 
0.014489 0.031674 0.006093 
-0.010571 -0.032571 0.039184 
0.028599 -0.015431 0.039973 
0.027079 -0.020079 0.060694 
0.015570 -0.028068 0.027617 
0.027326 -0.020326 0.010025 
0.008718 -0.033571 0.022726 
0.016310 -0.030460 0.041915 
0.028629 0.019741 0.034402 
0.023461 0.009251 0.000000 
0.029257 0.005317 0.000000 
-0.012964 -0.029908 0.024429 
0.020462 0.028269 0.049238 
-0.019845 0.028578 0.017853 
0.005768 -0.032000 0.044552 
0.028175 -0.016643 0.034691 
0.002940 0.014723 0.001000 
-0.018028 0.026333 0.005489 
-0.018531 0.014164 0.001000 
0.025406 0.023594 0.030860 
0.028550 0.015571 0.012556 
-0.020944 0.024275 0.001209 
0.030592 -0.009736 0.002246 
-0.030011 -0.011397 0.058549 
0.033247 -0.002151 0.047646 
-0.000389 -0.006744 0.000000 
0.030424 0.016364 0.028171 
-0.029218 0.018565 0.056591 
0.022295 -0.026705 0.038170 
-0.016186 0.030710 0.044772 
-0.010275 0.027203 0.000000 
-0.028836 -0.014753 0.000070 
0.030591 -0.016113 0.040215 
-0.027341 0.020341 0.025419 
0.028412 -0.020176 0.012733 
0.023246 -0.019760 0.000000 
0.012297 -0.032568 0.002172 
0.001123 -0.033793 0.062000 
0.000808 0.035000 0.041771 
0.005621 -0.032000 0.012809 
0.024685 -0.016369 0.000000 
0.027462 0.021538 0.045326 
0.006915 0.012792 0.000000 
-0.013683 -0.029401 0.015574 
0.010197 0.033201 0.020807 
-0.033761 -0.000684 0.057195 
0.008686 -0.032000 0.016503 
-0.030037 0.011323 0.044600 
-0.027691 0.020691 0.052421 
0.032741 0.011776 0.053035 
-0.020015 -0.020636 0.001000 
0.010442 -0.032442 0.012319 
-0.009313 -0.032000 0.032788 
-0.009348 -0.033413 0.008647 
-0.033128 -0.010487 0.038369 
0.032583 -0.004048 0.033383 
-0.028221 -0.016512 0.034070 
0.023171 -0.016151 0.000000 
-0.033329 -0.001916 0.017436 
0.032820 -0.011540 0.027041 
-0.029279 -0.013487 0.028125 
0.031540 0.014690 0.034175 
0.030801 0.015799 0.021174 
0.010018 -0.032018 0.052579 
0.018460 0.029270 0.000126 
-0.011394 -0.021317 0.001000 
0.019273 -0.004915 0.001000 
-0.011991 -0.032670 0.017088 
0.009290 0.032452 0.062000 
0.032771 -0.011686 0.004449 
-0.027858 -0.021142 0.037639 
-0.010229 -0.033193 0.033627 
-0.015001 0.031333 0.014234 
0.025116 -0.023884 0.049764 
-0.023323 0.025677 0.005610 
0.017116 0.029942 0.058181 
0.010840 -0.031407 0.019275 
0.034798 0.004605 0.024373 
-0.012414 0.032529 0.016610 
0.006415 0.034195 0.043932 
-0.031422 -0.007365 0.013616 
0.019673 -0.005656 0.001000 
-0.033908 -0.003837 0.062000 
0.005343 0.032260 0.000000 
-0.002993 -0.003897 0.001000 
-0.022230 0.023367 0.003336 
-0.032892 -0.003167 0.052758 
-0.010230 -0.033192 0.043528 
-0.017523 0.026689 0.033059 
-0.019351 0.025400 0.012364 
-0.021799 -0.027201 0.045826 
0.006307 -0.034231 0.032706 
0.027521 -0.018513 0.045455 
-0.018430 -0.027282 0.001000 
0.010177 -0.031875 0.057080 
0.024094 0.004664 0.000000 
-0.027031 -0.016184 0.000000 
0.002586 0.035000 0.061132 
-0.012660 -0.032447 0.019222 
0.005841 0.032000 0.012849 
-0.008935 0.028376 0.001000 
0.030148 -0.009907 0.000000 
0.033439 -0.001602 0.013260 
-0.004478 -0.017731 0.000000 
0.028356 -0.016126 0.056119 
-0.002736 0.030923 0.001000 
-0.012236 0.032588 0.060028 
-0.032934 -0.011197 0.015404 
-0.003942 -0.035000 0.019291 
-0.030115 0.006468 0.001000 
0.032720 -0.011839 0.044053 
0.033121 0.002513 0.033228 
-0.027840 -0.017599 0.015411 
-0.007534 0.033867 0.056723 
0.029911 0.017178 0.001558 
0.012116 -0.032628 0.027464 
-0.031058 0.013278 0.000000 
-0.019801 0.008371 0.001000 
0.032884 0.011348 0.057978 
0.013606 0.032131 0.044977 
-0.015991 -0.027771 0.045304 
0.014835 -0.028587 0.043978 
-0.031653 -0.006706 0.047439 
-0.024967 -0.024033 0.052383 
-0.006973 -0.034009 0.003892 
0.027131 0.020131 0.004078 
0.014460 0.028851 0.031256 
0.016088 -0.027703 0.053239 
0.032216 0.013353 0.048277 
0.027202 0.019422 0.043896 
0.031350 -0.014974 0.026822 
-0.010573 -0.033107 0.017008 
0.009083 0.033479 0.014005 
-0.035000 -0.000519 0.017257 
-0.004728 0.034757 0.037813 
-0.017331 0.029835 0.009106 
0.019363 -0.005251 0.001000 
0.032658 -0.003835 0.006904 
-0.002336 -0.032000 0.021072 
0.006533 0.034156 0.006216 
0.017031 0.027037 0.010495 
0.029932 0.017136 0.025357 
-0.015476 -0.031016 0.028539 
-0.033056 0.010777 0.011261 
0.031654 -0.006703 0.052790 
0.006187 -0.034271 0.038791 
0.034667 -0.005000 0.013905 
0.022266 0.026734 0.013420 
0.013241 -0.029712 0.054637 
0.031983 -0.011759 0.000000 
-0.015474 -0.031017 0.009080 
-0.019490 -0.028755 0.037530 
0.008664 0.026915 0.000000 
0.025081 -0.021355 0.025700 
0.004007 0.034998 0.016965 
-0.034391 -0.000000 0.061933 
0.003475 -0.035000 0.055030 
-0.003450 -0.031525 0.001000 
-0.004535 0.019520 0.000000 
-0.027342 0.019024 0.007467 
-0.010504 0.032504 0.043164 
-0.019391 -0.025371 0.047128 
-0.028047 -0.017008 0.056219 
-0.031391 -0.007455 0.016557 
0.003605 0.032000 0.055101 
0.012717 0.030082 0.000082 
-0.022229 -0.023368 0.027008 
0.033627 0.008491 0.000829 
0.022516 -0.026484 0.026933 
0.035000 -0.001463 0.056430 
-0.011146 0.031191 0.031178 
-0.028786 0.014898 0.052792 
0.007353 -0.021854 0.000000 
-0.009220 0.032000 0.042677 
-0.017944 0.026392 0.017204 
-0.030149 0.011002 0.030388 
0.033042 -0.010831 0.020823 
-0.016205 -0.027620 0.037120 
-0.007655 0.033836 0.060126 
-0.019260 0.029065 0.058729 
-0.021337 0.027663 0.026630 
-0.033080 0.010681 0.025998 
-0.027871 -0.020871 0.008359 
-0.011029 -0.031274 0.030121 
-0.003557 0.035000 0.006479 
0.034451 0.005648 0.025949 
-0.027933 0.017336 0.047578 
0.034007 0.000000 0.057162 
0.032879 -0.011363 0.052347 
0.030322 -0.016517 0.016812 
-0.004858 -0.034714 0.011085 
0.009401 0.012969 0.001000 
0.029669 0.012374 0.050856 
-0.023124 -0.022200 0.001000 
0.030217 0.010807 0.039370 
-0.032038 -0.013887 0.032595 
0.027196 -0.020196 0.002354 
0.014595 -0.002646 0.001000 
0.014180 0.031880 0.049868 
-0.013931 0.032023 0.047307 
-0.013971 0.029197 0.047998 
0.030878 -0.008920 0.025185 
-0.024551 0.021729 0.057546 
0.005749 -0.032000 0.031743 
-0.035000 -0.003445 0.000779 
0.011059 0.031253 0.008856 
0.033073 -0.010710 0.003305 
0.010029 -0.017794 0.000000 
0.012658 0.023899 0.000000 
-0.017160 0.029920 0.006282 
-0.031827 -0.006208 0.046688 
0.012163 -0.032612 0.058933 
-0.003069 0.032000 0.056200 
0.027667 -0.020667 0.034184 
0.034187 0.006440 0.049708 
-0.010495 -0.024767 0.001000 
-0.019858 -0.020197 0.001000 
0.011981 -0.030602 0.041453 
0.032530 -0.004201 0.012227 
-0.008629 -0.033593 0.036676 
0.022284 -0.023329 0.026266 
0.020750 -0.024412 0.017269 
-0.030006 -0.011411 0.055711 
0.014148 0.015798 0.001000 
-0.015426 -0.031049 0.000315 
0.028835 0.014757 0.057830 
0.020800 0.028100 0.042193 
-0.007332 -0.032000 0.027101 
-0.010881 -0.031378 0.060780 
0.010044 0.032044 0.055661 
0.010363 0.032363 0.058793 
0.011199 -0.031154 0.025612 
0.008912 0.012899 0.000000 
-0.009108 0.033473 0.006328 
-0.026181 0.004296 0.000000 
-0.027413 0.021587 0.029400 
0.026642 -0.022358 0.049068 
0.024880 0.021497 0.035257 
0.022769 0.026231 0.014539 
0.024829 -0.024171 0.059696 
0.033477 -0.009094 0.011139 
0.016434 0.018169 0.000000 
0.011645 0.020442 0.001000 
0.030147 0.011008 0.028006 
0.012634 -0.032455 0.048477 
0.009733 0.025077 0.000000 
0.028020 0.020960 0.005440 
0.008596 -0.033601 0.022503 
0.035000 0.003596 0.052259 
-0.014779 0.028627 0.026039 
-0.010797 -0.027621 0.000000 
0.030205 -0.010843 0.048969 
0.018933 -0.025694 0.043807 
0.003241 -0.032000 0.031824 
0.031984 0.014032 0.040564 
0.032740 -0.003601 0.039871 
0.028843 -0.014734 0.026638 
-0.019928 -0.025773 0.000000 
0.017725 -0.026547 0.039348 
-0.022362 -0.026638 0.035327 
-0.002095 -0.032000 0.001704 
0.035000 -0.003592 0.004895 
0.004548 0.034817 0.020548 
-0.022222 -0.026778 0.053572 
0.031006 0.008553 0.060333 
0.001669 -0.032000 0.006568 
0.023005 0.022820 0.023138 
0.024971 -0.021432 0.013579 
0.026731 0.005477 0.000000 
-0.033072 -0.010711 0.028561 
-0.030348 -0.010435 0.012231 
0.021387 0.001334 0.001000 
-0.013940 -0.029219 0.042971 
-0.033592 0.008631 0.039939 
0.010192 0.002336 0.000000 
0.030239 -0.016641 0.011454 
-0.022058 -0.026942 0.008368 
-0.019059 -0.028970 0.022926 
-0.016197 -0.027626 0.020077 
0.006396 -0.005640 0.000000 
0.008538 0.001071 0.000000 
0.026943 0.016653 0.000000 
-0.003444 0.032000 0.023992 
-0.006140 -0.032000 0.059397 
0.022072 -0.017502 0.001000 
0.001351 -0.006824 0.000000 
-0.012178 -0.032607 0.017555 
-0.034116 0.006652 0.050377 
-0.008514 -0.026173 0.000000 
-0.026559 0.022441 0.021108 
0.027272 0.020272 0.009026 
-0.028645 0.015301 0.052831 
0.029561 -0.012682 0.058178 
-0.010510 -0.031640 0.009188 
0.033422 0.001652 0.013270 
-0.014338 -0.028938 0.049352 
-0.001140 -0.020678 0.000000 
-0.029427 0.013066 0.049504 
0.030264 -0.016605 0.005527 
0.026295 0.022639 0.000000 
-0.021149 -0.024130 0.048219 
0.035000 -0.001430 0.038366 
0.013309 0.029664 0.054214 
0.000145 -0.033897 0.000000 
0.030091 -0.016863 0.035493 
-0.027730 -0.020730 0.022977 
-0.017878 0.026439 0.057344 
-0.005080 -0.027021 0.000000 
0.008679 -0.033580 0.018425 
0.002177 -0.035000 0.048367 
-0.016254 -0.000570 0.001000 
-0.028336 0.018557 0.062000 
0.019268 -0.028866 0.028296 
-0.017994 -0.002721 0.001000 
0.003737 -0.006324 0.000000 
0.008677 0.032000 0.008077 
-0.029567 -0.017867 0.042445 
0.016085 0.027705 0.024303 
0.020105 0.024867 0.010774 
0.010107 -0.032107 0.019226 
-0.030668 -0.009520 0.045980 
0.020366 -0.021079 0.001000 
0.021528 -0.027472 0.022968 
0.014448 0.031701 0.021470 
-0.034213 0.006361 0.047331 
0.027943 -0.017307 0.024044 
-0.014775 -0.014298 0.001000 
-0.012135 0.030493 0.041903 
0.012879 -0.029968 0.021060 
-0.010378 0.032378 0.045618 
0.026162 -0.020592 0.026380 
0.010622 -0.032622 0.034531 
-0.024316 0.003393 0.000000 
-0.005262 0.034579 0.060513 
-0.007657 0.032000 0.006152 
0.030630 0.009629 0.052557 
-0.032020 -0.005657 0.045526 
-0.027992 0.020992 0.017666 
0.023400 0.023398 0.001000 
0.029347 0.013295 0.046316 
0.027225 0.019358 0.036964 
-0.028303 -0.020393 0.004803 
-0.009737 -0.033316 0.031186 
0.011681 0.022970 0.001000 
-0.001353 -0.008748 0.000000 
0.019262 -0.025462 0.024626 
-0.008214 -0.032000 0.032703 
-0.009097 -0.033476 0.013907 
0.033358 -0.001834 0.023689 
0.020326 0.024711 0.023854 
0.035000 -0.001368 0.029935 
-0.017211 0.026910 0.032510 
0.033431 -0.009276 0.056444 
0.015970 0.027786 0.003997 
0.016625 -0.030250 0.019236 
0.002505 0.035000 0.010348 
0.029228 -0.013634 0.010629 
-0.028638 0.015319 0.054612 
0.026631 -0.022369 0.024405 
0.033826 0.000498 0.014132 
0.029019 -0.014232 0.046976 
-0.031919 -0.005944 0.039533 
0.032595 0.012214 0.056462 
0.033243 0.010027 0.003796 
-0.019717 0.025141 0.027353 
-0.003924 0.032000 0.022410 
-0.000279 0.032000 0.016720 
-0.010012 0.032012 0.017024 
0.025541 -0.023459 0.054937 
-0.035000 0.000354 0.029677 
0.016360 -0.030718 0.057322 
0.010534 -0.031623 0.029205 
0.035000 -0.001688 0.014806 
-0.028279 -0.016627 0.000000 
-0.009248 -0.029148 0.001000 
-0.020668 0.028166 0.019446 
0.019940 -0.005872 0.001000 
-0.029666 0.012384 0.003914 
-0.028710 -0.015114 0.027541 
-0.028603 0.019794 0.036707 
0.006640 0.024475 0.001000 
-0.022739 -0.009975 0.001000 
0.007772 0.033807 0.020170 
0.006646 0.028960 0.001000 
-0.006395 0.034202 0.017050 
-0.029913 0.008642 0.001000 
0.032178 0.005207 0.060922 
-0.002839 -0.032000 0.032443 
-0.027532 0.018481 0.055085 
-0.032552 0.005981 0.001000 
-0.033305 -0.001986 0.027404 
-0.001574 -0.002010 0.000000 
0.000578 0.035000 0.010674 
0.011883 -0.032261 0.001000 
-0.022169 -0.023410 0.004907 
0.030227 0.017545 0.061081 
-0.022407 -0.026593 0.010863 
-0.024432 -0.017581 0.001000 
0.016468 -0.030355 0.027499 
0.009264 -0.033434 0.015278 
0.002495 0.035000 0.059079 
-0.007391 0.033902 0.031783 
0.017175 -0.029913 0.001273 
0.032231 0.005056 0.018981 
-0.012662 -0.030121 0.013173 
0.033428 0.009012 0.000000 
-0.029618 0.016302 0.062000 
0.031646 -0.014531 0.026264 
0.034192 0.006425 0.020701 
0.030277 0.016584 0.021404 
0.030599 0.009717 0.024481 
-0.015510 -0.000441 0.001000 
-0.028244 0.017516 0.000000 
-0.025194 0.005993 0.001000 
-0.010546 0.031615 0.002501 
0.031092 0.015362 0.026334 
0.010423 0.032423 0.039424 
0.026207 -0.022793 0.053803 
-0.030728 0.009349 0.056074 
-0.017974 0.026371 0.061219 
-0.010603 -0.033099 0.051582 
-0.015843 0.023244 0.000000 
0.033124 -0.002502 0.014870 
-0.013824 0.029301 0.043645 
0.032687 -0.003753 0.059210 
-0.015919 0.031041 0.057403 
-0.031310 0.000674 0.000000 
0.017515 0.029743 0.058673 
-0.014578 -0.031614 0.016407 
-0.020315 0.003743 0.000000 
0.030994 -0.008588 0.045879 
-0.000943 -0.035000 0.050004 
0.030369 0.010374 0.010992 
-0.014003 0.029175 0.038921 
0.011707 -0.032764 0.053257 
-0.008408 0.013499 0.001000 
0.033951 -0.000140 0.016633 
-0.031038 0.008464 0.025359 
0.019729 -0.028635 0.024561 
0.002924 0.035000 0.058554 
0.006563 0.034146 0.036634 
0.035000 0.002998 0.015707 
0.004487 0.032000 0.037371 
-0.028573 0.015304 0.001000 
0.027459 -0.018688 0.055640 
-0.000094 -0.032260 0.062000 
0.002950 0.006072 0.001000 
-0.013531 -0.020940 0.000000 
0.035000 -0.003784 0.006922 
0.028713 0.015105 0.046331 
0.001270 0.035000 0.014815 
-0.005043 -0.005176 0.000000 
0.032066 0.005525 0.054544 
0.000707 0.035000 0.007424 
0.017308 -0.026841 0.001253 
0.033542 -0.008833 0.035492 
-0.023398 -0.025602 0.023260 
0.025080 0.000447 0.001000 
0.033896 0.007415 0.022996 
-0.028553 -0.017748 0.001000 
0.033988 0.000033 0.033241 
-0.021150 0.000833 0.000000 
0.032646 -0.003870 0.009557 
0.015858 0.030762 0.030500 
0.000925 -0.032000 0.003581 
-0.007602 -0.016673 0.000000 
0.027204 -0.020204 0.048939 
-0.029518 0.012804 0.019920 
0.020200 -0.028400 0.053150 
0.027910 -0.017401 0.021988 
0.003907 -0.006234 0.001000 
0.025815 -0.023185 0.048944 
0.035000 0.000368 0.025944 
0.027320 -0.019086 0.059978 
0.027843 -0.011337 0.000000 
-0.030841 0.009024 0.041553 
-0.023322 -0.022596 0.061974 
-0.001740 0.004839 0.000000 
-0.031500 -0.015001 0.058458 
0.026551 0.000522 0.001000 
0.029973 0.005712 0.001000 
0.018516 -0.025989 0.001024 
0.027130 -0.019630 0.027144 
0.012048 -0.014342 0.000000 
0.004398 0.015844 0.000000 
-0.034135 0.006596 0.044541 
0.024048 0.021058 0.001000 
0.025656 -0.022861 0.001000 
0.033715 -0.000814 0.021201 
-0.022892 -0.010208 0.000000 
-0.023061 -0.025939 0.030577 
0.033971 -0.007118 0.040839 
-0.009704 0.032000 0.016986 
0.007516 0.033871 0.014338 
0.022853 -0.026147 0.018461 
0.017134 -0.027519 0.000000 
-0.031023 0.008505 0.031251 
-0.022191 -0.009919 0.000000 
-0.034374 0.005877 0.003091 
0.031359 -0.014961 0.032618 
-0.033856 0.000411 0.023651 
0.010598 0.033101 0.027420 
-0.021945 0.001874 0.000000 
-0.024727 -0.021604 0.035699 
0.017883 -0.003091 0.001000 
-0.021070 -0.024186 0.002827 
0.024317 -0.020490 0.001000 
-0.018825 0.029321 0.057539 
-0.030750 0.009285 0.061438 
0.003132 0.035000 0.059985 
0.016098 -0.027695 0.016525 
-0.017062 -0.029969 0.059368 
-0.011886 0.030668 0.009219 
0.006634 -0.003391 0.001000 
0.001498 -0.035000 0.000359 
0.008740 -0.032000 0.011117 
-0.000598 -0.032000 0.056149 
-0.017374 -0.026795 0.008827 
0.027723 -0.020723 0.039928 
0.022751 -0.026249 0.058141 
-0.014712 -0.031526 0.051559 
0.030405 -0.010272 0.009087 
0.033453 -0.001563 0.053922 
0.003289 -0.032000 0.001610 
0.002781 -0.035000 0.058961 
-0.032232 -0.013303 0.040550 
-0.005026 -0.025150 0.001000 
0.019310 0.028845 0.000852 
-0.020359 0.028333 0.058754 
-0.011693 0.027934 0.001000 
-0.035000 -0.000395 0.050425 
-0.033518 0.008929 0.043894 
0.017366 -0.026801 0.058197 
0.005909 0.003014 0.001000 
0.015696 0.027979 0.048153 
0.001399 -0.032000 0.055838 
-0.009156 0.033461 0.024276 
0.030654 0.009561 0.043037 
-0.033651 -0.000997 0.051285 
-0.001473 -0.035000 0.016125 
0.025795 -0.023205 0.024062 
-0.017257 -0.001596 0.001000 
0.027709 0.020709 0.015858 
-0.006919 0.032000 0.026870 
0.024011 0.006319 0.001000 
-0.028553 0.015562 0.001281 
0.021479 0.002517 0.001000 
0.027813 0.020813 0.055384 
0.031180 0.008058 0.007220 
0.013097 0.029814 0.060773 
-0.001905 -0.003216 0.001000 
-0.000519 0.032000 0.042386 
-0.016970 0.030020 0.023640 
-0.033681 -0.000913 0.045820 
0.029266 0.013526 0.008515 
-0.003799 0.035000 0.050003 
-0.033548 0.008807 0.052931 
-0.016318 0.027540 0.018151 
-0.007327 0.020983 0.001000 
0.015464 -0.028143 0.051960 
-0.033675 -0.008300 0.031909 
0.006139 -0.032000 0.041313 
-0.020511 0.024581 0.054512 
0.007202 -0.032000 0.050429 
0.001963 0.014910 0.000000 
0.033653 0.004974 0.000000 
0.024581 0.024419 0.004237 
-0.028111 0.016827 0.040450 
0.035000 0.000408 0.005760 
-0.030485 -0.010042 0.032204 
-0.012081 0.030531 0.055171 
-0.003124 -0.032000 0.035510 
-0.035000 0.003269 0.017825 
0.032099 -0.005431 0.043348 
-0.027964 0.020964 0.017244 
-0.022449 0.026551 0.035956 
0.030267 0.010664 0.036182 
0.027604 0.021396 0.008426 
0.032541 0.012378 0.014500 
-0.012878 0.029968 0.013259 
-0.012997 0.028645 0.000000 
0.025330 0.021178 0.057136 
-0.009370 0.033408 0.013104 
-0.005593 0.034469 0.043763 
0.008484 0.033629 0.059829 
0.001838 -0.032000 0.035341 
0.007718 0.033820 0.031894 
0.020509 0.025051 0.001000 
-0.027547 -0.020547 0.005451 
0.017508 -0.029746 0.004163 
0.019915 -0.025001 0.017946 
0.032558 -0.004119 0.007268 
-0.033501 0.008997 0.027648 
-0.011247 0.032918 0.019168 
0.033026 -0.010896 0.054229 
0.012992 0.032336 0.061575 
0.025987 -0.005148 0.000000 
0.029481 0.018037 0.027362 
0.024196 -0.022031 0.001000 
0.024740 -0.013613 0.000000 
0.022053 0.003631 0.001000 
-0.035000 -0.002863 0.049312 
0.016851 0.027164 0.009136 
-0.015948 -0.030702 0.042625 
-0.022243 -0.026757 0.040833 
-0.016334 0.030833 0.052556 
-0.001597 -0.035000 0.007444 
-0.010312 0.031780 0.050406 
-0.015180 -0.028344 0.057281 
-0.016601 -0.023768 0.000000 
-0.013509 0.029523 0.030537 
-0.006759 -0.032000 0.014932 
-0.021007 0.027993 0.041902 
-0.019388 -0.025373 0.049295 
0.019446 -0.028777 0.034346 
-0.012646 -0.008111 0.001000 
-0.026810 0.006969 0.001000 
-0.032374 0.004645 0.016548 
0.033189 0.003215 0.001000 
-0.012613 -0.032462 0.023551 
-0.027938 -0.021062 0.037675 
0.014695 -0.031537 0.005823 
0.020147 -0.022105 0.001000 
-0.018692 -0.013481 0.001000 
0.012283 -0.032570 0.062000 
-0.002122 -0.032000 0.008662 
-0.032755 -0.011736 0.037714 
0.017745 0.026533 0.003518 
0.023211 0.025789 0.017578 
0.021710 0.027290 0.030621 
0.030005 -0.016993 0.007730 
0.011882 -0.019146 0.001000 
0.024668 0.021646 0.061321 
-0.016622 -0.027326 0.022739 
-0.034572 -0.005284 0.038492 
0.029021 -0.018959 0.020293 
-0.021458 0.027542 0.006497 
0.018221 0.003620 0.001000 
-0.018832 0.025766 0.054425 
0.034077 0.006769 0.004881 
0.029385 -0.018230 0.052817 
-0.020611 -0.028195 0.046365 
-0.032512 0.012464 0.008404 
0.007459 0.001200 0.000000 
-0.034870 -0.000000 0.058369 
-0.014559 -0.028782 0.020960 
0.027222 0.020222 0.054945 
-0.015632 -0.003320 0.001000 
-0.010024 -0.029095 0.000000 
0.019465 -0.025319 0.042736 
0.032928 -0.003063 0.045548 
-0.004065 -0.003482 0.001000 
0.000355 -0.035000 0.027767 
-0.027169 -0.020169 0.015431 
0.031575 0.006928 0.025602 
-0.024813 0.021544 0.055146 
0.035000 -0.000674 0.008044 
-0.021374 0.023971 0.032242 
-0.021497 0.023884 0.023779 
-0.003200 0.032000 0.028692 
0.019743 -0.028628 0.010568 
-0.034232 -0.006304 0.023597 
-0.032024 0.005646 0.021551 
-0.013560 0.016666 0.000000 
-0.006183 -0.034272 0.020048 
0.031580 -0.006915 0.028570 
0.013670 -0.029410 0.005062 
0.032909 0.011273 0.012560 
-0.029176 0.013783 0.026120 
0.005392 0.034536 0.061614 
0.019792 -0.025088 0.040921 
0.000115 0.018267 0.001000 
-0.033619 -0.001088 0.040521 
0.028725 0.019550 0.005669 
0.030504 -0.010739 0.001000 
-0.005671 -0.030652 0.001000 
-0.027009 0.019973 0.037487 
0.011409 -0.031006 0.020464 
0.023186 0.011736 0.000000 
-0.005805 -0.033349 0.062000 
0.013587 0.029538 0.001000 
-0.031394 0.007447 0.036433 
-0.003932 0.025672 0.001000 
-0.034437 0.004203 0.000000 
0.003312 0.035000 0.023899 
-0.030938 -0.008749 0.049794 
-0.012274 0.030395 0.007394 
0.012042 0.032653 0.015064 
-0.011548 0.030907 0.038429 
-0.026405 0.022595 0.035575 
-0.032096 -0.005440 0.058785 
0.019619 -0.028691 0.005602 
0.012142 -0.030488 0.022841 
-0.016429 -0.027462 0.043153 
0.030777 -0.013940 0.001000 
0.016376 0.018948 0.000000 
0.000155 -0.035000 0.042777 
0.024591 -0.021701 0.033501 
-0.027468 0.018662 0.040658 
-0.033472 -0.001509 0.001008 
-0.023020 -0.022810 0.036814 
0.003734 -0.035000 0.030828 
-0.020028 -0.002273 0.000000 
-0.008453 -0.033637 0.001091 
0.013452 0.029563 0.056646 
-0.011224 0.032925 0.000272 
0.029031 0.019130 0.054554 
0.032066 -0.013801 0.021154 
-0.009422 -0.022203 0.000000 
-0.011155 0.031185 0.029625 
0.009160 0.032000 0.024625 
0.027192 0.019453 0.009249 
0.029523 -0.017954 0.058689 
-0.016725 -0.030183 0.059072 
0.008584 0.033604 0.009659 
-0.019752 0.028624 0.031405 
-0.035000 0.000392 0.031868 
0.025228 -0.018289 0.000000 
0.033039 0.002747 0.054665 
0.001764 0.032000 0.024678 
-0.018506 0.025996 0.001939 
-0.022832 -0.026168 0.049984 
0.033253 0.009990 0.012525 
-0.016043 0.027734 0.057161 
-0.035000 0.002586 0.035023 
-0.002464 -0.014308 0.000000 
0.018007 -0.000540 0.001000 
0.007127 -0.026698 0.001000 
-0.013039 -0.032320 0.038420 
0.015679 0.030880 0.006017 
0.018560 -0.025958 0.049767 
0.032571 -0.012286 0.019752 
0.007896 -0.033776 0.027896 
-0.022110 0.014881 0.001000 
0.030132 -0.001044 0.001000 
0.016191 0.030539 0.031669 
0.026755 0.022245 0.035130 
0.011804 0.020779 0.000000 
0.032610 -0.003972 0.001459 
0.005684 -0.034439 0.035432 
-0.008738 0.032000 0.038122 
0.029410 0.018179 0.027357 
-0.005123 0.033766 0.062000 
0.024734 -0.021644 0.000000 
-0.015125 0.028382 0.019582 
-0.010388 0.031726 0.021937 
-0.004322 0.031510 0.000000 
-0.008459 -0.033635 0.043411 
0.028879 0.019591 0.059916 
0.027376 0.021624 0.037898 
0.013124 -0.032292 0.010377 
-0.027994 0.017161 0.021150 
-0.007589 -0.020481 0.001000 
0.027702 -0.017995 0.049058 
-0.015861 0.030759 0.030649 
-0.006128 -0.032000 0.002926 
0.017230 0.026897 0.055113 
0.013923 -0.029231 0.023348 
0.032001 -0.011092 0.001000 
0.032074 -0.004745 0.001000 
0.033015 0.010939 0.022093 
0.002918 -0.032000 0.056826 
-0.024398 0.021837 0.034833 
0.028373 -0.020254 0.017497 
-0.027219 0.020219 0.031737 
0.007043 0.033989 0.023500 
0.032120 0.005370 0.023539 
0.021180 -0.027820 0.045512 
0.020787 -0.024385 0.048972 
0.028817 -0.019366 0.051382 
-0.023114 0.025886 0.003160 
-0.017947 -0.015052 0.000000 
0.009778 0.033305 0.006299 
-0.012738 -0.028161 0.000000 
0.032370 0.012236 0.000000 
0.029790 -0.012029 0.006646 
-0.011775 0.030747 0.040769 
0.023724 0.022312 0.028934 
-0.031108 0.011478 0.001000 
-0.019998 0.026653 0.001000 
0.011486 -0.010965 0.000000 
0.035000 -0.001667 0.049367 
0.001575 0.005606 0.000000 
0.018368 0.014727 0.001000 
0.026893 0.006054 0.001000 
0.024162 0.022003 0.050541 
0.015843 0.027875 0.050819 
-0.034874 -0.004379 0.006057 
-0.031784 -0.014433 0.048255 
0.025473 -0.021078 0.012427 
0.019778 0.028119 0.062000 
-0.005256 -0.034581 0.031209 
-0.010287 -0.032287 0.050368 
-0.024338 -0.024662 0.018150 
0.029601 0.012569 0.046501 
0.030885 -0.008901 0.001842 
0.020009 -0.024935 0.032700 
-0.019433 0.025341 0.003321 
0.016185 0.030544 0.021374 
0.003292 0.032000 0.058916 
0.006555 0.034148 0.030341 
0.005913 0.032000 0.032485 
0.033226 -0.010095 0.061833 
-0.032461 -0.012616 0.046235 
0.027777 -0.017779 0.003400 
-0.016831 -0.015793 0.000000 
0.026051 0.022949 0.019840 
0.019137 0.028931 0.052987 
-0.032942 -0.011175 0.009838 
0.027403 -0.018847 0.061828 
0.013391 0.006901 0.001000 
0.001835 -0.035000 0.046361 
0.019178 0.025522 0.007939 
0.001427 -0.022257 0.001000 
-0.033278 -0.009886 0.013877 
-0.025078 -0.007680 0.001000 
-0.029597 0.012579 0.029564 
0.014995 0.029594 0.001000 
-0.005994 0.032000 0.024100 
-0.034261 0.006216 0.006033 
-0.019543 -0.025264 0.051776 
-0.022125 0.023441 0.005424 
-0.017442 0.026747 0.028211 
-0.021661 -0.007558 0.001000 
-0.010484 0.031658 0.045448 
-0.034713 -0.004862 0.027836 
0.021928 0.001109 0.000000 
0.024778 0.021568 0.003822 
-0.001998 0.032000 0.054551 
-0.016918 -0.030055 0.061318 
-0.005988 -0.002483 0.001000 
0.022962 0.026038 0.033995 
-0.029612 0.012536 0.020866 
-0.023243 0.025757 0.061200 
-0.029727 0.012209 0.042038 
0.029691 -0.012312 0.022027 
-0.035000 0.001458 0.034068 
0.031183 0.012880 0.001000 
0.013292 -0.013286 0.001000 
-0.014217 0.027973 0.000000 
-0.007282 0.033930 0.033683 
0.013617 0.032128 0.011209 
-0.031181 -0.009847 0.000000 
-0.035000 0.001826 0.049086 
-0.006413 -0.032000 0.046228 
-0.011666 0.030824 0.012224 
0.033082 -0.010670 0.001000 
-0.001584 0.032000 0.039634 
-0.011698 -0.031239 0.001000 
-0.010395 0.032395 0.048043 
-0.029005 -0.018989 0.017597 
-0.023127 0.022734 0.039578 
-0.000627 0.035000 0.022074 
-0.030199 -0.010860 0.040407 
0.024462 -0.023942 0.001000 
0.020588 0.024526 0.035600 
-0.005563 0.032000 0.017257 
-0.025238 -0.023762 0.055264 
0.035000 0.001347 0.043989 
0.002269 -0.033912 0.000000 
0.010260 -0.031816 0.000066 
-0.025943 -0.023057 0.056173 
-0.007600 0.032000 0.008855 
-0.019536 0.028813 0.056381 
0.033302 0.001995 0.036122 
0.022356 0.023278 0.000641 
-0.032521 -0.004225 0.036065 
-0.005158 -0.031495 0.001000 
0.011420 0.005438 0.001000 
0.000135 -0.032000 0.032177 
-0.030511 0.009969 0.045958 
-0.015354 -0.031097 0.054961 
-0.033556 -0.008775 0.000942 
-0.029507 0.017986 0.051987 
-0.016312 0.027545 0.044733 
-0.026953 0.022047 0.023845 
-0.032002 0.005709 0.043583 
0.004276 -0.032000 0.002674 
0.018051 0.026317 0.059329 
0.018446 0.029277 0.015123 
-0.021902 -0.006168 0.000000 
0.006130 -0.032000 0.027617 
0.022635 0.026365 0.016471 
-0.029079 -0.018842 0.036684 
-0.010988 0.032988 0.039115 
-0.026240 0.020537 0.004154 
0.011433 0.029503 0.001000 
-0.031060 0.008399 0.016668 
0.030417 0.016374 0.038283 
-0.004633 0.034789 0.050538 
-0.001319 -0.004273 0.000000 
0.032169 -0.013493 0.020946 
0.000871 0.032000 0.040677 
-0.027383 -0.018907 0.036562 
0.002686 -0.035000 0.046133 
0.025238 0.006609 0.000000 
-0.005339 0.000240 0.000000 
-0.032611 0.012167 0.057078 
0.030175 -0.016738 0.045169 
0.032898 0.003149 0.024091 
0.031208 0.015189 0.034219 
-0.021326 0.024005 0.040290 
-0.035000 0.003458 0.000173 
-0.020628 0.011777 0.000000 
-0.027027 -0.020027 0.033566 
0.034210 -0.006371 0.041567 
-0.007018 -0.032000 0.050844 
-0.031039 -0.015923 0.054224 
0.023969 -0.022140 0.001942 
0.027980 -0.021020 0.002574 
0.011887 0.002766 0.000000 
-0.017598 0.029701 0.022796 
0.014070 0.031953 0.050915 
-0.035000 0.003119 0.017283 
0.015935 -0.027810 0.022250 
-0.033226 0.010095 0.030127 
-0.008676 0.033581 0.019316 
-0.004105 0.032000 0.023681 
0.030429 -0.010202 0.014633 
-0.021259 -0.003456 0.000000 
-0.014267 0.028988 0.019667 
-0.003304 0.027751 0.000000 
-0.003520 -0.035000 0.032877 
-0.027910 -0.020910 0.022702 
-0.006627 0.034124 0.045542 
0.014936 -0.031376 0.002115 
-0.008228 -0.032000 0.040438 
0.027719 0.020719 0.035688 
-0.031226 0.007925 0.026353 
-0.008745 0.032000 0.022978 
-0.018993 -0.025652 0.003169 
0.029643 0.012449 0.014992 
-0.027773 0.020773 0.032711 
0.027375 -0.021625 0.003079 
-0.033784 -0.000617 0.058796 
-0.027207 -0.020207 0.017783 
-0.025779 0.020862 0.034430 
-0.033500 0.008998 0.012177 
0.032520 -0.004230 0.034691 
-0.000816 -0.032000 0.044607 
0.028928 -0.019143 0.020355 
-0.010707 -0.033073 0.014255 
-0.023935 0.022164 0.040913 
0.015516 0.030989 0.008998 
0.030947 0.008724 0.038437 
0.033410 0.001687 0.044330 
-0.035000 0.001110 0.059923 
0.027867 -0.021133 0.055534 
-0.033276 -0.009894 0.025339 
0.029548 0.017904 0.024532 
-0.024175 0.017153 0.001000 
0.029747 0.017505 0.026850 
0.029967 0.017066 0.014590 
0.023449 0.000895 0.001000 
-0.019236 0.025481 0.035711 
0.020133 0.014307 0.000000 
-0.026112 -0.022888 0.010316 
0.006073 0.032000 0.057648 
-0.021758 0.023700 0.037589 
0.021051 0.020323 0.000000 
0.027143 -0.021857 0.028505 
-0.013315 -0.029660 0.041437 
0.034282 -0.006154 0.054046 
0.010364 -0.032364 0.002428 
-0.027670 0.021330 0.020804 
-0.016008 0.027759 0.032907 
0.009276 0.032000 0.017120 
0.015302 -0.030460 0.000000 
-0.032463 0.004390 0.023047 
-0.020457 -0.016974 0.001000 
-0.034086 -0.006741 0.061229 
-0.010056 -0.032056 0.023683 
-0.001835 0.032000 0.027377 
-0.031986 -0.005754 0.040019 
0.003976 0.032000 0.010828 
0.024821 0.024179 0.012395 
0.034664 0.005008 0.029529 
0.034961 0.004117 0.040786 
-0.017681 0.029659 0.025604 
-0.027421 0.021579 0.000519 
0.022431 -0.026569 0.025183 
0.008765 0.015604 0.001000 
0.010260 -0.032260 0.031360 
0.004386 0.023602 0.000000 
0.033112 -0.010553 0.028974 
-0.028582 -0.019837 0.021337 
-0.000199 -0.032000 0.009709 
-0.006636 -0.023272 0.001000 
0.033225 -0.010100 0.020265 
-0.033914 -0.000246 0.033570 
-0.014409 0.031598 0.062000 
0.010039 -0.016376 0.000000 
0.013406 -0.032198 0.037337 
-0.010811 -0.032811 0.035513 
0.023530 -0.025470 0.044625 
0.023819 0.020747 0.000000 
0.032102 0.013693 0.045311 
0.026829 -0.022171 0.059609 
0.001031 0.003773 0.001000 
-0.025823 -0.010168 0.000000 
-0.034427 -0.000000 0.007625 
0.027141 0.021859 0.014695 
-0.009961 -0.033260 0.029877 
0.009547 0.033293 0.001000 
0.033111 0.010558 0.056716 
-0.029740 -0.017758 0.047452 
-0.004386 0.023624 0.000000 
-0.024013 0.022108 0.038079 
0.031801 -0.006833 0.001000 
-0.016286 -0.008461 0.001000 
-0.032794 -0.003444 0.035191 
-0.013935 -0.032022 0.058516 
-0.034011 -0.006967 0.005059 
0.023968 0.022140 0.053104 
0.002189 0.014069 0.001000 
0.003719 0.034364 0.000000 
0.005095 -0.032000 0.056772 
-0.023966 -0.022142 0.034542 
-0.022217 0.000041 0.001000 
0.031253 0.015121 0.038215 
0.030262 -0.010681 0.036341 
0.016364 0.027508 0.040800 
-0.023184 -0.025566 0.001000 
0.024877 0.024123 0.013849 
0.001793 -0.027017 0.000000 
-0.032533 -0.012401 0.002611 
-0.015531 0.031222 0.047379 
-0.031980 -0.014040 0.042055 
-0.000648 -0.032000 0.021909 
0.034058 -0.000530 0.000000 
-0.027785 0.020785 0.021348 
-0.029287 -0.013466 0.037104 
-0.023170 0.006028 0.000000 
-0.014926 -0.028523 0.045425 
0.024440 0.021807 0.042236 
0.027594 -0.018303 0.046002 
0.032411 0.012768 0.053780 
0.013129 -0.008367 0.001000 
0.010518 -0.012167 0.001000 
-0.014308 -0.015940 0.000000 
-0.013166 0.029765 0.003609 
0.017250 -0.027021 0.001000 
0.028436 -0.015896 0.047374 
0.030260 0.017480 0.058999 
0.006696 -0.012905 0.000000 
-0.016799 -0.030134 0.022227 
0.006468 -0.021760 0.000000 
-0.015919 0.014868 0.000000 
-0.032176 -0.013471 0.019542 
0.032974 0.007742 0.000000 
-0.021617 0.027383 0.044326 
-0.011123 -0.032959 0.011310 
-0.010955 0.033011 0.020311 
0.020068 0.024893 0.059584 
0.017491 0.008839 0.001000 
0.013441 0.032186 0.058423 
0.005280 -0.019865 0.000000 
-0.029825 -0.017349 0.040397 
0.027293 0.021707 0.022416 
-0.031207 -0.007981 0.017779 
-0.007523 0.030550 0.001000 
-0.032373 0.004649 0.000801 
-0.018779 0.025803 0.024220 
-0.021468 -0.027532 0.023225 
-0.000448 -0.011008 0.001000 
0.019308 0.028846 0.027139 
-0.033802 0.007791 0.048061 
-0.033364 0.009544 0.017140 
-0.028889 0.014601 0.012738 
0.032869 -0.011393 0.020417 
0.019439 -0.022506 0.001000 
-0.024943 0.024057 0.053158 
0.013310 0.029663 0.048190 
0.004829 0.023384 0.001000 
0.004604 -0.034799 0.041303 
-0.030650 0.009572 0.051352 
-0.027490 0.018600 0.049420 
0.002554 -0.035000 0.048768 
-0.014937 -0.031376 0.058112 
-0.021576 0.005329 0.000000 
-0.004456 0.032000 0.039705 
0.012790 0.032403 0.050155 
-0.006027 -0.032000 0.036090 
-0.030725 -0.009357 0.010112 
0.013151 -0.029776 0.047349 
0.028165 0.020671 0.000912 
-0.030507 0.007675 0.000000 
-0.033618 -0.008529 0.050898 
-0.022864 0.026136 0.008700 
0.031736 0.006469 0.049714 
-0.017942 0.004231 0.001000 
-0.032585 0.004043 0.052873 
-0.019720 -0.028640 0.024962 
-0.027743 0.017878 0.030208 
-0.020716 0.028142 0.007026 
-0.019713 0.028643 0.012334 
0.030446 -0.010156 0.052300 
-0.007037 0.032000 0.042333 
0.028060 0.020880 0.016302 
-0.035000 0.002189 0.036340 
-0.027827 -0.020827 0.054315 
-0.025430 -0.021108 0.061395 
-0.033267 0.009933 0.028661 
-0.030092 -0.011165 0.051720 
0.028662 -0.016918 0.000000 
-0.012011 -0.030580 0.034207 
0.032613 0.002053 0.001000 
-0.000577 -0.021604 0.001000 
-0.026433 0.009900 0.000000 
0.029008 0.018983 0.031542 
0.029013 -0.014248 0.053320 
-0.010158 -0.031889 0.054908 
0.010917 -0.033021 0.037618 
0.021193 0.027807 0.057222 
-0.005791 -0.032000 0.051922 
0.024474 -0.010600 0.000000 
-0.023581 0.004884 0.001000 
-0.016935 -0.027105 0.006678 
0.019767 0.028617 0.035997 
0.001868 0.032000 0.044739 
-0.015022 -0.030383 0.000000 
-0.019041 0.029222 0.059103 
-0.015709 0.027970 0.057949 
-0.003875 -0.035000 0.050229 
0.007959 0.033760 0.059020 
0.014947 0.028508 0.039355 
-0.012336 -0.030351 0.044492 
0.028871 -0.019258 0.027122 
-0.028780 0.014914 0.019128 
-0.033863 0.007550 0.025675 
-0.016593 -0.027346 0.018036 
0.010970 -0.031315 0.037310 
0.013946 -0.032018 0.059028 
-0.011700 0.030800 0.060635 
0.028950 0.014427 0.051757 
0.013503 0.032166 0.057677 
0.016790 -0.027207 0.053145 
-0.034540 -0.005381 0.014690 
0.026933 0.020047 0.044555 
0.022055 0.023490 0.022583 
0.015097 -0.031268 0.030432 
0.009082 0.032000 0.005258 
0.022355 -0.023279 0.046013 
-0.031975 -0.005787 0.054926 
-0.010044 0.033239 0.010664 
0.013240 0.004079 0.000000 
0.013995 0.031652 0.000000 
-0.009185 0.026228 0.001000 
0.007140 -0.032000 0.023826 
-0.005785 0.032000 0.049939 
0.010575 -0.031259 0.001000 
0.012634 -0.030141 0.026980 
0.033612 -0.001109 0.049214 
0.034729 0.004709 0.001000 
-0.033114 0.002531 0.023270 
-0.003845 -0.032000 0.022731 
-0.024604 -0.021691 0.051556 
0.023417 -0.025583 0.056811 
-0.030813 -0.009105 0.020159 
0.002591 0.035000 0.011219 
0.033786 0.007854 0.018867 
0.020077 0.028461 0.029237 
0.023094 0.022757 0.050924 
0.016435 -0.027457 0.042852 
0.017654 -0.026597 0.042799 
-0.031992 -0.005736 0.055414 
0.007610 0.032000 0.008641 
0.033183 -0.002334 0.008036 
0.005723 0.032000 0.049657 
0.029308 0.013407 0.038215 
-0.019676 0.028662 0.038693 
-0.009895 -0.016711 0.000000 
0.010192 0.032192 0.000719 
-0.013212 0.029732 0.011867 
0.029873 0.017412 0.044096 
0.009970 -0.033258 0.006729 
0.035000 -0.002766 0.000600 
0.029838 0.017370 0.041904 
-0.004092 -0.034969 0.038228 
-0.020870 0.024327 0.044730 
-0.020578 -0.024533 0.026033 
0.032555 0.012334 0.055721 
0.025287 -0.009721 0.001000 
0.023513 -0.022461 0.037658 
0.015809 0.030158 0.001000 
0.008326 0.032000 0.059277 
-0.015707 0.030862 0.030041 
0.019184 -0.025540 0.001000 
-0.010394 0.033151 0.012630 
-0.007312 0.017211 0.000000 
-0.004194 -0.034935 0.009496 
0.028889 -0.014603 0.058973 
0.010133 0.026436 0.001000 
-0.014539 -0.031641 0.015731 
0.009238 0.033441 0.043526 
-0.031174 0.008075 0.049358 
0.009706 -0.033324 0.001194 
0.002277 -0.032000 0.025988 
-0.003057 0.025550 0.000000 
0.030239 -0.016641 0.010794 
-0.022768 0.004171 0.000000 
0.026565 0.003905 0.000000 
0.001748 -0.035000 0.000745 
0.025445 0.023555 0.058987 
0.002660 0.032000 0.004478 
0.026981 -0.020013 0.039332 
0.016479 -0.030347 0.013048 
0.029626 0.003492 0.000000 
-0.034257 -0.006228 0.048767 
0.007317 0.032555 0.001000 
-0.015285 -0.031144 0.055319 
0.026357 -0.022643 0.047525 
-0.006755 0.032000 0.040775 
0.024528 -0.024472 0.026660 
-0.029113 -0.018774 0.008562 
-0.000975 0.035000 0.046109 
0.029257 0.018485 0.011100 
0.032261 0.013217 0.037097 
-0.032382 -0.012854 0.045725 
-0.012976 0.001752 0.001000 
0.017998 -0.024325 0.001000 
-0.020847 0.014473 0.001000 
-0.031389 0.007459 0.002973 
-0.032462 -0.007876 0.001000 
-0.035000 -0.001127 0.037691 
-0.020505 0.007717 0.001000 
0.001595 0.035000 0.045819 
0.023029 0.025971 0.015841 
0.025277 -0.021216 0.035851 
0.026585 -0.022415 0.039409 
0.033191 -0.002312 0.014734 
0.028472 0.015794 0.024202 
0.022686 0.025238 0.062000 
-0.010974 0.032974 0.021747 
-0.016610 0.027334 0.031159 
-0.028636 0.019728 0.045291 
-0.019106 0.025573 0.004439 
-0.033651 0.008397 0.059405 
-0.012215 0.032595 0.035367 
-0.027726 0.020726 0.026718 
-0.020008 -0.028496 0.048289 
0.033079 -0.010682 0.043679 
0.018200 -0.026212 0.012814 
0.020270 0.024751 0.056226 
-0.027123 -0.020123 0.049862 
-0.021877 0.023616 0.025732 
0.030756 -0.015866 0.022414 
-0.007151 0.000298 0.001000 
-0.004312 -0.032000 0.045998 
-0.031054 0.008418 0.006840 
-0.026430 -0.020403 0.004965 
0.027190 0.021810 0.012039 
-0.015983 0.027777 0.057159 
-0.033470 0.009120 0.051631 
0.027392 0.020392 0.052817 
0.033740 0.008040 0.018927 
0.015981 -0.027778 0.051558 
0.025978 0.016035 0.001000 
-0.019651 0.027709 0.062000 
-0.027893 -0.020893 0.025642 
-0.012270 -0.032577 0.036515 
-0.026404 -0.019289 0.001000 
0.032528 0.004206 0.055107 
0.017551 0.029724 0.046503 
-0.029692 0.017615 0.057871 
0.020546 -0.028227 0.037645 
0.019045 -0.011645 0.001000 
-0.033407 0.009372 0.057579 
0.016478 -0.030348 0.011229 
0.017542 0.026676 0.027854 
0.001805 -0.032000 0.045496 
-0.029535 -0.012757 0.019342 
0.025188 -0.023812 0.033084 
-0.018801 0.025787 0.012857 
-0.030358 -0.010406 0.044422 
0.029146 -0.013870 0.034046 
0.000343 -0.032000 0.050040 
0.030164 -0.016754 0.046956 
-0.028655 -0.017477 0.001000 
-0.030867 -0.008951 0.013572 
0.005236 0.032000 0.003078 
0.028848 0.014721 0.038504 
-0.020912 -0.024297 0.059819 
0.029220 -0.018560 0.059925 
0.032928 -0.011217 0.009668 
-0.017882 -0.026436 0.012706 
-0.034076 0.006773 0.033883 
-0.015994 -0.030670 0.046388 
0.004855 0.018963 0.000000 
0.020814 0.024366 0.004262 
0.031031 0.009461 0.000000 
0.014460 0.002759 0.001000 
0.031226 0.015549 0.048027 
-0.018749 -0.029126 0.058133 
-0.017568 -0.026658 0.017993 
-0.013874 0.029266 0.049071 
-0.027726 -0.017927 0.059636 
0.010045 0.031968 0.036650 
0.021075 -0.027925 0.035248 
0.001170 -0.034366 0.001000 
0.024898 -0.021484 0.018787 
0.023139 0.022725 0.036264 
0.022559 -0.023135 0.037104 
-0.003144 0.032000 0.024070 
-0.016796 0.008009 0.001000 
-0.006398 0.032000 0.052814 
-0.025968 -0.023032 0.003562 
0.019315 -0.025425 0.006310 
0.017025 0.018447 0.001000 
0.021840 -0.023643 0.034705 
-0.028386 -0.016040 0.031184 
-0.021704 -0.027296 0.040572 
-0.016908 0.004170 0.000000 
0.008076 0.017526 0.001000 
0.033579 -0.008684 0.026247 
0.010744 -0.032744 0.005806 
0.015314 -0.028249 0.042542 
-0.009011 -0.032000 0.001339 
0.025960 -0.023040 0.059342 
0.026664 0.020237 0.026973 
-0.030240 -0.010742 0.043474 
0.014495 0.028827 0.017351 
0.008990 0.014365 0.001000 
-0.027698 -0.018006 0.026121 
0.034785 0.004644 0.007592 
-0.010004 -0.033249 0.026780 
0.029243 0.013591 0.040668 
-0.004649 -0.034784 0.022309 
-0.029796 -0.012011 0.030429 
0.026452 0.020387 0.040123 
0.011991 0.032670 0.009579 
-0.031926 -0.014111 0.035835 
-0.009857 -0.033286 0.032064 
-0.026429 0.022571 0.058179 
0.014424 -0.028877 0.058323 
-0.032392 0.007561 0.001000 
-0.012678 -0.032441 0.002253 
0.026885 -0.020081 0.046823 
-0.021129 0.024144 0.020699 
-0.022183 -0.005493 0.001000 
-0.014195 -0.031870 0.004282 
0.005634 0.032000 0.008653 
0.020063 -0.024897 0.051380 
0.010758 -0.019106 0.000000 
0.021486 0.027514 0.026294 
0.028647 -0.019705 0.054117 
-0.023203 0.025797 0.006637 
-0.027842 -0.021158 0.033038 
-0.020187 -0.024810 0.030316 
-0.005106 0.033520 0.001000 
-0.033121 -0.010517 0.029676 
0.033133 0.002479 0.048451 
-0.020511 -0.009633 0.000000 
0.000432 0.033744 0.000000 
0.026396 0.020426 0.012779 
0.001963 0.035000 0.033284 
-0.026205 0.022795 0.041252 
0.031001 -0.008567 0.043872 
