
# .PCD v.6 - Point Cloud Data file format
FIELDS x y z 
SIZE 4 4 4 
TYPE F F F 
COUNT 1 1 1 
WIDTH 1647
HEIGHT 1
VIEWPOINT 0.000000 0.000000 0.000000 1.000000 0.000000 0.000000 0.00000
POINTS 1647
DATA ascii
0.023453 0.022741 0.041222 
0.027805 -0.019537 0.014950 
-0.017917 0.023914 0.003448 
0.035896 -0.006259 0.056225 
-0.004211 0.032129 0.000516 
0.028479 -0.021907 0.045122 
0.001783 0.036181 0.046516 
0.029613 -0.016959 0.057161 
-0.028991 0.015728 0.043336 
0.026413 -0.024092 0.067000 
0.026145 0.025705 0.067000 
0.030049 -0.014217 0.050764 
-0.024464 -0.021239 0.000000 
0.031220 0.002951 0.016134 
0.030524 0.005079 0.016303 
-0.028403 0.020416 0.040997 
-0.017173 0.029581 0.017747 
0.004823 0.030866 0.014498 
0.010029 0.031092 0.018292 
0.024613 -0.026541 0.045850 
-0.030655 0.008267 0.032296 
0.028952 -0.022173 0.056062 
0.010943 -0.031507 0.031561 
0.034462 -0.000000 0.035077 
-0.016478 -0.018989 0.000000 
0.010184 -0.026703 0.000000 
-0.027953 0.020036 0.025551 
-0.003872 -0.008064 0.000000 
-0.030175 -0.019079 0.040738 
-0.028665 -0.010004 0.013395 
-0.036174 0.006667 0.063815 
0.033968 -0.000000 0.013980 
0.030961 -0.007062 0.000000 
-0.010228 0.033322 0.024582 
0.033740 0.011005 0.036825 
0.000185 0.032785 0.046641 
0.026566 0.017211 0.000000 
0.014313 0.032226 0.027207 
-0.005074 -0.035523 0.039626 
-0.034840 0.002342 0.061911 
0.029435 0.013373 0.000000 
-0.016740 -0.028243 0.003536 
0.007342 -0.003059 0.001000 
0.003177 0.036145 0.045614 
0.000022 -0.014072 0.000000 
0.005626 -0.032795 0.005727 
0.034989 0.001328 0.059379 
-0.027067 -0.020229 0.011083 
0.029707 -0.011547 0.000000 
0.015739 -0.029545 0.006580 
-0.001631 -0.031736 0.029084 
0.000304 0.032495 0.041791 
-0.002472 0.034196 0.067000 
0.014346 -0.031610 0.019773 
0.023334 0.027612 0.048320 
-0.025801 -0.022242 0.052764 
-0.028923 0.014490 0.001000 
-0.032236 0.003221 0.030952 
0.026115 -0.019115 0.002340 
0.027685 0.019854 0.019321 
0.035172 0.000404 0.057716 
0.019584 0.029501 0.067000 
0.033088 0.007978 0.013792 
-0.030969 0.001167 0.000000 
0.031985 -0.000000 0.007122 
-0.011533 0.033226 0.062146 
0.031492 0.005334 0.030415 
0.016848 0.027293 0.038682 
0.017150 -0.030667 0.031196 
-0.029683 0.009530 0.024915 
-0.030382 0.019643 0.053726 
-0.009188 -0.033552 0.023983 
0.027987 0.005618 0.001000 
0.031449 -0.002252 0.016069 
-0.020630 0.021837 0.004765 
0.034507 -0.003805 0.063985 
-0.021314 0.023726 0.034858 
-0.021646 0.000420 0.000000 
0.011947 0.028519 0.001065 
-0.011771 -0.033454 0.034934 
0.010907 -0.029864 0.001000 
0.031954 -0.008237 0.049579 
-0.005764 -0.031914 0.032056 
0.010709 0.031304 0.003850 
-0.019553 0.023014 0.009165 
0.010764 -0.033525 0.035808 
0.035489 0.002157 0.031772 
0.032299 -0.000126 0.017974 
-0.029437 -0.019321 0.033820 
0.020245 -0.029833 0.046946 
0.002054 0.032924 0.048974 
0.008094 0.032892 0.048442 
0.029810 0.007329 0.016788 
-0.001933 0.030486 0.008147 
0.036079 0.004267 0.045633 
0.029049 -0.019315 0.060127 
0.007747 -0.032423 0.040587 
0.020794 0.019834 0.000000 
-0.024535 0.013934 0.000000 
0.033458 -0.000000 0.009030 
0.015513 0.032250 0.037105 
0.001903 0.036318 0.049939 
0.009156 -0.007419 0.001000 
0.029218 0.018007 0.056548 
0.003712 0.036895 0.064380 
0.016469 -0.024922 0.001354 
0.034653 -0.000779 0.017145 
-0.028498 -0.020623 0.058409 
-0.008788 -0.007482 0.000000 
0.029361 0.018360 0.060044 
0.031634 0.008098 0.000015 
0.014388 0.029077 0.000013 
-0.027302 0.009332 0.000000 
0.030610 -0.003483 0.010328 
0.020035 0.024367 0.031640 
-0.003769 -0.034546 0.015648 
0.008185 -0.017908 0.001000 
0.016187 -0.030883 0.026089 
-0.032681 -0.001921 0.002570 
0.028570 -0.020570 0.039315 
0.027328 -0.016335 0.023761 
0.011308 0.004695 0.000000 
0.024691 -0.026815 0.054649 
0.025551 0.018459 0.006166 
0.029189 -0.019942 0.064814 
-0.026900 -0.002438 0.001000 
-0.028778 0.008486 0.008136 
-0.013247 -0.027405 0.000028 
0.009328 0.002433 0.001000 
-0.032170 -0.007738 0.050236 
-0.008976 0.021110 0.000000 
-0.012162 -0.009712 0.000000 
0.017531 -0.024055 0.001106 
0.026881 -0.018925 0.029333 
-0.012185 -0.010594 0.001000 
0.004867 0.015166 0.001000 
-0.034583 0.002233 0.057983 
-0.013673 0.004780 0.000000 
-0.006969 0.026165 0.000000 
0.028924 -0.011967 0.025639 
-0.020757 0.021216 0.000000 
-0.028919 -0.020939 0.053950 
0.035029 -0.010592 0.065001 
-0.026696 0.023785 0.036817 
-0.008950 0.033642 0.024582 
0.022512 -0.029341 0.065162 
0.011768 -0.034050 0.048049 
-0.028213 -0.020284 0.039581 
-0.022368 -0.002965 0.000000 
-0.030311 0.007861 0.025886 
0.027005 -0.019359 0.014474 
-0.029835 -0.018742 0.033959 
0.001298 0.032573 0.043105 
-0.027356 0.005644 0.000000 
0.003465 -0.036709 0.059737 
-0.003883 -0.003768 0.000000 
-0.017233 -0.029283 0.063945 
-0.006730 0.009085 0.000000 
-0.013641 0.033534 0.046849 
-0.030035 0.009722 0.030499 
0.004516 0.033132 0.052463 
0.015647 -0.026762 0.017858 
-0.014343 -0.030787 0.008218 
-0.012971 0.031177 0.049603 
0.009684 -0.000955 0.000000 
-0.010626 -0.033173 0.041915 
-0.007172 -0.033535 0.059208 
0.008548 -0.032497 0.041824 
-0.021050 -0.026070 0.057461 
0.015290 -0.032346 0.036469 
0.017541 -0.029919 0.025356 
-0.028401 -0.022671 0.049721 
0.028651 -0.009245 0.009820 
0.034880 -0.001407 0.058271 
-0.002762 -0.035336 0.028711 
0.007529 -0.034431 0.033263 
-0.032067 -0.009101 0.006141 
0.013400 0.011285 0.000000 
0.030993 0.015880 0.024957 
-0.011667 0.033974 0.045528 
0.032967 0.011880 0.027207 
-0.036310 -0.003788 0.067000 
-0.034482 0.003149 0.014751 
0.018554 -0.028183 0.062891 
0.012391 0.004290 0.000000 
0.001899 0.033330 0.005319 
0.008343 -0.032118 0.035471 
0.009435 0.034740 0.048977 
0.030452 0.014061 0.055463 
-0.014508 -0.034073 0.065753 
-0.008125 -0.032993 0.013154 
0.022421 -0.025272 0.007454 
0.033238 0.007881 0.015450 
0.033307 0.005614 0.055994 
-0.024854 0.024454 0.025081 
-0.008543 0.009699 0.000000 
-0.034181 -0.004062 0.010817 
-0.005062 0.028572 0.000000 
0.027096 0.016356 0.020742 
0.023349 0.025248 0.016359 
0.000626 0.033636 0.006542 
0.020338 0.024271 0.000000 
-0.017629 0.029107 0.015363 
-0.028233 0.020690 0.057172 
-0.017692 -0.029615 0.022913 
0.022765 0.026696 0.028474 
-0.000582 0.033799 0.063626 
-0.034452 0.001577 0.014325 
-0.014727 0.027829 0.022484 
0.035598 0.007252 0.054793 
0.016137 -0.029336 0.056151 
-0.034069 -0.013424 0.058874 
0.003186 -0.032107 0.035291 
-0.033116 0.012628 0.034365 
0.006221 -0.031306 0.021879 
0.006892 0.013363 0.001000 
-0.029803 0.010899 0.001000 
0.028110 0.022476 0.043413 
-0.027927 0.016625 0.033082 
0.029280 0.021280 0.064452 
-0.030563 -0.009102 0.034801 
-0.028147 0.016086 0.000979 
-0.000334 -0.036344 0.050595 
-0.033499 0.003838 0.050638 
0.032866 -0.004888 0.046843 
-0.016669 0.024839 0.002432 
-0.017005 0.031382 0.038617 
0.031448 0.011905 0.059174 
0.010198 0.030857 0.013522 
0.033255 0.000734 0.033499 
-0.033234 0.004472 0.004935 
0.026234 0.014033 0.001000 
0.006686 0.032902 0.007214 
-0.006196 0.032370 0.039695 
0.008407 0.031738 0.001657 
0.002934 0.033622 0.060676 
0.001378 -0.033352 0.056153 
-0.002135 0.033282 0.054973 
-0.013232 0.018199 0.000000 
-0.031290 -0.012034 0.057636 
0.015180 -0.030693 0.014716 
0.034127 -0.008158 0.030336 
0.030350 -0.003707 0.007855 
-0.034612 -0.000000 0.036507 
-0.024511 0.019183 0.009442 
0.036610 -0.005429 0.066352 
0.017308 0.029335 0.065762 
-0.023166 0.002598 0.001000 
0.029266 0.014393 0.041054 
-0.006821 0.002102 0.000000 
-0.024227 -0.010057 0.001000 
-0.005027 0.015293 0.000000 
-0.032061 -0.016655 0.046100 
-0.002814 0.032659 0.002045 
-0.022876 -0.027983 0.050769 
-0.015995 -0.025698 0.005339 
-0.026560 0.019326 0.027906 
-0.010399 -0.032538 0.016716 
-0.022364 0.020919 0.011300 
-0.011751 -0.030534 0.025515 
-0.017032 0.025847 0.000000 
-0.032602 0.005271 0.002408 
-0.004486 -0.035241 0.030058 
-0.017859 0.030877 0.039405 
-0.014446 -0.030365 0.050728 
0.020576 -0.030518 0.060536 
0.024588 0.000381 0.000000 
0.032035 -0.000000 0.001260 
-0.029967 -0.018302 0.032016 
-0.012698 -0.020907 0.000000 
-0.022245 -0.027934 0.039166 
-0.010969 -0.034011 0.065158 
0.014074 -0.033735 0.054592 
-0.002684 0.025201 0.000000 
0.028351 0.011813 0.000000 
0.012704 -0.033574 0.042008 
-0.002135 -0.035606 0.034122 
-0.032938 -0.000000 0.004786 
0.021594 0.026015 0.063198 
0.027211 0.024525 0.060420 
0.017162 0.025132 0.012029 
0.029075 -0.020891 0.042061 
0.000665 0.025384 0.000000 
-0.006588 0.035263 0.045156 
0.005831 -0.035412 0.042569 
-0.032116 -0.016255 0.041436 
0.031327 -0.014163 0.014095 
-0.016313 0.030417 0.021425 
-0.004221 0.003210 0.000000 
-0.030314 0.019930 0.054988 
0.025698 0.018621 0.005159 
0.035707 -0.005686 0.067000 
-0.026738 -0.022137 0.023947 
-0.033457 0.009047 0.021565 
-0.001410 0.003731 0.001000 
-0.036130 -0.000284 0.045239 
-0.023625 -0.023204 0.044350 
0.029551 0.017983 0.060908 
0.029771 -0.005522 0.000000 
-0.022113 0.018637 0.000000 
0.019778 -0.025830 0.046183 
0.033754 -0.002757 0.049222 
0.018508 -0.004053 0.000000 
0.008770 -0.033447 0.020758 
-0.033142 -0.006036 0.055672 
0.023178 0.026262 0.067000 
-0.031147 0.017504 0.039789 
0.031354 -0.000000 0.000226 
-0.031953 0.014898 0.028619 
-0.031940 0.011534 0.012532 
-0.013972 0.032463 0.028800 
0.016407 -0.030278 0.020367 
-0.031201 -0.017479 0.040243 
-0.034023 -0.005043 0.013181 
0.024399 0.001941 0.001000 
0.007566 -0.035272 0.050644 
0.031230 -0.006223 0.030874 
0.013320 -0.027736 0.005470 
0.029404 0.010048 0.023501 
-0.027307 0.012736 0.007400 
-0.000703 0.030067 0.001123 
0.020008 -0.025492 0.044221 
0.035139 0.002687 0.024773 
-0.020183 -0.028455 0.028929 
0.032297 0.006740 0.047480 
-0.009752 0.023198 0.000000 
0.009935 -0.027757 0.000000 
-0.027421 0.019786 0.040419 
0.011573 -0.030326 0.022115 
-0.016389 0.016758 0.001000 
-0.004054 -0.033132 0.052461 
0.033881 0.011291 0.041257 
-0.028865 -0.018803 0.022801 
0.032278 0.017060 0.067000 
-0.021963 -0.012732 0.000000 
0.007377 0.033356 0.056210 
-0.031022 -0.003544 0.016118 
-0.012536 0.031557 0.050046 
0.010347 0.032303 0.026930 
-0.027859 0.011157 0.000000 
-0.028016 0.020590 0.054250 
-0.031790 -0.000933 0.014751 
0.014137 -0.031209 0.012197 
0.012259 -0.029961 0.024683 
-0.016154 -0.028777 0.045706 
-0.009915 0.006350 0.000000 
-0.007728 0.021689 0.001000 
-0.006805 -0.034117 0.067000 
0.017294 -0.026078 0.026707 
-0.027757 0.018562 0.039454 
-0.017226 -0.028865 0.008228 
-0.014621 -0.028581 0.027217 
-0.008638 -0.031933 0.003835 
-0.029191 0.007479 0.000000 
0.010454 -0.033773 0.034735 
-0.000812 0.036711 0.059765 
-0.024565 0.018755 0.005010 
0.031097 0.009852 0.045308 
0.035991 -0.000232 0.041829 
0.008467 -0.025184 0.001000 
-0.017621 0.026083 0.030434 
-0.022687 0.024519 0.004823 
0.017918 0.031204 0.045730 
0.036144 -0.003046 0.045599 
-0.020849 -0.030530 0.067000 
-0.007510 0.034268 0.029920 
-0.024954 0.023624 0.016093 
-0.030479 0.010618 0.040452 
-0.026251 -0.012051 0.001000 
0.011549 0.034744 0.064042 
-0.010571 0.031208 0.003184 
-0.010937 0.031498 0.031383 
-0.019430 -0.022976 0.005619 
0.031225 0.004546 0.023320 
-0.036367 0.004832 0.058113 
-0.033968 0.002783 0.052196 
0.003707 -0.013359 0.001000 
-0.001552 0.015478 0.000000 
0.003479 0.009185 0.000000 
-0.020993 -0.027392 0.022645 
0.019825 0.025863 0.001983 
0.013266 -0.028857 0.020516 
0.033904 -0.005574 0.014002 
-0.002562 -0.030896 0.015004 
0.026386 0.014125 0.000000 
-0.011192 -0.017951 0.000000 
0.021774 0.022729 0.027289 
0.022639 0.021927 0.025279 
-0.000659 0.022315 0.001000 
0.029926 -0.003575 0.001577 
0.001755 -0.035198 0.025964 
-0.011252 0.033552 0.034297 
0.029655 0.013754 0.043409 
0.006217 0.030935 0.015656 
-0.026766 -0.014439 0.001000 
-0.015120 0.027741 0.025639 
-0.015931 0.028248 0.041766 
0.021170 0.021099 0.001000 
-0.009669 -0.035079 0.057883 
0.032560 0.008960 0.060930 
0.026649 0.020860 0.046091 
0.023012 -0.024248 0.054750 
-0.026648 0.016043 0.013345 
0.015441 -0.017800 0.000000 
0.028867 -0.018268 0.053014 
-0.020022 0.024327 0.031083 
-0.007178 -0.036146 0.065820 
-0.001701 0.036464 0.053591 
0.013838 -0.028737 0.025231 
-0.011472 -0.028485 0.000000 
-0.011775 -0.024529 0.000000 
0.025441 0.016907 0.001022 
0.008602 -0.031750 0.029317 
-0.029664 0.015621 0.006775 
0.031005 -0.014808 0.015619 
-0.032855 0.006150 0.052327 
0.007956 0.033957 0.066282 
0.022676 0.027435 0.036630 
0.019957 -0.029373 0.038133 
0.021581 -0.025121 0.052921 
0.036462 -0.001634 0.053541 
-0.025551 0.025049 0.067000 
-0.024001 0.003475 0.000000 
-0.009072 0.034269 0.037748 
-0.016632 0.019231 0.000000 
0.028746 0.018663 0.053164 
0.027927 -0.010826 0.007182 
-0.020102 0.023061 0.015945 
-0.001867 0.034659 0.017231 
0.034933 0.007423 0.042979 
0.032326 0.013217 0.023305 
-0.009766 -0.006157 0.001000 
0.034034 -0.012667 0.053269 
0.004935 0.005370 0.001000 
-0.003589 0.014823 0.000000 
-0.010642 -0.006292 0.000000 
-0.004554 0.033833 0.008250 
0.003279 0.034344 0.012812 
-0.035126 -0.007593 0.048073 
-0.036598 -0.003567 0.056941 
0.024185 -0.019769 0.013430 
0.011924 0.030613 0.030049 
-0.010138 -0.031675 0.028061 
-0.008230 -0.034794 0.044025 
-0.020854 -0.022676 0.014689 
0.029236 0.014615 0.041643 
0.028478 -0.008011 0.001991 
0.019708 -0.024928 0.035338 
-0.030287 0.011603 0.000000 
0.024025 0.024471 0.065607 
-0.018006 0.028379 0.008696 
0.000749 0.031482 0.024826 
-0.000207 0.031087 0.018203 
0.036540 -0.004708 0.061343 
-0.032315 -0.007672 0.004308 
0.025940 -0.016001 0.003674 
-0.024504 0.005693 0.000000 
0.010974 0.034833 0.065481 
0.016344 0.027160 0.031198 
-0.032200 -0.013576 0.023167 
0.029392 -0.019781 0.066814 
0.003000 0.008900 0.000000 
0.002922 -0.035376 0.067000 
0.010488 0.033716 0.033764 
0.007588 0.001316 0.000000 
-0.034174 -0.009192 0.036430 
0.033885 0.007567 0.022535 
-0.027649 0.011639 0.007089 
0.036955 0.000006 0.065887 
-0.010200 0.032412 0.018310 
-0.032942 0.005485 0.050526 
-0.013694 -0.030761 0.048659 
-0.030276 0.011298 0.000000 
-0.016932 0.024969 0.007184 
0.015440 -0.028374 0.000593 
-0.032495 0.007801 0.006092 
-0.031427 -0.016528 0.035341 
-0.017180 0.007541 0.001000 
0.010869 0.032993 0.022944 
-0.025320 0.024721 0.032405 
-0.024611 -0.027225 0.067000 
0.021813 -0.003860 0.000000 
0.011006 0.032661 0.048369 
-0.035373 -0.001346 0.029464 
-0.017792 0.031197 0.042869 
-0.028491 0.011854 0.019329 
0.029083 -0.011081 0.023804 
-0.032100 0.007589 0.048643 
-0.015346 -0.021254 0.000000 
0.000932 -0.003388 0.000000 
0.029662 0.007091 0.001000 
-0.004713 0.034141 0.067000 
0.010626 0.032758 0.042937 
-0.030549 -0.020536 0.060595 
-0.030613 0.009584 0.037620 
-0.003700 -0.035821 0.038413 
-0.013662 0.030453 0.047225 
-0.010246 -0.030916 0.000000 
-0.010639 0.032978 0.042831 
0.014353 -0.027915 0.000000 
0.004967 0.030545 0.009126 
-0.031434 -0.009771 0.049461 
-0.029951 0.015915 0.011189 
0.006297 0.033761 0.063003 
-0.029884 -0.006269 0.013048 
-0.006962 0.001027 0.000000 
0.005723 0.033474 0.008681 
-0.029278 0.022387 0.060042 
-0.019217 -0.024200 0.017011 
0.029543 0.018227 0.026338 
-0.007455 -0.030550 0.001000 
0.010231 -0.029820 0.000071 
-0.014163 -0.026788 0.001279 
-0.011480 0.033023 0.024856 
-0.012627 0.033838 0.048107 
0.025118 0.023200 0.012447 
0.010284 0.031144 0.018995 
-0.014172 -0.033996 0.061719 
0.009198 -0.028581 0.000000 
0.006157 0.007816 0.000000 
0.000392 -0.033897 0.065275 
-0.028968 0.009691 0.016060 
-0.028630 -0.022161 0.048062 
0.030784 0.015158 0.015787 
-0.034682 0.010014 0.052884 
-0.028443 0.020536 0.048252 
-0.024248 0.021624 0.035059 
-0.028251 -0.020262 0.034591 
0.026329 -0.022141 0.018597 
0.004937 0.032560 0.004133 
0.028079 0.020266 0.038245 
-0.024863 -0.002654 0.000000 
-0.001452 -0.032992 0.050121 
0.028286 0.021200 0.035032 
-0.030809 -0.013644 0.058379 
-0.011609 0.033492 0.066220 
-0.028978 0.020978 0.042673 
0.033751 0.011323 0.039184 
-0.034042 -0.004807 0.012357 
0.026689 0.013529 0.002671 
-0.004397 0.033155 0.052854 
0.006457 -0.004723 0.001000 
0.033996 -0.006506 0.019636 
-0.010656 0.033168 0.043958 
-0.027741 -0.018621 0.039510 
0.005894 -0.036014 0.067000 
-0.020884 0.011116 0.001000 
0.010811 -0.003133 0.001000 
-0.033183 -0.000000 0.004888 
0.028650 -0.020738 0.056621 
0.011018 0.032231 0.013440 
0.031545 0.002351 0.017798 
-0.032982 0.013402 0.035325 
-0.035171 0.000454 0.057916 
0.025668 -0.010828 0.001000 
-0.026432 -0.019698 0.030727 
0.034813 -0.000000 0.045484 
-0.004092 -0.036118 0.045728 
-0.028345 -0.015753 0.034792 
0.022357 -0.020265 0.002098 
0.017031 -0.029658 0.017495 
-0.007230 0.006114 0.001000 
-0.023399 0.024701 0.009397 
0.026651 0.019858 0.034708 
-0.033029 0.004626 0.047845 
0.015596 -0.027246 0.024044 
-0.033652 -0.000000 0.019208 
-0.001651 0.033482 0.058321 
-0.026677 0.022203 0.023744 
0.029120 -0.009181 0.015813 
-0.025215 0.014688 0.000000 
-0.015190 0.027921 0.028930 
0.016561 0.020412 0.001000 
0.000675 -0.030480 0.008044 
-0.028964 -0.012377 0.027999 
-0.010409 0.031635 0.020279 
0.013943 -0.033576 0.049802 
-0.003646 -0.036348 0.050694 
0.021986 0.023196 0.034354 
-0.027860 -0.020039 0.035901 
-0.024951 0.024175 0.023255 
0.000204 -0.036471 0.053776 
0.018038 0.029956 0.067000 
-0.021635 0.020891 0.002776 
0.016539 -0.032928 0.059432 
-0.015093 -0.033887 0.065708 
-0.024743 -0.022628 0.047783 
-0.033373 0.011216 0.030894 
-0.034181 0.008992 0.067000 
0.032001 -0.008563 0.051658 
0.004650 -0.033285 0.055029 
0.030879 -0.015607 0.021305 
0.009218 -0.034927 0.054029 
-0.032340 0.011061 0.015286 
0.020593 0.025066 0.000614 
0.018929 0.029748 0.034399 
0.021939 0.028430 0.044108 
-0.031077 0.003928 0.018584 
0.025923 -0.024226 0.067000 
-0.034035 -0.011964 0.048912 
0.028269 0.014523 0.028280 
0.036255 0.004597 0.052105 
0.027689 0.016702 0.030236 
0.027210 0.019222 0.035076 
-0.007179 -0.004764 0.000000 
-0.027251 0.019794 0.030601 
-0.012398 0.018645 0.001000 
-0.012895 -0.028030 0.003739 
-0.010874 0.034481 0.056399 
-0.032990 0.013500 0.035833 
-0.009491 0.025464 0.001000 
0.026252 -0.024891 0.067000 
-0.016497 -0.027795 0.035287 
0.031883 -0.000000 0.004281 
0.025372 -0.019873 0.024366 
-0.013913 0.031807 0.065988 
-0.018077 0.024094 0.007761 
0.005165 0.032751 0.046074 
0.011664 -0.033107 0.028557 
-0.028848 -0.020848 0.050272 
0.024241 -0.011765 0.000000 
-0.031120 -0.013899 0.009211 
-0.007821 -0.035541 0.056930 
-0.016900 0.029475 0.013716 
-0.020204 -0.029642 0.043670 
0.007031 0.032097 0.035118 
0.027807 0.023800 0.057174 
0.032044 0.017904 0.058597 
0.032960 0.015117 0.042962 
-0.019001 0.031573 0.060606 
-0.016220 0.028525 0.047610 
0.021906 -0.028431 0.043305 
0.021279 0.023698 0.000000 
-0.004901 -0.031039 0.017404 
0.009357 0.021082 0.001000 
0.036331 -0.006116 0.064205 
-0.026294 -0.018479 0.019486 
0.025314 -0.025373 0.038868 
0.010464 -0.021007 0.000000 
0.035169 -0.006325 0.040870 
-0.021409 -0.029471 0.053157 
-0.012996 0.030508 0.040545 
-0.010575 -0.012819 0.001000 
0.011963 -0.033512 0.038043 
-0.010372 -0.034315 0.045154 
0.024313 -0.021090 0.000000 
-0.014509 0.025414 0.001000 
0.033596 0.003097 0.048617 
0.016275 -0.031347 0.032365 
0.018314 0.002438 0.000000 
-0.019732 -0.008469 0.000000 
-0.030515 -0.019035 0.045075 
0.010429 0.032747 0.032888 
0.010753 -0.033012 0.043955 
0.031914 0.016513 0.041065 
0.033915 0.004467 0.059018 
-0.030142 -0.015623 0.058289 
0.016281 0.016492 0.001000 
-0.031562 0.012457 0.010460 
-0.010501 -0.025541 0.000000 
0.027655 -0.008433 0.000000 
-0.020744 -0.029605 0.048505 
-0.027454 -0.024524 0.066461 
-0.035621 -0.009092 0.066724 
0.003287 0.034965 0.021512 
0.016969 -0.027354 0.000187 
0.010070 0.030374 0.001000 
0.008474 -0.031318 0.022081 
0.002385 -0.032621 0.001428 
0.035094 0.006043 0.037504 
0.029238 0.005941 0.002922 
0.030606 -0.009973 0.039271 
-0.006258 0.035968 0.057641 
0.022005 0.019385 0.000000 
0.027527 0.024099 0.057640 
-0.004328 -0.023970 0.001000 
-0.030926 -0.020260 0.063486 
-0.016542 0.027852 0.042591 
-0.029819 -0.018392 0.066328 
0.026886 -0.021403 0.019494 
-0.031157 0.006300 0.001000 
-0.032776 0.004506 0.043931 
-0.029950 -0.007228 0.018208 
-0.030495 -0.004914 0.000000 
-0.015369 -0.028753 0.037326 
0.023247 0.021143 0.021358 
0.028562 -0.018444 0.049712 
0.031395 0.004177 0.023945 
0.001343 -0.007472 0.000000 
0.001022 -0.009026 0.000000 
-0.030220 0.004901 0.000000 
-0.011629 0.032324 0.050623 
-0.002857 -0.024913 0.000000 
0.029493 -0.015983 0.051194 
0.034569 0.002336 0.058257 
-0.005713 -0.009622 0.001000 
-0.024729 -0.027138 0.065328 
-0.007900 -0.018476 0.001000 
0.025711 -0.005842 0.001000 
-0.033712 -0.011336 0.038475 
0.031362 0.011823 0.057657 
-0.016534 0.031077 0.031197 
-0.013981 -0.033296 0.043023 
-0.010072 0.033955 0.066241 
-0.005777 0.035777 0.051220 
-0.003491 0.009167 0.000000 
0.016533 0.029088 0.056581 
-0.005804 -0.016011 0.001000 
-0.035146 -0.001650 0.062930 
0.023737 0.024338 0.061729 
-0.018197 -0.028489 0.012015 
0.033725 0.013982 0.053759 
-0.025969 -0.018723 0.015858 
-0.015953 0.025684 0.006228 
-0.024532 -0.023578 0.009545 
0.012475 -0.009063 0.000000 
0.020020 0.025477 0.044150 
-0.034198 0.002424 0.010769 
-0.032439 0.012464 0.067000 
-0.028654 -0.017616 0.008903 
0.034176 -0.010476 0.043122 
-0.005439 -0.025307 0.000000 
-0.016409 0.032680 0.051611 
-0.000779 0.036583 0.056564 
0.033805 -0.000000 0.012928 
-0.010899 -0.033695 0.060215 
-0.032191 0.003607 0.032066 
-0.028328 0.018921 0.048715 
0.009301 -0.033488 0.023265 
-0.029181 -0.022026 0.054969 
0.014827 -0.027425 0.001000 
-0.015910 0.030004 0.011881 
0.025470 0.020516 0.032495 
0.027383 -0.020596 0.018930 
-0.018652 -0.031206 0.055304 
0.033134 -0.007153 0.010595 
-0.015753 0.027848 0.000000 
-0.024418 -0.017508 0.000000 
-0.035629 -0.000000 0.037304 
-0.025176 0.022838 0.008955 
0.026948 0.020376 0.010774 
0.033775 0.010646 0.035738 
-0.034798 -0.003411 0.019170 
-0.023980 -0.025660 0.028400 
-0.027161 0.017233 0.025534 
-0.025335 0.018264 0.004762 
-0.028023 0.020345 0.044923 
0.031820 -0.010194 0.056518 
-0.028217 0.021803 0.039037 
0.031410 0.013321 0.064991 
-0.033127 0.006402 0.057097 
-0.013088 -0.028298 0.008305 
-0.011093 -0.033543 0.061467 
-0.033611 -0.000000 0.021282 
-0.031967 -0.002985 0.026293 
-0.029490 -0.010189 0.001000 
-0.025018 -0.020765 0.030034 
-0.012602 0.001251 0.000000 
0.008423 -0.019007 0.000000 
-0.027707 -0.007796 0.000000 
0.029884 0.010786 0.033219 
0.030453 -0.014541 0.057620 
-0.012183 -0.029008 0.008286 
0.007974 -0.030307 0.005144 
0.011655 0.029673 0.013918 
0.007376 -0.033808 0.063790 
-0.023228 -0.004853 0.001000 
0.035780 0.002296 0.037608 
0.001632 -0.036700 0.059495 
0.020542 0.022367 0.011178 
-0.027850 0.021242 0.030132 
-0.014652 0.006823 0.000000 
-0.018712 0.026140 0.040944 
-0.030401 0.015993 0.018213 
-0.000892 -0.030125 0.002092 
0.005857 0.033482 0.058320 
-0.001164 0.036344 0.050595 
-0.015503 -0.028008 0.028128 
0.031476 -0.013953 0.067000 
-0.026743 0.013585 0.003632 
-0.036465 -0.000000 0.055835 
0.004551 -0.032291 0.002327 
0.011458 -0.031722 0.040319 
0.010018 -0.030961 0.001206 
-0.029944 0.016934 0.020600 
0.017164 0.032392 0.062870 
0.016613 0.028840 0.054407 
0.017618 -0.028379 0.057431 
-0.034946 -0.009158 0.054135 
-0.002874 0.034723 0.018116 
-0.004873 0.034345 0.016901 
0.014794 -0.029414 0.002926 
0.009173 0.033477 0.058243 
0.023051 -0.023778 0.049724 
-0.031192 -0.002054 0.011742 
0.001473 0.033044 0.050986 
-0.008168 0.007641 0.001000 
0.025906 0.018851 0.003702 
0.032950 0.012282 0.029549 
-0.002787 -0.033035 0.050833 
-0.010211 0.031248 0.014119 
0.000544 -0.030896 0.000000 
0.012759 -0.029882 0.029156 
0.034636 -0.000998 0.053182 
-0.013611 -0.029367 0.000000 
-0.029747 -0.018624 0.031963 
0.025331 -0.024285 0.028155 
0.004423 -0.035887 0.042687 
0.013575 -0.028831 0.000000 
-0.019301 -0.030894 0.055618 
0.001601 0.036248 0.048190 
0.028334 0.011203 0.014309 
0.023018 0.022626 0.036338 
0.003025 0.032460 0.001838 
0.016578 -0.028152 0.046307 
0.017865 -0.027218 0.046251 
-0.031266 -0.001912 0.012100 
-0.013323 0.031020 0.007044 
0.030948 -0.002101 0.008684 
-0.010786 0.034130 0.052673 
0.016151 0.032519 0.049168 
-0.018959 0.030389 0.042426 
0.010875 -0.021589 0.001000 
0.006423 0.035204 0.042290 
-0.013491 0.030182 0.041515 
0.026331 0.017330 0.014846 
0.001512 -0.030636 0.010649 
0.027509 0.017508 0.002468 
0.026073 0.016674 0.008460 
-0.009789 -0.030123 0.002063 
-0.027918 0.017721 0.005113 
-0.017380 -0.027410 0.038868 
0.031334 0.003093 0.018290 
-0.006097 0.024618 0.000000 
0.023737 -0.022489 0.040695 
0.031976 0.013916 0.021362 
-0.024251 0.026793 0.043098 
-0.019231 0.025097 0.033347 
-0.002832 0.006598 0.000000 
-0.000016 0.033394 0.056851 
0.017487 0.010082 0.001000 
0.010065 -0.031309 0.003631 
0.030694 -0.015186 0.063729 
0.034101 -0.000000 0.013608 
-0.011719 -0.033415 0.033894 
-0.000992 0.030787 0.013185 
-0.029377 0.007867 0.013391 
-0.007693 -0.032706 0.045318 
-0.001812 -0.033868 0.064789 
0.015793 0.018733 0.001000 
0.029690 -0.017764 0.024390 
-0.029437 0.005045 0.000000 
-0.022970 0.008425 0.001000 
-0.010563 -0.032908 0.037721 
0.022354 0.020746 0.008778 
0.009116 0.032243 0.037573 
0.027518 -0.019917 0.042504 
0.027429 -0.023530 0.046342 
-0.024478 0.011602 0.001000 
-0.031833 -0.011956 0.011602 
0.031987 0.015296 0.032219 
-0.028700 -0.022153 0.049034 
0.017273 -0.031164 0.038152 
-0.024189 0.025135 0.025245 
0.021566 -0.025138 0.004074 
-0.029575 -0.010926 0.029707 
-0.004947 0.031236 0.020708 
0.030038 0.012032 0.040855 
0.033764 0.002794 0.049514 
-0.031674 -0.008854 0.002339 
-0.014131 0.029246 0.000346 
-0.002741 -0.010426 0.000000 
0.035434 0.008432 0.059095 
-0.029794 -0.015689 0.007616 
0.035535 0.004066 0.033135 
-0.031864 -0.018428 0.059959 
0.031440 0.009164 0.001292 
-0.001931 0.032814 0.047137 
0.027029 0.024574 0.057080 
0.025488 -0.021052 0.038742 
0.012418 -0.034477 0.067000 
0.031495 -0.002081 0.015922 
0.019009 0.028961 0.025601 
0.016220 0.027240 0.030936 
-0.004679 0.030916 0.015336 
-0.017647 0.024404 0.007276 
-0.034726 0.005775 0.028361 
-0.011467 0.030712 0.026317 
-0.033651 0.007946 0.020421 
-0.022987 0.021838 0.027129 
-0.031930 0.005747 0.038127 
-0.028156 -0.021396 0.035037 
0.036045 -0.007424 0.065015 
0.017442 -0.025038 0.013848 
-0.007023 0.035489 0.051897 
-0.029558 -0.017479 0.058748 
-0.031284 0.014904 0.020409 
0.025456 -0.018456 0.000628 
0.026878 0.017132 0.000000 
0.005296 -0.033895 0.065239 
-0.027015 -0.019483 0.030628 
0.000134 -0.033920 0.007359 
0.010689 0.033784 0.048667 
-0.030430 0.015944 0.018166 
-0.034530 0.001803 0.015421 
0.017381 0.028390 0.055606 
0.028818 0.010448 0.017425 
0.016659 -0.028921 0.055716 
-0.011496 0.015543 0.000000 
-0.020244 0.022745 0.013123 
-0.017781 -0.024440 0.007183 
-0.025868 -0.025847 0.059870 
0.029954 -0.012173 0.000000 
0.011841 0.034679 0.064221 
0.012603 0.030490 0.035909 
-0.034333 0.010385 0.046488 
0.028189 -0.020189 0.027107 
-0.002133 0.019505 0.000000 
-0.034593 0.000769 0.016301 
0.027149 -0.023950 0.046346 
0.005669 0.034449 0.022112 
0.004820 -0.032704 0.045288 
-0.028733 -0.011481 0.020901 
0.020715 -0.026072 0.005835 
-0.013385 0.028611 0.018419 
-0.030483 -0.005103 0.015863 
0.029342 -0.013210 0.036792 
0.006432 -0.032703 0.045275 
0.028672 -0.020754 0.054910 
0.003063 0.032000 0.000304 
-0.029409 -0.008056 0.014667 
0.009719 0.032849 0.047715 
0.019829 0.029149 0.034421 
-0.011310 -0.032251 0.045364 
0.034570 -0.012087 0.067000 
0.033128 -0.006832 0.009015 
-0.020449 -0.026208 0.053270 
-0.031141 0.013440 0.061928 
-0.023305 -0.027687 0.050381 
0.005225 0.018060 0.001000 
0.018512 0.028170 0.062394 
0.031765 0.008908 0.050037 
0.001702 0.005111 0.000000 
0.032904 0.000096 0.025941 
-0.015816 -0.030621 0.019646 
-0.020697 -0.025626 0.047556 
-0.032336 0.015475 0.037829 
-0.029573 -0.018709 0.064445 
-0.004008 0.036586 0.056712 
0.024059 -0.027075 0.046275 
0.005996 -0.031376 0.000000 
0.020634 -0.022354 0.012018 
0.009340 0.033188 0.018820 
0.022692 -0.023191 0.040096 
-0.016864 0.029434 0.012799 
0.032623 0.007080 0.005199 
-0.011392 0.032492 0.017404 
-0.027057 -0.019794 0.037171 
0.018321 -0.023832 0.006819 
-0.000578 0.020865 0.000000 
0.021775 -0.023625 0.037504 
-0.029543 -0.008947 0.020434 
-0.019995 -0.022428 0.004579 
0.021452 -0.013334 0.001000 
0.025560 0.009870 0.000000 
0.035713 -0.006255 0.052527 
-0.005223 -0.032977 0.049862 
0.015375 -0.028993 0.045973 
0.023263 -0.025836 0.022989 
0.024142 -0.026960 0.044556 
0.007079 0.034415 0.030701 
-0.030399 -0.005379 0.015967 
-0.007855 0.033456 0.018298 
0.018239 0.023806 0.000000 
-0.029136 -0.010417 0.021546 
0.028193 0.020408 0.052628 
0.010570 -0.032281 0.031973 
0.030066 0.012768 0.044521 
0.004000 -0.030866 0.014502 
-0.028402 -0.009166 0.006121 
-0.000129 0.033353 0.002823 
0.010209 0.032175 0.019346 
-0.034622 -0.003582 0.064531 
0.010900 -0.033601 0.053182 
-0.016991 0.028411 0.052639 
0.015447 -0.030439 0.063026 
0.026293 0.018184 0.000000 
-0.012481 -0.032718 0.025183 
0.027899 -0.020354 0.050599 
-0.015019 0.026040 0.000772 
-0.025476 0.019786 0.000802 
-0.027005 -0.021394 0.021088 
-0.021637 0.028939 0.047458 
0.020970 -0.025791 0.055524 
-0.011668 -0.015122 0.001000 
0.020639 0.021734 0.003428 
0.036324 -0.003924 0.050093 
-0.021977 0.029345 0.067000 
-0.010921 -0.034173 0.062326 
0.001956 -0.036401 0.052020 
0.031901 0.010776 0.009335 
-0.033639 -0.012928 0.045018 
0.021780 0.028563 0.045098 
-0.024415 -0.000594 0.000000 
0.003921 0.031196 0.020034 
0.014525 0.030241 0.053191 
-0.006683 0.031963 0.032872 
-0.012454 0.032373 0.060441 
0.031832 -0.008118 0.047410 
0.033794 -0.007243 0.020258 
-0.022240 -0.028743 0.054279 
-0.032631 0.009820 0.065714 
-0.015488 0.028017 0.033612 
-0.029168 -0.012318 0.030474 
0.029204 -0.016552 0.049872 
-0.028118 0.010035 0.006207 
-0.004707 0.025964 0.000000 
-0.005051 -0.033786 0.063421 
-0.005151 0.033899 0.011958 
-0.033708 -0.009843 0.030373 
0.005388 0.001537 0.000000 
0.005255 -0.032330 0.039028 
0.000467 -0.033043 0.050976 
0.017101 0.029693 0.018644 
0.026805 -0.020428 0.042451 
-0.024403 -0.026474 0.040769 
0.027853 -0.000795 0.000000 
0.030394 0.014207 0.005750 
0.032605 0.000075 0.021838 
-0.033883 0.006250 0.066542 
-0.016385 0.033241 0.067000 
-0.002718 0.000096 0.001000 
0.010276 0.006380 0.000000 
0.002952 -0.034903 0.067000 
0.009765 0.031549 0.025950 
-0.018280 -0.022648 0.001000 
0.001699 0.031410 0.001000 
-0.003390 0.031591 0.026644 
-0.001931 -0.031592 0.026674 
-0.014586 0.025284 0.000000 
0.010258 0.031720 0.020048 
0.019287 -0.027162 0.057297 
-0.010402 -0.032271 0.038046 
0.017885 0.027809 0.053133 
0.021474 -0.024503 0.045016 
0.010037 0.032980 0.049919 
-0.010662 -0.033303 0.030082 
-0.014539 0.026666 0.004151 
0.010395 0.033083 0.029017 
-0.005646 0.035605 0.045852 
0.028246 0.020385 0.042527 
-0.034162 -0.014100 0.065427 
-0.034357 0.007238 0.030337 
-0.031365 -0.012981 0.062873 
0.022465 -0.024377 0.051729 
-0.010979 -0.034294 0.065593 
-0.027073 0.024223 0.049400 
-0.011817 -0.030450 0.000448 
0.003923 -0.036016 0.042390 
0.028030 0.019385 0.016674 
0.021894 -0.025413 0.058819 
0.032697 -0.000000 0.013977 
0.035169 -0.007657 0.049280 
0.028027 -0.022686 0.047642 
-0.015127 0.014847 0.001000 
-0.014753 -0.029079 0.035637 
-0.001529 -0.036354 0.050861 
0.036101 0.001317 0.044529 
-0.011069 0.034300 0.049923 
0.017359 0.016570 0.001000 
0.034920 -0.000319 0.020877 
-0.030052 0.005557 0.012117 
-0.023499 -0.025757 0.024561 
-0.021093 0.023333 0.028578 
0.027784 -0.019373 0.043433 
-0.036334 0.002284 0.050342 
0.027590 0.015393 0.000000 
-0.002536 0.035844 0.067000 
-0.020396 -0.023809 0.022967 
-0.005756 0.017406 0.000000 
0.010737 0.030456 0.000000 
-0.035004 0.000810 0.057273 
-0.004718 -0.011434 0.000000 
-0.027903 -0.020177 0.042241 
-0.024241 -0.024680 0.020885 
-0.026236 0.015707 0.006319 
0.022516 -0.028090 0.045751 
0.010711 0.033449 0.047652 
0.026086 0.018660 0.017497 
-0.034406 -0.004462 0.065564 
-0.034026 -0.008739 0.031221 
0.006153 0.030925 0.015486 
-0.035832 -0.000000 0.050851 
0.001091 0.035707 0.036149 
0.025799 -0.017130 0.006815 
0.006513 -0.033962 0.066371 
-0.029775 0.009849 0.000000 
-0.028253 0.020346 0.039694 
-0.024047 -0.018947 0.000000 
-0.029537 0.012552 0.036457 
-0.004158 -0.031270 0.000000 
0.035086 -0.006106 0.037770 
0.019950 -0.027115 0.062211 
0.011020 0.027842 0.000000 
-0.032450 -0.016001 0.044935 
-0.008999 0.030879 0.014717 
-0.034399 0.009484 0.042501 
-0.012783 0.034125 0.056263 
-0.030934 -0.013500 0.059419 
0.031325 0.017549 0.042604 
0.015657 0.027755 0.031827 
-0.016327 -0.003622 0.000000 
0.018287 0.010173 0.001000 
0.034039 -0.009355 0.034552 
0.004796 0.033526 0.059067 
0.022811 -0.021940 0.026846 
-0.018087 -0.029004 0.018195 
-0.015786 0.010967 0.000000 
0.018320 0.031506 0.058632 
0.005468 0.035251 0.036803 
-0.000212 -0.035853 0.039067 
-0.007528 0.035777 0.060183 
0.031933 -0.002370 0.023095 
-0.005454 0.032578 0.043177 
0.027457 -0.019318 0.008030 
0.025097 0.022221 0.048820 
-0.004312 -0.029353 0.001000 
-0.008330 -0.034879 0.046228 
0.002437 -0.034726 0.018161 
-0.020804 -0.026151 0.056095 
-0.036532 0.001497 0.055305 
-0.023394 -0.023807 0.049380 
0.006492 0.013879 0.000000 
-0.028682 -0.020682 0.047998 
0.010569 -0.033270 0.054768 
-0.033233 -0.005725 0.055498 
0.031493 0.007204 0.038784 
-0.012975 -0.029544 0.024015 
0.012872 -0.031283 0.049970 
-0.017656 -0.017853 0.000000 
-0.020062 -0.028579 0.029444 
-0.017201 0.029754 0.020433 
0.003286 0.036319 0.049969 
-0.005706 -0.032414 0.001658 
-0.000771 -0.034973 0.021626 
-0.017795 -0.031650 0.054830 
0.009003 -0.000823 0.000000 
0.036656 0.005277 0.066390 
0.006081 0.031648 0.027602 
-0.032466 0.012457 0.021494 
0.030109 -0.009299 0.029594 
-0.010258 0.032351 0.015451 
-0.021894 -0.022618 0.023056 
-0.030332 0.014191 0.054429 
0.008084 -0.031621 0.027150 
0.031182 0.013926 0.064635 
-0.028391 -0.013469 0.025199 
-0.014549 -0.022918 0.001000 
-0.023728 -0.020598 0.017076 
-0.007094 0.021829 0.000000 
-0.028736 -0.020802 0.059672 
-0.022914 -0.024261 0.050898 
-0.000270 -0.033169 0.001353 
0.007425 -0.034114 0.026407 
0.002714 0.014208 0.000000 
0.007744 0.014215 0.001000 
0.032739 0.013013 0.029875 
0.015664 0.010062 0.001000 
0.021576 0.028631 0.042551 
-0.025788 -0.022043 0.010103 
-0.005021 -0.033137 0.052551 
0.006798 0.018957 0.001000 
-0.028577 -0.019341 0.053925 
-0.030782 -0.000824 0.000000 
-0.033283 0.006170 0.058155 
0.027809 -0.014697 0.022886 
-0.034567 -0.009530 0.047001 
0.016262 -0.025652 0.009232 
0.028646 -0.010054 0.013366 
0.007352 -0.033956 0.022886 
0.024566 0.027099 0.059865 
-0.032525 -0.004655 0.041220 
-0.027082 0.019663 0.028084 
-0.019119 0.030452 0.044968 
-0.015044 0.028631 0.037216 
-0.027197 -0.021990 0.062574 
-0.008018 0.027450 0.001000 
0.017394 0.025278 0.016657 
-0.025567 0.019166 0.017921 
0.015598 0.020543 0.001000 
0.031074 -0.011021 0.002631 
-0.009762 0.033192 0.053464 
-0.034648 -0.002519 0.017076 
0.011571 0.033545 0.035755 
0.003117 -0.031345 0.022534 
0.030132 0.015412 0.057215 
-0.027616 0.020044 0.038355 
0.029480 -0.013585 0.040309 
-0.029775 0.020184 0.047770 
0.013903 0.033537 0.048581 
0.025591 0.026235 0.062635 
-0.027725 -0.017601 0.034735 
-0.023041 -0.025398 0.014152 
0.027631 -0.010874 0.000000 
0.032015 0.005831 0.039641 
-0.032326 0.009708 0.010401 
-0.010519 -0.005588 0.001000 
0.015536 -0.033713 0.066513 
0.010609 -0.031469 0.005375 
0.008281 -0.033809 0.024576 
-0.004924 0.034919 0.026531 
-0.027103 -0.003027 0.001000 
-0.026252 0.019352 0.002338 
0.028073 -0.020305 0.048191 
-0.027447 -0.022411 0.034650 
-0.017814 -0.026051 0.024879 
0.016905 -0.026749 0.031724 
0.003551 -0.032936 0.049175 
0.008807 -0.035175 0.056575 
0.025543 -0.019757 0.024458 
-0.005649 0.036482 0.064886 
-0.030045 -0.018164 0.031845 
0.021830 0.029564 0.067000 
0.023947 0.026615 0.037628 
0.013617 0.027528 0.005882 
-0.025523 -0.019729 0.023205 
-0.000322 0.035909 0.040180 
0.031278 0.018976 0.055931 
-0.025589 -0.019285 0.018977 
0.023987 0.021242 0.028566 
-0.025955 -0.016998 0.008324 
-0.029038 -0.013856 0.035595 
-0.022819 -0.023812 0.002524 
-0.023593 -0.025654 0.024462 
-0.031918 -0.005617 0.037387 
0.010107 -0.030426 0.006302 
0.007537 0.031899 0.031811 
-0.029699 -0.019919 0.041739 
-0.034609 0.007075 0.034558 
0.025408 0.020614 0.002325 
-0.020034 0.023460 0.020763 
0.030190 -0.016234 0.017514 
-0.025646 -0.024964 0.067000 
0.028183 0.020273 0.026382 
-0.036625 -0.002259 0.057629 
0.029054 -0.011438 0.025017 
0.034256 0.000199 0.044517 
-0.006066 -0.032387 0.039985 
-0.030562 0.007580 0.027987 
-0.033206 0.007440 0.012428 
0.014882 -0.031115 0.066067 
-0.033287 0.015891 0.064023 
0.021038 -0.011737 0.001000 
-0.029431 0.021431 0.066316 
0.009835 -0.032960 0.049577 
0.026000 0.018932 0.018817 
-0.024342 0.011513 0.000000 
-0.034448 0.000901 0.014267 
0.017550 -0.029577 0.021215 
-0.000492 0.035365 0.029298 
-0.029671 0.008892 0.021910 
-0.017886 -0.028714 0.062570 
0.008081 0.030674 0.011287 
0.031606 0.006359 0.036519 
-0.011168 -0.034149 0.046779 
0.006470 0.014235 0.001000 
0.034960 0.001791 0.021437 
-0.023684 0.017713 0.001000 
0.030636 0.002784 0.007550 
-0.014963 -0.004110 0.000000 
-0.000905 0.033892 0.065194 
0.034503 0.003573 0.062899 
-0.031435 -0.005921 0.032277 
0.023656 0.010717 0.001000 
-0.006678 -0.030002 0.000033 
-0.019036 -0.008925 0.001000 
0.008403 0.032855 0.047817 
0.034005 0.007817 0.026175 
-0.010613 -0.029567 0.000625 
-0.032560 0.013079 0.027070 
-0.003850 0.033717 0.062254 
-0.030617 -0.008006 0.000000 
-0.018590 -0.029978 0.034459 
-0.033005 0.013973 0.037980 
-0.017748 -0.031820 0.058298 
0.003696 0.030484 0.008106 
-0.027596 0.010848 0.002834 
-0.022384 -0.028462 0.052583 
0.028138 -0.023451 0.061858 
0.031648 0.002221 0.018601 
-0.015202 0.003736 0.000000 
-0.021594 -0.029524 0.055984 
-0.029499 0.015397 0.048653 
-0.027952 0.019198 0.013846 
0.011007 0.031499 0.032161 
0.031550 0.010180 0.052835 
0.000541 -0.036113 0.044831 
0.020469 -0.023023 0.019519 
-0.008167 0.034227 0.067000 
0.028433 0.019229 0.020856 
-0.013742 -0.031169 0.009463 
-0.024126 0.020160 0.017393 
0.008825 0.016042 0.001000 
-0.034400 -0.012088 0.058813 
-0.010624 -0.034280 0.045868 
0.015655 0.025826 0.004874 
-0.006518 0.030631 0.010569 
-0.029482 0.012967 0.037579 
0.012120 -0.000826 0.000000 
0.008492 0.031503 0.000092 
0.005958 0.032498 0.041849 
0.008675 0.031095 0.018345 
-0.001393 0.033268 0.054733 
-0.006798 -0.030401 0.006720 
-0.016980 0.029118 0.009461 
-0.027738 0.020101 0.034909 
0.036085 -0.001926 0.044116 
0.034252 0.000178 0.011531 
-0.003026 -0.032807 0.002797 
0.004595 0.036250 0.053206 
-0.029405 -0.010284 0.024558 
0.019306 0.017159 0.001000 
-0.032953 -0.014308 0.038479 
-0.027134 -0.021209 0.021166 
0.010924 0.033443 0.032609 
-0.026073 0.021383 0.047307 
0.007254 -0.001355 0.001000 
0.033149 -0.003056 0.042444 
-0.009826 -0.002218 0.000000 
-0.029420 -0.011225 0.028966 
0.019972 0.022348 0.004543 
-0.005412 0.023874 0.001000 
-0.014377 0.033840 0.059112 
-0.023172 0.026873 0.033858 
0.030705 0.005425 0.020276 
-0.025545 -0.024137 0.028815 
-0.001962 -0.035173 0.025451 
0.011261 -0.032900 0.021822 
0.000605 -0.031494 0.025031 
-0.022203 -0.026524 0.021898 
0.015401 -0.033176 0.051416 
-0.021834 0.027249 0.027655 
-0.031964 0.000492 0.015120 
-0.028445 0.008969 0.005828 
-0.005201 -0.021434 0.001000 
0.025904 -0.009084 0.000000 
0.035741 0.005178 0.044512 
-0.027793 -0.022853 0.042428 
0.024906 -0.021538 0.039481 
-0.034153 -0.000000 0.032187 
0.029529 0.017746 0.059549 
0.032942 -0.005009 0.048398 
-0.001586 -0.033862 0.064681 
0.006567 -0.032438 0.003506 
0.030335 0.004768 0.012383 
-0.011620 0.031856 0.010926 
-0.000409 0.024279 0.001000 
0.001012 -0.033235 0.054189 
0.030856 -0.012718 0.054877 
-0.031908 0.014469 0.024654 
0.010042 -0.005943 0.000000 
0.026702 0.020462 0.008145 
0.026691 0.024715 0.052149 
0.025216 0.022205 0.049625 
-0.028230 0.020292 0.036592 
-0.033193 -0.001733 0.037122 
-0.000223 0.012167 0.000000 
0.013592 -0.030099 0.002369 
-0.027521 -0.014107 0.016399 
-0.034239 -0.013677 0.064700 
0.025611 0.018381 0.000000 
0.009539 -0.033529 0.059113 
0.011506 0.033551 0.035554 
-0.015974 -0.032451 0.044504 
0.025623 -0.018596 0.000595 
-0.035911 0.000768 0.040226 
0.022330 -0.025559 0.064068 
-0.009984 0.003904 0.001000 
0.019215 -0.030984 0.053908 
0.012413 0.028297 0.003181 
-0.023428 0.021203 0.023526 
0.005277 0.007092 0.000000 
0.021972 -0.025953 0.065596 
-0.023144 -0.022534 0.032952 
-0.015205 0.001209 0.000000 
0.029577 0.016898 0.015132 
-0.025808 -0.021790 0.008012 
0.009103 -0.035147 0.057900 
-0.003507 0.030104 0.001748 
0.015894 0.027535 0.000000 
0.025333 -0.024591 0.031234 
-0.012815 -0.025092 0.000000 
-0.014475 -0.019691 0.000000 
0.032941 0.012215 0.028917 
-0.014120 -0.008809 0.001000 
0.032192 -0.000000 0.013204 
0.018232 -0.029477 0.025586 
0.015975 0.011664 0.000000 
0.000045 -0.031073 0.017979 
-0.028831 -0.012249 0.025655 
-0.012693 0.031623 0.052729 
0.026661 0.022546 0.026300 
0.025227 -0.019015 0.013420 
0.012129 0.032590 0.021535 
0.027349 0.019864 0.027727 
-0.000807 0.019359 0.000000 
0.016838 -0.029579 0.014601 
-0.014221 -0.033076 0.039620 
0.029204 0.019224 0.061802 
-0.018392 -0.011390 0.000000 
0.006484 0.029337 0.000000 
0.026898 0.019595 0.019786 
0.030793 0.019942 0.067000 
0.011402 -0.017739 0.000000 
-0.035370 -0.000826 0.029396 
0.008185 -0.035680 0.062149 
-0.034211 -0.005183 0.066174 
-0.002840 -0.029915 0.001000 
0.032028 0.018080 0.059801 
-0.027393 0.006284 0.000000 
-0.034620 -0.005798 0.026398 
-0.024354 0.026204 0.037576 
-0.011555 -0.033318 0.063008 
-0.020039 0.023677 0.023828 
0.031060 0.015874 0.025711 
0.001523 -0.030586 0.009812 
0.031961 -0.000992 0.017306 
0.021197 -0.023189 0.027795 
0.030612 0.005524 0.019468 
0.017096 0.024468 0.001000 
-0.031204 0.008368 0.000000 
0.036209 0.004607 0.051010 
0.007043 -0.034903 0.040276 
-0.010850 -0.033714 0.037262 
0.028227 -0.016482 0.036457 
0.005801 -0.035797 0.051944 
-0.020344 0.024701 0.037982 
0.016351 0.029012 0.054218 
0.014649 -0.028187 0.026602 
0.014661 0.004358 0.000000 
-0.006042 -0.035553 0.047832 
-0.021511 0.029008 0.047234 
-0.022159 0.007592 0.001000 
-0.017734 -0.026001 0.023646 
0.027739 0.019930 0.023273 
0.028907 0.018495 0.020657 
0.034419 0.007073 0.030741 
-0.002942 -0.034510 0.015142 
-0.032362 -0.008983 0.008319 
0.035990 0.002822 0.041799 
-0.016270 -0.033022 0.063735 
-0.023011 -0.014475 0.001000 
0.012050 -0.018914 0.000000 
-0.023907 -0.021724 0.030797 
0.032514 -0.000000 0.007333 
-0.023443 -0.028370 0.064668 
0.026698 -0.000013 0.001000 
-0.005585 -0.007489 0.001000 
-0.005200 -0.036116 0.054895 
-0.034085 0.014047 0.063163 
-0.025081 0.023658 0.065037 
0.026343 0.019214 0.006669 
0.009542 0.032334 0.039088 
-0.010649 -0.001575 0.000000 
0.014244 -0.031793 0.067000 
-0.014667 -0.033192 0.044716 
0.014591 -0.033922 0.062506 
-0.029898 0.016229 0.057723 
0.000377 -0.031935 0.001000 
-0.034601 -0.010947 0.056698 
0.035858 0.006899 0.057465 
0.009408 0.033367 0.021560 
0.009763 -0.032219 0.037166 
-0.028877 -0.017457 0.010542 
-0.013163 -0.014767 0.001000 
0.034353 0.000729 0.048182 
0.031472 -0.007092 0.038008 
0.024190 -0.003523 0.001000 
-0.011567 0.030732 0.002036 
-0.010828 -0.030568 0.016549 
0.020725 0.026511 0.007974 
-0.030490 0.004141 0.011663 
0.032920 -0.016148 0.059152 
-0.002362 -0.033232 0.054141 
-0.015424 -0.017725 0.000000 
0.029710 -0.021710 0.060552 
-0.016575 0.021971 0.001000 
-0.027739 0.014618 0.021601 
-0.029106 -0.014404 0.000205 
-0.020973 -0.030133 0.058723 
0.028745 -0.020745 0.053875 
0.036791 -0.003196 0.061772 
0.012771 -0.029409 0.022694 
-0.025301 -0.020698 0.031761 
0.023640 -0.028058 0.063230 
0.035913 -0.008049 0.067000 
-0.009970 0.031142 0.001054 
0.013295 -0.031312 0.055113 
-0.010698 -0.033863 0.064709 
0.000573 0.031169 0.019573 
-0.016427 0.026558 0.023721 
-0.010693 -0.034239 0.045406 
0.013015 0.029913 0.032454 
0.027628 -0.011450 0.000000 
0.031417 -0.008985 0.000627 
-0.003171 -0.019690 0.000000 
0.000904 -0.009844 0.000000 
-0.007696 0.033364 0.016344 
-0.016169 -0.027277 0.024588 
0.027984 0.016240 0.000693 
-0.015939 0.029849 0.060357 
-0.011574 -0.028831 0.000973 
-0.002634 -0.032099 0.035165 
-0.010468 0.030890 0.017648 
0.024320 0.019626 0.012912 
-0.005854 0.016452 0.000000 
-0.015458 0.028877 0.045272 
0.024802 -0.025674 0.036753 
0.033977 0.000700 0.043022 
0.015458 0.028761 0.043643 
-0.031629 -0.009845 0.052403 
-0.026746 0.019490 0.017166 
-0.011000 0.034590 0.058083 
-0.010080 -0.031288 0.009234 
0.032493 0.007018 0.003996 
-0.026618 0.025013 0.057783 
0.018017 0.025369 0.024881 
0.029921 -0.012933 0.043307 
0.031730 0.007810 0.000285 
0.032346 0.004272 0.037119 
-0.006292 -0.032718 0.003859 
-0.005193 -0.030482 0.008076 
0.022252 0.024323 0.002358 
0.014574 -0.033643 0.055408 
-0.010168 0.030670 0.007447 
0.034012 -0.001159 0.008174 
-0.013833 -0.029066 0.026023 
-0.024998 0.004889 0.000000 
0.027831 -0.018951 0.042179 
0.011385 -0.031180 0.004970 
0.028834 0.007631 0.000000 
0.020114 0.029394 0.039641 
0.004813 0.035894 0.046126 
-0.008276 -0.030453 0.007580 
0.012747 0.027924 0.001704 
-0.026628 0.016801 0.016463 
-0.026479 -0.021041 0.010420 
0.024023 0.021179 0.028146 
-0.017164 0.029691 0.019201 
0.028097 -0.023715 0.064659 
0.011093 -0.029162 0.000516 
0.015103 -0.030305 0.058667 
-0.017376 -0.024257 0.001703 
-0.028475 0.020475 0.032243 
-0.017982 -0.027122 0.040958 
-0.022796 0.023027 0.039077 
0.022613 -0.014454 0.001000 
-0.033519 -0.003560 0.049660 
-0.011969 -0.010666 0.000000 
-0.011344 -0.030021 0.014074 
0.018983 -0.027268 0.006033 
-0.016593 -0.028244 0.003070 
0.014972 0.033150 0.045570 
0.035737 -0.000000 0.061642 
-0.005932 -0.020911 0.000000 
0.030620 0.003513 0.000000 
0.031679 0.008906 0.002516 
0.029903 0.007470 0.018670 
0.028278 0.014533 0.028448 
-0.034130 0.006199 0.067000 
0.021102 -0.022445 0.018516 
-0.010260 0.031867 0.017423 
-0.019231 0.026523 0.003251 
-0.031469 0.003499 0.021911 
0.027854 -0.010206 0.003435 
0.018917 0.029786 0.034762 
-0.022080 -0.025733 0.063248 
0.032607 0.008273 0.058484 
-0.035274 -0.002267 0.027475 
-0.025147 0.020462 0.029216 
-0.006815 0.011953 0.001000 
-0.000161 -0.033096 0.051858 
0.024215 -0.024778 0.021903 
0.029558 -0.004488 0.000728 
-0.012603 -0.025787 0.000000 
-0.033570 0.001514 0.041197 
-0.029558 0.016495 0.011101 
-0.030251 0.012120 0.044099 
0.008520 0.033336 0.018025 
0.036653 -0.005196 0.066038 
-0.035951 0.006439 0.058218 
0.010487 0.032496 0.015034 
0.002836 0.032988 0.050042 
-0.021461 -0.030006 0.061697 
-0.010974 0.033895 0.056633 
-0.033861 -0.013073 0.051485 
-0.013915 0.020479 0.001000 
0.011503 0.029055 0.003589 
-0.021463 -0.026257 0.011251 
0.010270 0.003348 0.000000 
0.012564 -0.021571 0.001000 
-0.009166 0.033480 0.022426 
-0.027758 0.001680 0.000000 
-0.036377 -0.005480 0.061945 
-0.001465 -0.032758 0.046205 
-0.016930 -0.029078 0.008431 
0.030306 -0.016073 0.062491 
0.007765 0.033837 0.064271 
0.031386 0.013078 0.063592 
-0.027452 -0.018775 0.006252 
0.028938 0.010733 0.020312 
-0.015231 0.028634 0.039343 
0.029054 -0.021054 0.045321 
0.033139 0.001828 0.036824 
0.028875 0.015011 0.038570 
-0.014283 -0.032726 0.034302 
-0.010472 0.030230 0.008478 
-0.034747 -0.001256 0.055813 
-0.009414 0.031234 0.000305 
0.035758 -0.002021 0.037162 
0.020101 -0.013512 0.000000 
-0.029738 -0.016726 0.015783 
0.023928 -0.025251 0.023795 
-0.033635 -0.000590 0.037942 
0.025013 -0.024086 0.022992 
0.011000 0.033455 0.031500 
-0.024484 -0.025119 0.028022 
0.019371 -0.024263 0.024560 
-0.004799 -0.035735 0.042035 
-0.013901 0.008226 0.000000 
-0.011321 -0.014870 0.001000 
-0.032421 -0.005263 0.042553 
-0.003797 -0.006843 0.000000 
-0.021332 0.022438 0.000000 
0.019066 0.030784 0.049915 
0.018018 0.031209 0.047449 
0.024405 -0.027300 0.063310 
0.014458 0.027797 0.019039 
-0.000860 0.035553 0.033054 
-0.028046 -0.010022 0.005181 
-0.006342 -0.002669 0.000000 
-0.002337 0.034156 0.010187 
0.018380 0.028611 0.066322 
0.016527 0.005358 0.001000 
-0.035518 0.001098 0.065441 
0.029349 -0.015094 0.045297 
-0.010215 0.031944 0.015069 
