
# .PCD v.6 - Point Cloud Data file format
FIELDS x y z 
SIZE 4 4 4 
TYPE F F F 
COUNT 1 1 1 
WIDTH 1645
HEIGHT 1
VIEWPOINT 0.000000 0.000000 0.000000 1.000000 0.000000 0.000000 0.00000
POINTS 1645
DATA ascii
-0.006191 0.033267 0.085441 
-0.027284 0.012131 0.026169 
-0.017215 0.018346 0.000000 
0.018011 0.024799 0.082735 
-0.010595 -0.032345 0.094876 
0.001359 -0.028938 0.016105 
-0.003168 0.030971 0.047073 
0.015649 0.021582 0.001565 
0.028668 0.013184 0.048851 
0.006128 -0.002884 0.001000 
-0.007814 0.028807 0.059486 
0.028481 -0.014410 0.055704 
0.002846 -0.024437 0.001000 
0.000659 0.030190 0.035760 
-0.013977 -0.015523 0.001000 
0.014451 -0.030360 0.080412 
-0.019179 0.021435 0.056206 
0.002438 -0.026594 0.032095 
0.016838 0.017731 0.003467 
-0.010724 0.023514 0.015116 
0.022108 0.016486 0.025587 
-0.025167 -0.016580 0.065701 
0.026039 -0.017474 0.051359 
-0.017142 0.021637 0.043393 
-0.016391 0.023647 0.015033 
0.012382 0.030041 0.096082 
-0.029066 -0.001152 0.016722 
0.009084 0.028024 0.041982 
-0.015562 -0.021336 0.029043 
0.023076 -0.017142 0.031782 
0.029611 -0.001485 0.063190 
-0.015096 -0.026678 0.080855 
0.024796 0.006758 0.025349 
0.018777 0.025799 0.055915 
0.032141 -0.007425 0.067224 
0.032026 -0.013539 0.096968 
-0.032686 0.001913 0.067983 
-0.033279 -0.004018 0.085667 
0.025776 -0.019947 0.067648 
0.014982 -0.027875 0.053265 
-0.021157 -0.016932 0.027040 
-0.006575 0.028141 0.051248 
0.020178 -0.026284 0.076839 
0.028073 0.005178 0.059388 
-0.001981 -0.024052 0.000643 
0.032890 -0.008655 0.087545 
-0.029543 -0.001826 0.024091 
0.007453 -0.029668 0.070147 
0.017519 -0.024083 0.023305 
-0.020036 -0.027128 0.087228 
-0.025030 0.022741 0.083846 
-0.010667 -0.032528 0.089756 
-0.032839 -0.000000 0.084364 
0.017351 -0.027605 0.069019 
-0.011727 0.026726 0.018669 
-0.016867 -0.027702 0.065885 
0.007926 -0.014213 0.000000 
0.023653 -0.021822 0.056931 
0.004135 -0.032219 0.066059 
-0.014833 0.025042 0.019531 
-0.010010 -0.030110 0.050980 
0.018378 -0.024042 0.028939 
0.024873 -0.021231 0.096154 
-0.006554 -0.024275 0.003404 
0.003183 0.028545 0.017727 
0.023832 0.009280 0.023823 
-0.028967 -0.008694 0.082401 
-0.024737 0.008518 0.031882 
-0.008496 -0.027634 0.016895 
-0.031490 0.005282 0.054602 
0.026545 -0.017041 0.083360 
-0.001528 -0.032044 0.099000 
-0.026121 0.019196 0.085959 
0.009519 0.027233 0.016268 
-0.011301 -0.028469 0.071517 
-0.020055 -0.002581 0.001000 
-0.006826 0.030276 0.077662 
-0.024724 -0.016907 0.061682 
0.010359 -0.031808 0.089920 
-0.031013 0.001357 0.039750 
0.019494 0.025713 0.062593 
0.013143 -0.029191 0.054246 
-0.008055 0.028735 0.026906 
-0.024723 0.015623 0.057184 
0.031730 -0.000000 0.078091 
0.016163 -0.022897 0.009025 
0.025900 0.014548 0.067141 
-0.023319 0.021903 0.091689 
-0.031336 -0.004043 0.093748 
-0.030210 0.011603 0.058819 
-0.028110 0.016789 0.070828 
0.007431 0.027669 0.013536 
0.018654 -0.014490 0.001000 
0.024209 0.017241 0.023602 
-0.009344 0.029070 0.036490 
-0.014502 -0.020090 0.009335 
0.015649 -0.024738 0.064560 
0.021897 0.022578 0.047258 
0.017821 -0.022319 0.055242 
-0.028943 -0.004629 0.021901 
0.031034 -0.006050 0.047988 
0.022569 0.011748 0.018376 
0.026117 -0.002228 0.000000 
-0.011104 -0.005589 0.000000 
0.022425 0.018934 0.021513 
0.017538 0.020409 0.000853 
-0.026000 -0.003860 0.000959 
-0.029554 -0.000600 0.058836 
0.027336 0.006641 0.009300 
-0.010535 0.032242 0.088179 
0.030396 0.000511 0.028443 
-0.016762 -0.024543 0.025178 
0.026632 0.019063 0.091438 
-0.012930 0.023663 0.033056 
0.025698 -0.023086 0.096330 
-0.024743 0.016573 0.060738 
0.022570 0.021300 0.041411 
-0.000243 0.033806 0.084274 
-0.033842 -0.001571 0.086423 
0.001957 0.026403 0.002416 
0.008545 -0.033322 0.093599 
-0.030645 0.003027 0.082145 
-0.016420 0.019481 0.017348 
-0.007557 -0.031795 0.096458 
-0.000170 0.027942 0.011651 
0.022802 -0.025675 0.092658 
-0.028225 0.017139 0.075658 
0.023950 -0.006083 0.012093 
-0.022567 0.016364 0.008141 
0.023008 -0.019312 0.063441 
-0.030874 0.000867 0.035358 
0.022068 -0.022961 0.052613 
-0.014132 -0.023940 0.007626 
-0.012911 -0.021514 0.011559 
-0.011626 -0.030496 0.062607 
-0.013883 0.025985 0.064562 
0.022230 0.024452 0.070414 
0.025731 0.011382 0.009559 
0.008691 0.023727 0.000000 
0.005340 -0.031768 0.096132 
0.017671 0.027745 0.073917 
0.008285 -0.025727 0.009413 
-0.023292 0.006678 0.006409 
-0.012724 -0.029537 0.093325 
0.006520 0.022116 0.001000 
0.030063 -0.000000 0.053622 
0.027528 -0.019614 0.088878 
0.006472 -0.027635 0.044981 
-0.016689 0.022601 0.009271 
-0.011525 -0.023157 0.017395 
-0.004418 -0.031537 0.055280 
0.014559 -0.002425 0.001000 
-0.000830 0.007400 0.001000 
0.004187 0.026874 0.035570 
0.024335 0.018030 0.047109 
-0.031409 0.002274 0.049924 
-0.018949 -0.018712 0.000000 
0.030736 0.001965 0.038670 
-0.027657 -0.009913 0.071404 
0.028229 -0.018605 0.099000 
-0.025900 0.001634 0.000000 
0.014729 -0.024289 0.053002 
-0.014769 -0.028500 0.097596 
-0.022323 0.018897 0.020541 
0.025190 -0.015176 0.021164 
0.026913 -0.014376 0.078340 
-0.013238 0.022774 0.026104 
-0.030175 0.006840 0.038653 
0.027533 -0.014859 0.087246 
0.021580 0.017345 0.034096 
-0.002576 -0.027747 0.009635 
-0.023816 -0.017469 0.053074 
-0.028543 0.007427 0.073040 
-0.011309 -0.022150 0.006100 
-0.028414 -0.010462 0.082141 
0.029046 -0.000000 0.022137 
-0.010224 0.029966 0.050084 
-0.025185 0.001620 0.008972 
-0.025558 0.004062 0.023662 
0.026034 0.022218 0.092234 
0.031840 0.003223 0.096753 
0.005086 0.027806 0.010837 
-0.017466 0.026957 0.060854 
-0.005490 0.031937 0.061085 
-0.010385 0.023514 0.000000 
0.034359 -0.001868 0.096140 
-0.032438 -0.000000 0.081006 
0.003235 0.025135 0.000000 
-0.020691 0.026379 0.082905 
-0.010162 0.023715 0.013062 
-0.016140 0.024051 0.018023 
-0.013390 0.029598 0.060458 
-0.003231 0.029107 0.023624 
0.028919 -0.004771 0.068145 
-0.023224 0.014429 0.005293 
-0.014015 0.025939 0.025253 
0.016706 -0.023859 0.018846 
-0.027508 0.003516 0.045543 
-0.032575 -0.004202 0.072644 
-0.005762 0.030655 0.042503 
0.004074 0.030438 0.079672 
-0.026690 -0.021289 0.092750 
0.028478 0.017948 0.086653 
0.025090 0.015281 0.023902 
0.017941 0.022953 0.062798 
0.033023 -0.000000 0.068813 
-0.021444 -0.018664 0.012759 
0.015385 -0.007990 0.001000 
0.025845 -0.022422 0.091499 
0.032802 -0.009257 0.088583 
0.004968 0.030040 0.033575 
-0.001443 0.024962 0.011905 
-0.021054 0.020630 0.062010 
0.009905 0.031499 0.089837 
-0.031786 -0.000000 0.077471 
-0.014879 0.024449 0.012436 
0.031745 0.005265 0.058306 
0.001062 -0.026814 0.001008 
-0.008415 0.025721 0.013686 
0.015350 -0.023617 0.050544 
-0.019026 -0.021384 0.014873 
0.021942 0.016340 0.018672 
-0.000127 0.029248 0.025108 
0.009189 -0.028037 0.025167 
0.025478 0.004779 0.025633 
-0.003703 -0.030400 0.038802 
0.025490 0.021117 0.074503 
-0.019474 0.022199 0.066248 
-0.024022 0.024160 0.088914 
-0.025460 0.003021 0.018153 
0.016032 -0.028555 0.070003 
-0.001871 -0.024520 0.006430 
-0.014913 -0.021722 0.028080 
0.025639 0.009776 0.006332 
0.008481 0.026000 0.006494 
-0.034110 0.002353 0.094040 
0.008049 -0.028787 0.059236 
0.025043 0.018095 0.036163 
-0.022750 0.020716 0.037513 
0.029471 -0.000620 0.019117 
0.030080 0.000279 0.064011 
-0.022420 -0.022987 0.096409 
-0.025515 0.004104 0.023301 
0.008827 -0.026944 0.015432 
-0.013884 0.016620 0.000000 
-0.016302 0.027587 0.058319 
0.019899 0.012483 0.000000 
-0.021577 -0.026791 0.096812 
0.009359 -0.028799 0.043706 
-0.003261 0.033122 0.081524 
0.008765 -0.003837 0.001000 
-0.014775 -0.027912 0.091456 
-0.002612 0.002880 0.000000 
0.018760 -0.024128 0.032220 
0.006584 -0.024236 0.000000 
-0.029861 0.009130 0.044235 
-0.007140 0.027916 0.048457 
-0.010163 -0.011764 0.001000 
0.009374 0.028904 0.046136 
0.024838 0.019460 0.051377 
0.006702 0.019117 0.001000 
-0.019623 -0.015942 0.006360 
-0.021074 0.017218 0.029206 
0.017871 -0.023614 0.022391 
-0.027468 0.011062 0.024126 
0.030688 0.006902 0.096188 
0.025093 -0.011978 0.048757 
-0.003117 0.031773 0.058706 
0.014237 -0.029405 0.065184 
-0.004899 0.025709 0.021148 
-0.009338 -0.029564 0.068859 
0.011539 -0.032673 0.096662 
-0.012074 -0.022060 0.010776 
-0.029948 -0.000000 0.051700 
-0.008434 0.033494 0.096268 
-0.021489 -0.016526 0.003609 
-0.027635 -0.000785 0.035843 
-0.004762 -0.002875 0.001000 
-0.024566 -0.006071 0.019675 
0.018034 0.027315 0.071316 
0.028253 0.014506 0.094399 
0.024380 0.011674 0.003443 
-0.014996 0.002909 0.001000 
0.029908 0.010877 0.052066 
-0.026751 0.013359 0.028672 
-0.026287 0.016060 0.076928 
0.025120 -0.000816 0.004858 
0.032062 0.004656 0.063155 
0.014270 0.029594 0.068107 
-0.010973 -0.030372 0.058229 
-0.022626 0.022648 0.094384 
0.010387 -0.029690 0.077576 
-0.009243 -0.028312 0.041009 
-0.012669 -0.022703 0.021298 
-0.001231 -0.018804 0.000000 
0.025458 0.023287 0.099000 
-0.025003 0.014886 0.019489 
0.016473 0.025321 0.031310 
0.009823 0.031640 0.071218 
0.027552 -0.008815 0.066351 
-0.014230 0.024796 0.054635 
-0.008808 -0.023616 0.002143 
0.030667 0.010128 0.058389 
-0.031048 0.014025 0.086020 
0.023778 -0.017692 0.051977 
-0.016860 -0.016334 0.001000 
0.027511 0.008399 0.015258 
0.012962 -0.021750 0.014209 
0.028087 0.005302 0.060076 
0.016230 -0.021741 0.037796 
0.008339 -0.025563 0.011179 
0.026028 -0.007907 0.045344 
-0.033370 0.003248 0.085553 
-0.030026 -0.001883 0.069967 
0.005842 0.027797 0.010780 
-0.027810 -0.015049 0.091139 
0.020685 -0.007604 0.001000 
0.023813 0.017630 0.046400 
-0.032274 -0.001566 0.059042 
0.026692 0.018443 0.066459 
-0.030714 -0.000000 0.030714 
-0.023393 -0.010727 0.001000 
0.026194 -0.021939 0.091874 
-0.005473 0.028811 0.059530 
0.016035 0.020923 0.028482 
-0.018094 -0.018734 0.000000 
0.020693 -0.002993 0.000000 
-0.023240 -0.011786 0.026504 
0.018644 0.025398 0.048122 
-0.020764 0.023470 0.089203 
-0.007482 0.019269 0.000000 
-0.017178 0.020624 0.001706 
0.031513 0.011301 0.077017 
0.032932 -0.002949 0.077113 
0.003035 -0.031548 0.055448 
-0.023952 -0.023285 0.077251 
-0.008454 -0.026203 0.014718 
0.017784 -0.028167 0.080820 
-0.022335 0.016601 0.018671 
0.015743 -0.027110 0.049875 
0.017851 0.023240 0.065150 
0.023370 0.024359 0.083324 
-0.017740 0.017669 0.001000 
0.005840 -0.028420 0.054700 
-0.011095 0.021964 0.001000 
-0.020534 -0.023922 0.092245 
0.023235 0.016494 0.042900 
-0.024959 -0.017031 0.064852 
-0.030290 0.000573 0.027554 
-0.004183 -0.027449 0.042683 
-0.002123 -0.034151 0.093774 
-0.001381 -0.030748 0.083505 
-0.009248 0.027306 0.044035 
-0.017917 0.025907 0.093695 
0.009469 0.028593 0.033621 
0.024205 -0.012911 0.005569 
-0.008598 0.028837 0.059858 
-0.027115 -0.000000 0.009889 
0.003706 0.024660 0.008170 
0.028338 -0.002701 0.052453 
0.012146 -0.030689 0.068405 
-0.008616 0.026237 0.007556 
-0.016526 0.011631 0.000000 
0.031121 -0.014737 0.093625 
-0.018936 -0.024934 0.091022 
-0.028668 -0.017636 0.086404 
-0.031232 0.001334 0.042817 
-0.023304 -0.018408 0.056848 
0.023370 0.005236 0.001431 
-0.017464 0.026141 0.046638 
-0.029703 0.003907 0.074256 
-0.011738 0.022775 0.000000 
0.025859 -0.002055 0.019107 
0.010134 0.009115 0.000000 
0.030975 -0.008732 0.056431 
0.010730 0.009005 0.000000 
0.027659 -0.000000 0.019375 
-0.031006 -0.008525 0.055960 
-0.025372 -0.017919 0.038541 
-0.001009 -0.027770 0.046650 
-0.028470 -0.001662 0.012250 
0.022138 0.019428 0.022961 
-0.017030 -0.018700 0.014220 
-0.031554 -0.000000 0.071072 
0.025881 0.009310 0.048614 
0.028269 0.013419 0.046214 
0.019405 -0.022609 0.070048 
0.025755 0.012626 0.012713 
-0.027840 0.019999 0.096775 
-0.033789 0.004576 0.095095 
0.001475 0.005556 0.000000 
-0.013981 -0.026987 0.075830 
-0.002397 0.027656 0.009937 
-0.025997 -0.013379 0.064183 
-0.028426 0.012434 0.040783 
-0.013665 0.029609 0.062732 
-0.012289 -0.026208 0.016204 
0.010630 0.025451 0.034790 
-0.001818 0.029051 0.023032 
-0.002789 -0.017327 0.000000 
-0.029221 0.014214 0.062414 
-0.005803 -0.032712 0.075164 
0.009911 -0.027136 0.047171 
0.023384 0.007006 0.008895 
-0.023575 0.008117 0.015852 
-0.000605 -0.025131 0.014000 
-0.032360 -0.011701 0.092561 
-0.015732 -0.027780 0.097168 
-0.008940 -0.005278 0.000000 
-0.021502 0.001236 0.000000 
-0.003906 -0.031454 0.092245 
-0.032196 0.000239 0.051505 
-0.020594 -0.011010 0.000000 
-0.020883 -0.023971 0.095350 
-0.021558 -0.020166 0.061183 
-0.028679 -0.000000 0.012926 
0.024054 0.006511 0.015152 
0.013195 -0.031893 0.093051 
-0.019285 -0.012666 0.000000 
0.031393 0.002631 0.089475 
0.032691 -0.000000 0.083798 
0.026703 0.012729 0.070133 
-0.022848 0.025914 0.096399 
0.013831 -0.029608 0.099000 
-0.032950 0.009865 0.093519 
0.027302 -0.020107 0.090303 
-0.020635 -0.023191 0.040988 
-0.021693 -0.004112 0.000000 
0.014623 0.028523 0.096752 
-0.024994 -0.018599 0.069078 
-0.017277 0.023346 0.016366 
-0.014879 -0.026742 0.040193 
0.018470 0.025019 0.088466 
-0.013089 -0.026674 0.026703 
0.030095 0.004248 0.080006 
0.031827 0.012850 0.090182 
-0.015494 -0.026444 0.040563 
-0.026000 0.003636 0.000718 
0.014907 -0.027715 0.090368 
-0.003963 0.027572 0.044207 
0.013368 0.025376 0.012840 
-0.007306 0.029120 0.063361 
-0.022789 0.021632 0.046730 
-0.009240 0.027249 0.043382 
0.000167 0.024197 0.002444 
0.013539 0.027678 0.040656 
0.018460 0.002432 0.000000 
0.026424 -0.012747 0.066951 
0.029911 0.004519 0.032070 
-0.008536 0.030457 0.079905 
-0.023067 0.012866 0.000128 
0.021118 -0.011678 0.000128 
0.031799 0.004868 0.059089 
0.031497 -0.006631 0.054703 
-0.018006 0.017863 0.013212 
-0.018872 0.024211 0.082953 
-0.006991 0.025476 0.018270 
-0.010771 -0.003533 0.001000 
-0.026717 0.012631 0.022842 
-0.015767 -0.022093 0.037842 
0.003966 -0.030485 0.080256 
-0.008049 -0.031547 0.060714 
-0.009157 0.028720 0.030609 
0.010636 0.009180 0.000000 
0.018818 0.002860 0.000000 
-0.014385 -0.028352 0.054122 
-0.001410 -0.028134 0.051154 
0.001521 -0.031613 0.049241 
0.013889 -0.024690 0.010270 
0.013941 0.027344 0.079288 
-0.011975 -0.025288 0.008524 
-0.024068 -0.006100 0.013635 
-0.032781 -0.002711 0.073664 
0.001915 0.025131 0.013991 
0.031209 -0.014554 0.093149 
0.029068 -0.000000 0.022540 
0.033239 -0.008925 0.094402 
-0.026361 0.007782 0.048870 
0.030321 0.006648 0.091025 
0.005699 -0.026773 0.004639 
0.030305 -0.015030 0.085010 
-0.025762 0.020819 0.075514 
-0.009809 -0.004335 0.000000 
-0.007650 0.025093 0.013521 
0.024774 0.010634 0.040344 
-0.033261 0.003099 0.083147 
0.004149 0.001523 0.001000 
-0.013169 0.026610 0.065835 
-0.007216 -0.033737 0.095133 
0.023049 -0.015741 0.038106 
0.031793 -0.004601 0.059003 
0.024899 0.021108 0.066219 
0.006902 0.027918 0.048484 
-0.020481 -0.002034 0.001000 
0.013497 -0.027388 0.076453 
-0.006965 -0.033480 0.089374 
-0.017337 0.028881 0.086598 
0.025798 0.016075 0.034945 
-0.026387 0.014166 0.030878 
0.014700 -0.011930 0.000000 
0.027482 0.009938 0.020348 
-0.014152 0.026667 0.034105 
0.008876 -0.026999 0.038044 
0.023805 -0.017717 0.053653 
-0.024985 -0.013539 0.052956 
-0.018953 0.023274 0.027587 
-0.024987 0.018269 0.045257 
0.026537 -0.006840 0.047236 
-0.009854 -0.030791 0.068653 
0.030707 -0.008551 0.052360 
0.012006 0.029226 0.048259 
0.009040 -0.028099 0.049165 
-0.010328 0.027005 0.016697 
-0.029036 0.006204 0.023593 
0.010049 0.024807 0.023710 
-0.030927 -0.013036 0.076894 
0.014141 0.026092 0.067598 
0.025461 -0.008111 0.039160 
0.016667 0.024894 0.073761 
0.024105 -0.022022 0.098774 
-0.029671 -0.006636 0.083417 
0.025709 -0.017273 0.043155 
-0.030017 -0.006580 0.087248 
0.023207 -0.022058 0.054897 
-0.027738 0.004386 0.010426 
-0.031509 0.003857 0.095116 
-0.012032 -0.012468 0.001000 
-0.022734 0.017335 0.012483 
-0.006408 0.025677 0.020757 
-0.024617 0.016889 0.060378 
-0.013506 0.020960 0.010521 
-0.020911 -0.014312 0.001000 
0.025783 0.016372 0.072153 
0.027977 -0.002819 0.048466 
-0.028971 -0.010145 0.087520 
0.018920 -0.022000 0.060047 
-0.032429 -0.000241 0.054878 
-0.022580 -0.008011 0.000000 
-0.008086 -0.025182 0.001231 
0.029806 -0.013699 0.065774 
-0.002452 0.001130 0.000000 
-0.013706 0.027499 0.079174 
-0.029731 -0.007419 0.035531 
0.023444 0.016117 0.044010 
-0.026036 0.003088 0.000215 
-0.016049 0.020788 0.027280 
0.033517 -0.002906 0.086552 
-0.022868 -0.014197 0.003000 
-0.004224 -0.014896 0.001000 
0.013479 -0.031075 0.081579 
0.008529 -0.015328 0.001000 
0.002107 0.027083 0.038148 
-0.011475 0.027734 0.065086 
-0.018177 0.021283 0.047480 
0.022280 0.009357 0.004933 
-0.001729 -0.031540 0.049194 
0.008136 -0.005405 0.001000 
-0.028980 -0.003413 0.022286 
0.033759 0.005966 0.094538 
-0.021053 -0.015440 0.013799 
0.026274 0.016910 0.079750 
-0.027197 -0.017528 0.064985 
0.026575 0.000927 0.023315 
0.007715 -0.025842 0.003842 
-0.012757 0.030112 0.062492 
0.028067 0.015784 0.061161 
0.021137 -0.022590 0.082710 
-0.029183 0.005659 0.024420 
-0.019317 -0.024940 0.047223 
-0.025660 0.019111 0.057377 
-0.032270 -0.013037 0.098194 
-0.009020 0.028337 0.053667 
-0.017744 -0.020136 0.000067 
-0.002472 -0.027646 0.008820 
0.020330 -0.026028 0.074684 
-0.010700 -0.007385 0.000000 
-0.009914 0.030884 0.066149 
-0.030104 0.007576 0.040823 
-0.012278 -0.007422 0.001000 
0.012047 0.028561 0.040168 
0.025610 0.015765 0.031785 
0.026405 -0.014454 0.033442 
-0.024379 0.019857 0.044950 
-0.027229 -0.012895 0.076843 
0.004997 0.029010 0.061995 
-0.026008 -0.018936 0.072662 
-0.026932 0.018839 0.094151 
-0.022403 -0.020162 0.029958 
-0.024851 0.006323 0.024243 
-0.025385 -0.018328 0.074351 
0.020800 -0.024569 0.057992 
-0.013826 0.029148 0.058729 
0.034583 -0.000000 0.094161 
0.031491 0.005255 0.054626 
0.009944 -0.019002 0.000000 
0.008533 0.017172 0.001000 
0.002992 0.033943 0.093912 
0.022508 0.016202 0.007389 
-0.000450 0.021754 0.001000 
-0.019319 -0.027918 0.091565 
-0.023186 0.017812 0.050239 
0.031825 -0.000000 0.072281 
0.027508 0.011916 0.076675 
-0.009676 -0.029090 0.065983 
-0.021856 0.026648 0.097406 
0.015237 0.029923 0.081622 
-0.017621 -0.020273 0.000670 
0.030713 -0.000000 0.058644 
0.011403 0.028815 0.075913 
0.004789 -0.026051 0.000307 
0.011811 -0.020400 0.001000 
0.010923 0.010479 0.001000 
0.009412 0.028892 0.061949 
0.026908 -0.005714 0.047187 
0.001189 0.031391 0.053166 
0.027450 0.001831 0.037873 
0.023370 -0.024591 0.086183 
0.009232 -0.017113 0.000000 
-0.013612 0.025072 0.052946 
0.014119 -0.025217 0.015880 
0.006038 -0.025676 0.020737 
0.024721 0.018067 0.037693 
-0.001880 -0.031993 0.098914 
-0.003954 0.032523 0.071669 
-0.005120 -0.031562 0.055652 
-0.023315 -0.023969 0.077838 
-0.025704 -0.015168 0.067025 
0.027816 -0.009946 0.073376 
-0.029093 0.003554 0.023476 
-0.014382 0.025090 0.058854 
0.025568 -0.018944 0.071722 
-0.012373 -0.003806 0.000000 
0.023307 0.009062 0.016425 
0.004948 0.013844 0.000000 
0.010367 -0.026372 0.042522 
0.026387 -0.003369 0.031064 
0.015666 -0.029433 0.078791 
0.016868 -0.020574 0.000060 
-0.022050 0.011205 0.009719 
-0.020905 -0.019860 0.053495 
-0.033073 0.001611 0.073287 
0.009127 0.027765 0.020474 
-0.029942 -0.000000 0.027471 
0.028175 -0.005734 0.013832 
-0.030320 0.015673 0.091159 
0.008513 0.024645 0.010597 
-0.021113 0.014054 0.009654 
0.024722 -0.018198 0.054410 
-0.009426 0.031501 0.066908 
-0.028051 0.010679 0.028912 
0.028235 0.007719 0.070471 
0.002107 0.031833 0.059573 
-0.018903 0.021762 0.057418 
0.010818 0.031345 0.098182 
-0.016877 0.025075 0.030308 
-0.031315 -0.000468 0.080084 
-0.010035 0.025977 0.035900 
0.012238 -0.025848 0.011842 
0.019308 -0.021763 0.060427 
0.025804 -0.016675 0.040886 
-0.012037 0.030391 0.097193 
-0.015091 0.020915 0.021573 
-0.005620 0.029039 0.022910 
-0.022349 0.016733 0.013564 
-0.031234 -0.008685 0.059463 
0.026702 -0.000000 0.005553 
0.004778 -0.028411 0.054591 
-0.015253 0.025999 0.034035 
0.012506 0.021479 0.008292 
-0.006414 0.030443 0.040225 
-0.032282 -0.009940 0.082006 
-0.002599 0.030668 0.082515 
-0.028452 -0.000000 0.034901 
-0.003739 0.009322 0.000000 
-0.013136 0.011976 0.001000 
0.009922 0.029663 0.073837 
0.031636 -0.000386 0.083713 
-0.034563 0.000939 0.095675 
0.024786 -0.011098 0.004208 
-0.003217 0.006639 0.000000 
0.028226 -0.004428 0.058182 
0.015917 -0.026316 0.083146 
0.031223 -0.009208 0.061488 
0.008207 -0.029397 0.034645 
0.031684 0.001536 0.089038 
0.026869 0.013601 0.032197 
0.031628 -0.005872 0.056599 
-0.025507 -0.018882 0.066845 
-0.018941 0.021832 0.058435 
0.016703 0.011861 0.001000 
-0.016257 0.026220 0.040941 
-0.020017 -0.019028 0.006273 
0.021279 0.002745 0.001000 
0.009857 0.031127 0.083121 
0.022889 0.018488 0.054614 
-0.010546 -0.031653 0.079725 
0.029740 0.007593 0.036373 
0.022856 0.021366 0.082602 
-0.010267 0.024289 0.000227 
0.004411 -0.028247 0.052560 
-0.019173 0.024834 0.091738 
-0.011933 -0.031823 0.085277 
0.024457 0.000038 0.001000 
-0.026591 -0.015366 0.041865 
0.017794 0.025719 0.090795 
0.031127 -0.000000 0.068558 
0.024615 -0.020793 0.089633 
-0.001134 -0.010148 0.000000 
-0.014419 -0.027896 0.049411 
-0.011835 0.025784 0.047239 
-0.028406 -0.012372 0.040118 
0.034516 -0.000819 0.094417 
-0.005518 0.003247 0.000000 
0.001270 -0.030228 0.077076 
-0.023566 -0.009948 0.000000 
-0.009910 0.025924 0.008027 
0.031484 0.014321 0.094812 
-0.024755 0.019827 0.081064 
-0.021884 -0.025101 0.076199 
0.011137 -0.024849 0.032221 
0.023345 -0.019375 0.066485 
0.003764 0.026979 0.036871 
0.012489 -0.026934 0.025226 
-0.028370 -0.007958 0.072882 
-0.000856 -0.031490 0.092685 
0.021149 0.016669 0.024447 
0.011826 0.028584 0.076626 
0.031580 0.002371 0.052874 
-0.029050 0.010839 0.090866 
0.011549 -0.027607 0.064299 
-0.015328 -0.029601 0.077989 
0.030628 -0.002646 0.040395 
-0.024177 -0.016802 0.020231 
-0.001880 0.025148 0.014201 
-0.029688 -0.006482 0.031410 
-0.002044 0.020793 0.001000 
-0.021293 -0.014359 0.012817 
0.013243 0.027324 0.073892 
0.006807 0.014343 0.001000 
-0.003680 0.028757 0.019949 
-0.024069 0.024000 0.087512 
-0.022170 -0.018116 0.014002 
-0.030469 -0.003703 0.082459 
-0.018652 0.021459 0.052618 
0.026518 0.018313 0.087487 
0.021453 -0.015321 0.000979 
0.024735 0.016793 0.026990 
-0.015787 0.024101 0.015677 
-0.021624 -0.018434 0.044931 
-0.010160 0.030201 0.081261 
-0.012463 0.028843 0.045523 
-0.008324 0.024990 0.010986 
-0.030606 -0.005704 0.041791 
0.019868 -0.025360 0.060931 
-0.032080 0.005949 0.063480 
-0.007553 -0.032717 0.099000 
-0.033622 0.007109 0.092683 
-0.009814 -0.021474 0.001000 
-0.027002 -0.016280 0.050752 
0.008611 -0.031764 0.066781 
0.020294 0.011294 0.001000 
0.003299 0.004948 0.000000 
0.026557 -0.004707 0.038690 
0.028017 -0.006453 0.063509 
-0.024822 -0.008847 0.000537 
-0.005490 0.029308 0.065688 
0.027312 0.002613 0.039394 
0.017827 0.007647 0.001000 
-0.031671 -0.009625 0.070662 
-0.014978 -0.028346 0.097525 
-0.021245 -0.024346 0.059270 
-0.019068 -0.028611 0.098862 
-0.032459 0.003302 0.070496 
0.019371 -0.024826 0.045876 
0.026717 -0.000446 0.023090 
-0.009925 0.032232 0.081132 
0.000076 -0.026272 0.028116 
0.010967 -0.021634 0.000000 
0.025842 0.002979 0.000000 
-0.027509 0.018055 0.098136 
-0.021083 0.024773 0.064240 
-0.022714 0.024505 0.077041 
-0.018822 -0.016867 0.009500 
-0.019777 -0.021930 0.065669 
0.009778 0.032479 0.084284 
-0.004588 0.028271 0.052857 
-0.003858 -0.006111 0.000000 
0.009691 -0.031195 0.089032 
0.019211 -0.025589 0.057298 
-0.013607 -0.026614 0.029694 
0.031271 0.010104 0.066847 
0.027036 -0.000333 0.026561 
0.030480 -0.002130 0.035750 
0.031905 0.010870 0.080950 
0.021311 0.016169 0.004407 
-0.031752 -0.004238 0.058397 
-0.006875 0.030304 0.078017 
-0.013893 -0.026610 0.031659 
0.005726 -0.024428 0.005296 
0.027388 -0.018411 0.097964 
0.030014 -0.009203 0.046448 
0.023281 -0.018481 0.024331 
0.028758 -0.000000 0.037179 
-0.018902 -0.027264 0.078639 
-0.005792 0.029059 0.062603 
-0.009620 0.029735 0.050217 
0.027509 -0.019760 0.089961 
-0.000183 -0.032343 0.053360 
0.028726 -0.005886 0.019626 
0.003412 -0.030675 0.042782 
-0.028210 -0.019337 0.095782 
-0.024091 -0.015351 0.011962 
0.016380 0.027503 0.057754 
0.006711 0.024476 0.005886 
-0.023697 -0.020614 0.080998 
-0.006469 0.030855 0.045572 
0.003342 0.027760 0.010560 
-0.009308 -0.026621 0.037285 
-0.010310 0.024747 0.025013 
0.034506 -0.001876 0.098589 
0.026741 -0.015632 0.045638 
0.025347 0.012408 0.053216 
-0.026089 0.001113 0.018066 
-0.024103 0.017590 0.056838 
-0.010508 0.032050 0.081334 
0.018003 -0.022791 0.017562 
-0.024657 0.011003 0.003381 
0.018450 -0.027442 0.076926 
-0.032227 -0.000000 0.084315 
-0.014527 -0.025774 0.067129 
-0.003717 -0.014991 0.001000 
-0.021092 -0.015104 0.013077 
0.012798 -0.030329 0.066153 
-0.028000 -0.010014 0.075748 
-0.030328 0.009076 0.049818 
-0.019029 0.013959 0.000000 
0.025277 -0.004134 0.020488 
0.017076 -0.025571 0.083910 
0.011466 -0.025580 0.042362 
0.033359 -0.004155 0.087143 
0.030710 -0.005134 0.043288 
-0.009531 0.032251 0.079357 
-0.021591 0.004672 0.001000 
0.007285 -0.031841 0.061203 
-0.025218 0.020169 0.061948 
0.029624 -0.005943 0.080444 
0.028377 -0.002678 0.052833 
-0.017029 0.024893 0.029121 
-0.023378 0.014449 0.006046 
0.020309 -0.026050 0.074807 
0.015249 0.003009 0.000000 
-0.013408 -0.031544 0.088647 
-0.010405 -0.030570 0.058328 
0.026947 -0.010435 0.016469 
-0.012934 0.026349 0.022209 
0.009566 0.030028 0.048323 
0.029713 0.014764 0.074341 
-0.023740 -0.012651 0.035355 
-0.008790 -0.021348 0.001000 
-0.019248 0.024967 0.093691 
0.023412 -0.013161 0.033313 
0.023782 -0.018097 0.057315 
0.023706 0.020610 0.081036 
0.008263 -0.027994 0.049422 
-0.011011 0.032138 0.085381 
0.032067 0.008901 0.073106 
-0.028252 0.012859 0.088626 
-0.023441 -0.017440 0.048597 
-0.013803 0.020807 0.011196 
0.022164 0.014254 0.000502 
0.009058 -0.027847 0.038067 
0.021518 0.004991 0.000000 
-0.004302 0.015823 0.001000 
-0.002278 0.031257 0.089811 
-0.020288 0.023264 0.083493 
-0.022993 0.024923 0.085625 
0.019452 0.000485 0.000000 
0.024510 0.016287 0.023448 
0.018025 -0.023912 0.025557 
-0.029037 -0.001162 0.016461 
-0.008525 -0.025986 0.021773 
-0.020100 -0.021175 0.060359 
0.024548 0.018202 0.054435 
-0.025445 -0.006794 0.033527 
0.020981 -0.027131 0.099000 
-0.024800 -0.021533 0.098792 
-0.031241 -0.000501 0.079295 
0.018424 0.027596 0.078813 
0.030650 0.011298 0.063313 
-0.027435 -0.008745 0.064747 
-0.009191 0.028308 0.042118 
0.022875 0.025639 0.092998 
-0.010913 -0.013807 0.000000 
0.027254 0.019402 0.083111 
-0.016373 0.029756 0.089818 
-0.018575 -0.021411 0.011942 
-0.023294 0.017364 0.046006 
0.025303 -0.007289 0.033822 
-0.006703 0.033670 0.092886 
-0.009779 0.031020 0.084521 
-0.031885 0.005670 0.060329 
-0.002611 0.028505 0.055745 
-0.014939 0.026559 0.078445 
-0.004423 0.013869 0.000000 
-0.031720 0.004211 0.098808 
-0.014178 -0.026941 0.076806 
-0.033097 0.004874 0.082301 
-0.023391 0.023332 0.070921 
-0.011516 0.019719 0.000000 
-0.024685 -0.021897 0.070542 
0.024228 0.016030 0.019324 
-0.003994 0.010429 0.000000 
-0.023844 0.018202 0.058771 
0.027541 -0.014071 0.043015 
-0.004662 -0.031497 0.054699 
0.028717 0.001481 0.052103 
-0.026791 0.010501 0.063379 
-0.020978 0.016043 0.000767 
-0.013893 0.027498 0.080547 
0.030640 0.006176 0.042281 
0.028675 -0.005296 0.019092 
-0.018953 0.026442 0.067692 
-0.027810 0.008822 0.019885 
0.007389 -0.025516 0.018758 
0.025193 0.012627 0.052193 
-0.004425 0.027222 0.007330 
-0.007549 -0.031399 0.056808 
-0.008312 0.024006 0.002383 
-0.030659 0.003940 0.085496 
-0.033044 0.008099 0.087794 
-0.006553 0.030769 0.083762 
-0.003080 -0.011474 0.000000 
0.001882 0.028135 0.013413 
-0.009251 -0.028596 0.046806 
0.005693 0.031084 0.048725 
0.007436 -0.019591 0.001000 
0.001690 -0.025834 0.022692 
-0.023921 -0.025077 0.098972 
-0.026748 -0.012937 0.071384 
0.018492 0.022423 0.018407 
-0.000349 0.026709 0.033529 
-0.009030 0.024672 0.014709 
-0.021493 0.016365 0.023994 
-0.002297 0.030095 0.075424 
0.027639 -0.008445 0.016767 
0.003826 0.028615 0.018461 
0.026986 0.015515 0.083165 
0.028099 -0.004211 0.055724 
-0.031189 0.005093 0.095706 
-0.031235 0.005320 0.050901 
0.031038 -0.000000 0.035924 
-0.013866 -0.022653 0.001036 
-0.007763 0.028566 0.024111 
-0.010949 -0.028819 0.072580 
-0.000329 -0.034084 0.084088 
-0.031637 -0.000489 0.084148 
-0.023906 0.004569 0.005314 
0.005866 0.030321 0.078218 
0.030321 0.002908 0.077846 
0.025473 0.011098 0.050114 
-0.032493 0.008905 0.082054 
0.028871 -0.013148 0.050797 
0.006539 0.030776 0.044875 
-0.023377 0.017403 0.045939 
0.025352 -0.015562 0.064296 
0.029114 -0.000000 0.029727 
0.004820 0.026815 0.034839 
0.009499 0.033263 0.099000 
0.025557 0.016741 0.070802 
0.010418 -0.023580 0.001000 
-0.019417 0.022159 0.023027 
0.022811 0.007113 0.002251 
0.027561 -0.000000 0.028635 
0.015479 -0.022426 0.004853 
0.016024 -0.028732 0.072377 
0.019670 -0.024600 0.045415 
-0.015666 0.022739 0.043651 
-0.002275 -0.033680 0.086648 
0.003769 0.028316 0.053407 
-0.022181 -0.024117 0.065676 
0.027811 -0.019202 0.088991 
-0.024866 0.016301 0.061225 
0.025289 -0.007004 0.032470 
0.007558 0.032808 0.099000 
-0.012120 -0.031825 0.086293 
-0.013589 -0.024553 0.008868 
0.027854 -0.019953 0.097274 
0.022267 0.016685 0.032690 
-0.026605 -0.010801 0.062252 
-0.031597 -0.011781 0.080880 
0.026779 -0.019819 0.093525 
-0.019578 0.026301 0.071525 
0.009451 -0.028515 0.036719 
0.012080 0.029508 0.088224 
0.004000 0.028323 0.015388 
-0.019242 -0.018891 0.032092 
-0.020978 0.019100 0.046687 
-0.012373 -0.028706 0.081968 
0.030393 -0.012471 0.065429 
-0.014180 -0.025432 0.060954 
-0.016267 0.023115 0.052070 
-0.007173 0.030168 0.076333 
0.031873 -0.000635 0.048720 
-0.022503 -0.018878 0.055588 
0.015098 0.024868 0.019562 
-0.021561 -0.015906 0.021342 
0.026200 -0.003011 0.027272 
0.031746 0.002097 0.091721 
-0.002718 -0.033824 0.090835 
0.007109 -0.027177 0.039313 
0.028714 -0.007537 0.075415 
-0.031266 -0.010034 0.066392 
-0.025961 -0.008837 0.047898 
0.004881 -0.015207 0.000000 
0.009445 0.029732 0.069709 
-0.012799 0.031876 0.090689 
-0.018275 0.027583 0.077259 
0.005833 0.007753 0.000000 
-0.021300 -0.025673 0.078747 
0.002998 -0.034047 0.095653 
0.002585 0.024133 0.001645 
0.006628 0.016131 0.000000 
-0.024746 -0.002110 0.005556 
-0.021506 -0.021884 0.036773 
-0.024806 0.001757 0.004841 
0.008937 -0.026880 0.030907 
0.022017 -0.018305 0.014251 
-0.000327 -0.017949 0.000000 
0.009054 -0.031546 0.065653 
0.021479 -0.024627 0.099000 
-0.012541 0.031702 0.086569 
0.026513 -0.014448 0.034585 
0.009040 -0.027758 0.034307 
-0.031639 -0.000000 0.047502 
0.010572 -0.011427 0.001000 
-0.001915 -0.033578 0.083497 
0.028846 0.014017 0.056826 
-0.003542 -0.030691 0.043024 
0.031047 0.002073 0.043704 
-0.008278 -0.008708 0.000000 
0.012083 0.007428 0.000000 
-0.007123 0.028800 0.059395 
-0.031582 0.011537 0.079356 
-0.024510 -0.012819 0.044902 
-0.011787 -0.010366 0.001000 
-0.004322 0.024623 0.007704 
-0.029807 -0.001596 0.026056 
0.029340 0.006182 0.077976 
0.022124 -0.022073 0.084608 
0.018116 -0.028149 0.083645 
0.023141 -0.017323 0.040493 
-0.005626 0.027900 0.048259 
-0.004875 0.031981 0.061728 
0.015421 -0.020909 0.023903 
-0.011316 0.023842 0.000852 
0.010055 0.023208 0.007241 
-0.018897 0.024655 0.038342 
-0.009147 -0.028461 0.029113 
0.014171 0.031575 0.094690 
-0.027686 0.007355 0.013448 
0.026224 -0.019046 0.070172 
0.011160 0.030584 0.092723 
-0.002681 0.000061 0.001000 
0.003772 -0.032675 0.099000 
-0.029135 -0.006096 0.024258 
0.014970 0.024611 0.058182 
-0.014675 0.026869 0.079746 
0.020770 -0.016229 0.017443 
0.009740 0.029526 0.050864 
-0.025760 -0.012989 0.015562 
0.012273 0.022426 0.015750 
0.027030 0.010758 0.018469 
0.017265 -0.022566 0.053706 
-0.018348 0.026702 0.065704 
0.020517 0.015362 0.005775 
-0.017366 0.026053 0.091133 
0.011222 0.025919 0.044115 
0.015602 0.018512 0.002060 
0.005858 -0.029996 0.074196 
0.002404 -0.026086 0.025809 
-0.028087 -0.008945 0.073037 
-0.017579 -0.024493 0.076315 
0.011129 -0.028400 0.034365 
0.001841 0.028188 0.013976 
0.002299 -0.024845 0.010457 
0.025440 0.021042 0.073112 
0.016569 0.001803 0.001000 
0.032847 0.001821 0.070400 
0.001334 -0.032152 0.056145 
-0.011148 -0.030294 0.089572 
-0.025916 0.012062 0.058635 
0.026976 0.019269 0.078035 
0.015209 -0.029139 0.099000 
0.024158 -0.009464 0.028620 
-0.000299 -0.026328 0.000000 
-0.029911 0.016199 0.090354 
-0.000381 0.029074 0.023274 
-0.020673 0.018444 0.007161 
0.010423 0.032157 0.089163 
0.007454 0.028530 0.056065 
-0.031136 -0.000000 0.071640 
-0.010096 -0.031390 0.068690 
-0.001958 0.024798 0.001000 
-0.007352 0.027187 0.039433 
-0.013554 -0.022998 0.030693 
-0.011887 0.022947 0.017980 
-0.019142 0.017900 0.001000 
0.002698 -0.027594 0.044481 
0.023288 0.024199 0.080334 
-0.017569 0.024546 0.027618 
-0.013531 -0.022819 0.028657 
0.031292 -0.000516 0.039729 
0.006890 0.025489 0.018420 
0.026086 -0.011753 0.012039 
-0.012178 0.029237 0.049108 
0.030926 -0.002344 0.043253 
0.025238 -0.017958 0.037879 
-0.020203 -0.025785 0.070144 
-0.003518 -0.030238 0.036447 
-0.008915 0.027177 0.037322 
-0.025493 -0.009359 0.044262 
-0.029934 -0.007390 0.037938 
0.023830 -0.020134 0.077326 
-0.020171 0.015116 0.001201 
-0.012916 -0.027908 0.038644 
0.026485 -0.019357 0.075202 
-0.006935 0.030937 0.085841 
-0.017708 -0.028554 0.099000 
0.014004 0.026090 0.026975 
-0.004537 -0.013835 0.001000 
0.004753 -0.008211 0.001000 
0.007955 -0.033069 0.086187 
-0.006640 -0.033774 0.094811 
0.018767 0.020271 0.041973 
0.023474 -0.020872 0.046005 
0.001037 -0.029421 0.020052 
0.025989 -0.009359 0.050041 
0.026495 -0.016428 0.080639 
-0.025908 -0.002534 0.021693 
0.029744 0.001789 0.066081 
0.007027 0.024028 0.000348 
0.008757 0.017390 0.001000 
0.026114 0.022768 0.098440 
0.019457 -0.020040 0.044753 
0.016064 0.025845 0.079277 
-0.014547 0.030275 0.080126 
0.028413 -0.009437 0.028371 
0.020972 -0.025658 0.075498 
0.022799 -0.016899 0.018149 
-0.005302 0.029896 0.072965 
-0.022377 0.009201 0.005497 
-0.010117 0.030756 0.076552 
0.029373 -0.006015 0.026465 
-0.008700 -0.026848 0.021689 
-0.022960 -0.016981 0.016205 
0.007682 -0.028181 0.019792 
-0.013350 -0.022486 0.024131 
0.013834 -0.027666 0.081882 
-0.018984 -0.021131 0.012803 
-0.024638 0.008564 0.030847 
0.008242 0.029649 0.069910 
0.026680 -0.014204 0.075016 
-0.014844 -0.025205 0.063492 
0.032184 0.012523 0.094106 
0.029233 -0.002326 0.061984 
0.013557 -0.029134 0.095272 
0.015200 -0.018973 0.003601 
-0.028763 -0.003876 0.020008 
0.028330 0.014708 0.096003 
-0.025861 0.019160 0.077360 
-0.027418 -0.005830 0.053967 
-0.009226 0.000169 0.000000 
0.018796 -0.015911 0.000080 
0.027092 0.006822 0.008195 
0.024210 -0.021209 0.091003 
-0.020158 -0.008577 0.001000 
-0.024084 0.020231 0.080113 
-0.025934 0.009212 0.048893 
0.012485 0.027455 0.069642 
-0.011989 0.025931 0.049932 
-0.011056 0.028302 0.067940 
0.014175 -0.030405 0.078482 
0.001370 -0.031057 0.087325 
-0.022192 0.012537 0.016919 
0.024642 -0.001166 0.000379 
0.004799 0.018394 0.001000 
0.006081 0.024569 0.007041 
0.027684 -0.004393 0.051336 
-0.000552 -0.031556 0.093505 
-0.016868 0.024474 0.024873 
-0.024583 -0.006357 0.021064 
0.026618 0.011239 0.015823 
0.017556 0.022411 0.011804 
0.015875 -0.019290 0.011554 
0.027203 0.016830 0.057765 
-0.018345 -0.016723 0.004652 
0.002706 0.029322 0.025880 
-0.008514 0.024944 0.013742 
-0.009210 -0.028252 0.050179 
0.003548 -0.020678 0.001000 
0.021381 0.023232 0.048595 
0.034092 -0.002646 0.099000 
0.028945 -0.014995 0.065821 
-0.026178 -0.004137 0.031638 
-0.031480 0.007129 0.056075 
-0.016105 -0.018361 0.004248 
0.001438 0.029291 0.065473 
-0.010604 -0.029997 0.082409 
0.033761 -0.001948 0.086635 
0.033773 -0.006087 0.094792 
0.027101 -0.010328 0.017707 
-0.012173 0.024524 0.036497 
-0.016489 -0.021144 0.033905 
0.025120 0.020903 0.094545 
-0.010509 0.032256 0.089627 
0.027676 -0.000185 0.004425 
-0.017279 0.017303 0.002527 
-0.018791 0.022091 0.018176 
0.001811 -0.012203 0.000000 
0.026483 0.009344 0.009931 
0.003245 -0.030409 0.079312 
0.021716 -0.020776 0.029444 
-0.008286 -0.032022 0.069140 
-0.009884 0.029995 0.062176 
-0.012087 -0.028622 0.078964 
0.030517 -0.000000 0.056475 
0.006927 -0.012261 0.001000 
0.033154 -0.005371 0.083347 
0.024567 -0.001930 0.002606 
0.012524 0.027888 0.074486 
0.025045 0.022234 0.099000 
0.019902 -0.016712 0.015827 
-0.006695 -0.025606 0.019874 
0.004871 0.006737 0.001000 
-0.027051 0.011399 0.069542 
-0.014508 -0.027055 0.080463 
-0.022428 0.023125 0.097929 
0.010429 0.031666 0.082390 
0.027132 0.014210 0.039583 
0.024026 -0.017782 0.037000 
0.007214 0.030687 0.046563 
0.033222 0.008395 0.091058 
0.009821 -0.029509 0.048198 
-0.021020 -0.026182 0.083209 
-0.025410 -0.007091 0.034323 
0.008657 -0.026142 0.027410 
0.009731 0.025952 0.033381 
-0.011651 -0.012577 0.000000 
0.029767 -0.007233 0.035209 
0.025053 0.018367 0.046242 
-0.005249 -0.028716 0.019516 
-0.031392 -0.001409 0.045502 
0.026506 0.013291 0.025022 
0.031842 -0.002612 0.094639 
-0.024683 -0.005139 0.017281 
-0.016997 0.017529 0.002675 
0.031972 -0.004798 0.061594 
-0.027911 -0.007668 0.066518 
-0.004719 0.025122 0.013888 
-0.015677 -0.027994 0.059590 
-0.003342 -0.018125 0.001000 
-0.033168 -0.002058 0.077344 
-0.024372 0.014302 0.010083 
-0.013436 -0.020032 0.000000 
-0.004136 -0.032884 0.078350 
-0.033009 -0.000000 0.065718 
-0.007468 -0.033689 0.095406 
0.026327 -0.005853 0.001962 
-0.003393 -0.023743 0.000000 
0.008838 0.026655 0.015332 
-0.020325 -0.000509 0.000000 
-0.004341 -0.029319 0.065825 
-0.010191 0.026754 0.045242 
-0.002286 0.024373 0.004610 
-0.027536 0.013216 0.036769 
0.029319 -0.000000 0.034450 
-0.017935 -0.025105 0.034075 
-0.024176 0.013710 0.044126 
-0.006713 -0.027053 0.037784 
-0.018784 -0.016784 0.008419 
0.006813 0.031274 0.090016 
-0.029936 -0.002078 0.029099 
0.018833 -0.027150 0.076410 
0.013815 -0.026186 0.026661 
0.027986 -0.018100 0.081225 
-0.027415 -0.008709 0.064384 
-0.011014 0.029640 0.049301 
0.029556 0.008445 0.037611 
0.026413 0.016536 0.080055 
0.025966 -0.022542 0.094292 
-0.030842 0.012406 0.072205 
0.027792 -0.003530 0.049107 
0.007129 -0.028910 0.025510 
-0.025847 -0.018965 0.068984 
-0.028241 -0.010983 0.031967 
0.024449 0.013123 0.007248 
-0.024882 -0.018152 0.039580 
0.004030 -0.025318 0.016305 
0.008685 -0.027052 0.037769 
0.002044 0.033846 0.088430 
-0.014042 -0.026336 0.069433 
-0.023912 -0.020490 0.048387 
0.016508 -0.024017 0.019675 
0.009534 0.032756 0.087708 
-0.026656 -0.006993 0.049339 
0.003859 -0.028785 0.059220 
0.009833 -0.031181 0.085184 
-0.025994 0.007132 0.003362 
0.005706 -0.031435 0.053802 
-0.017668 -0.029419 0.097114 
0.008167 -0.013268 0.001000 
-0.025201 0.015545 0.027441 
-0.026848 0.004742 0.042435 
0.003622 -0.030946 0.046716 
-0.004123 0.033678 0.093049 
0.018492 -0.027463 0.077602 
-0.023629 -0.011694 0.030713 
-0.023759 0.021717 0.056937 
0.012438 0.028030 0.036507 
-0.016862 0.018575 0.011799 
0.025801 0.017629 0.076756 
0.026153 0.019568 0.088685 
0.025030 -0.002473 0.010572 
0.016059 0.024386 0.063895 
0.027161 -0.013784 0.036811 
-0.012774 -0.021141 0.006970 
-0.033747 0.003172 0.091430 
0.010766 0.032306 0.089005 
0.033982 -0.004215 0.098670 
-0.026296 0.017219 0.081085 
0.003957 -0.031929 0.060970 
0.019099 0.004345 0.000000 
0.005861 -0.001377 0.000000 
-0.015212 0.027658 0.092029 
0.025124 -0.019001 0.046774 
-0.024936 0.023361 0.090333 
0.018420 -0.026012 0.055476 
0.009161 0.032624 0.083547 
0.002038 -0.027364 0.006260 
-0.033074 -0.001788 0.074400 
0.028027 0.004835 0.057409 
0.020989 0.015181 0.012146 
0.021977 -0.016363 0.007367 
-0.006690 -0.008601 0.000000 
0.016814 -0.022506 0.009280 
0.016364 0.020939 0.000581 
0.026928 -0.011272 0.019197 
0.012362 0.029024 0.085235 
-0.004256 -0.031572 0.055790 
0.009695 -0.030092 0.058457 
0.008592 -0.025251 0.017551 
-0.030605 0.007876 0.098625 
0.008426 0.032433 0.076610 
0.026425 -0.009913 0.057052 
0.000008 0.030988 0.086482 
-0.016227 0.027895 0.062641 
-0.015212 -0.030146 0.084495 
-0.004967 0.027289 0.040696 
0.031424 -0.003376 0.092442 
0.028331 -0.016768 0.073695 
0.014020 -0.001191 0.000000 
0.032063 0.013412 0.096897 
-0.018684 -0.020144 0.004970 
0.026896 -0.012299 0.022979 
-0.024900 0.023059 0.086169 
-0.025313 0.018229 0.041475 
0.009384 -0.028829 0.036763 
0.021901 -0.006747 0.000000 
-0.033571 0.006889 0.091065 
0.006705 -0.024679 0.008407 
0.002168 0.027047 0.037707 
-0.021232 0.023991 0.098149 
0.000133 -0.030746 0.030796 
0.025836 -0.018276 0.053194 
0.020839 -0.007469 0.000000 
-0.010258 -0.030886 0.061658 
-0.013877 -0.030236 0.073380 
-0.028194 -0.017476 0.078347 
-0.028178 0.000862 0.042882 
0.027743 -0.012064 0.079923 
-0.021163 0.015756 0.000602 
0.006760 -0.030748 0.045447 
-0.000468 0.031066 0.048457 
0.021464 0.020220 0.023784 
0.016281 -0.018044 0.002456 
0.014523 0.030861 0.088035 
-0.023308 -0.020474 0.076835 
0.002555 0.029208 0.024682 
-0.003681 0.019308 0.001000 
0.031820 -0.007548 0.062052 
0.010058 0.030421 0.055050 
-0.001556 -0.031703 0.050716 
-0.027518 0.013645 0.039688 
0.025674 0.003395 0.000000 
-0.000211 -0.031971 0.048094 
0.022612 -0.010663 0.000000 
0.021966 -0.019184 0.054649 
-0.017774 0.028301 0.082587 
-0.001253 -0.030749 0.035420 
0.006105 -0.030917 0.046290 
-0.022381 -0.022662 0.092708 
-0.001591 -0.009162 0.000000 
0.021091 -0.015741 0.007412 
-0.031291 -0.002713 0.050324 
-0.026237 0.002888 0.027226 
0.025592 -0.018743 0.057683 
0.027737 0.018371 0.080276 
0.029818 -0.012782 0.058829 
-0.033849 0.006781 0.096212 
0.018034 -0.026446 0.058548 
-0.009773 -0.026364 0.038037 
-0.013291 -0.027381 0.035623 
-0.021482 -0.018867 0.014446 
-0.024372 -0.006965 0.020958 
0.019784 -0.019747 0.044281 
0.012500 -0.026467 0.059368 
-0.030810 0.008185 0.052124 
-0.024254 -0.011804 0.003148 
-0.008947 -0.027721 0.044441 
-0.016784 0.027017 0.053995 
0.007519 0.015265 0.000000 
0.021037 0.019553 0.016128 
0.000186 0.033048 0.074921 
-0.009424 -0.031753 0.070892 
-0.027613 0.006329 0.058374 
0.001439 -0.022170 0.000000 
-0.008790 0.031190 0.059353 
-0.026848 0.010010 0.013943 
0.017502 0.026577 0.054674 
-0.013188 -0.000750 0.001000 
-0.016672 -0.029644 0.091020 
-0.003104 0.027993 0.049416 
-0.022983 0.021704 0.049307 
-0.014883 -0.025892 0.071008 
0.011762 -0.031211 0.074655 
0.027051 0.015024 0.082203 
-0.021252 0.021604 0.073191 
0.008857 0.026745 0.010444 
-0.015987 0.029150 0.077842 
-0.001693 -0.006204 0.000000 
0.015114 -0.029418 0.073484 
-0.030466 -0.004827 0.039755 
0.019443 0.020037 0.008879 
0.032432 -0.000175 0.092697 
-0.010570 -0.011015 0.001000 
0.027381 0.019733 0.087937 
0.003488 -0.030339 0.078445 
0.017120 -0.018612 0.014031 
-0.002218 0.012615 0.000000 
-0.006956 0.025837 0.001512 
0.013774 0.030483 0.075870 
-0.016839 0.027480 0.062542 
-0.009054 -0.028025 0.032668 
0.028610 0.001503 0.050879 
0.020124 0.027606 0.094678 
0.031603 0.009364 0.068200 
0.005149 -0.024389 0.004816 
0.025789 -0.010695 0.052379 
0.024021 -0.018445 0.062401 
-0.028432 -0.000297 0.043693 
-0.015229 -0.020661 0.020116 
-0.021625 -0.017754 0.038376 
0.031926 -0.000000 0.081493 
0.026337 -0.021439 0.089229 
0.005720 -0.031631 0.094430 
-0.019175 0.019713 0.039544 
0.002075 -0.012905 0.001000 
0.029520 0.017475 0.096740 
0.000730 -0.033442 0.074681 
0.022845 0.018946 0.058724 
-0.014906 -0.003686 0.000000 
0.027755 -0.004251 0.051626 
0.023806 0.023186 0.074235 
0.006356 0.025739 0.021523 
-0.009429 -0.028363 0.033072 
-0.004331 0.004907 0.001000 
0.022931 -0.020998 0.079280 
-0.021528 0.023657 0.054117 
0.014496 -0.021298 0.000000 
0.004683 0.031571 0.055783 
-0.032614 -0.000000 0.072317 
-0.022874 0.021009 0.078977 
-0.003680 0.031695 0.095229 
0.004256 0.011853 0.001000 
0.014998 -0.026145 0.034559 
-0.032038 -0.007226 0.063801 
-0.030027 0.015607 0.086488 
0.014330 -0.031764 0.098781 
-0.013047 -0.010351 0.001000 
-0.022368 0.022457 0.090451 
-0.000764 -0.032511 0.058594 
0.011519 -0.023961 0.025718 
0.030470 -0.000000 0.057113 
0.009416 -0.015066 0.000000 
-0.022962 -0.017018 0.021018 
-0.019145 -0.025214 0.050003 
-0.027196 0.015125 0.046911 
0.019734 0.000353 0.000000 
-0.010681 0.031502 0.098813 
-0.028086 -0.019148 0.092320 
-0.024960 -0.008536 0.034712 
-0.022030 -0.017518 0.039025 
-0.004669 -0.024649 0.008032 
-0.018981 -0.026723 0.071860 
-0.017619 -0.020442 0.002011 
0.025701 -0.005426 0.031052 
-0.031012 -0.006171 0.047681 
0.000101 -0.028241 0.052486 
0.003204 -0.029444 0.067367 
-0.028716 -0.003406 0.060039 
0.031665 0.007370 0.059370 
-0.003673 0.033170 0.083652 
0.004580 -0.029326 0.065907 
0.009271 -0.031295 0.062822 
-0.014325 0.010969 0.001000 
0.032107 -0.000907 0.053427 
-0.028309 0.009271 0.026692 
0.025858 -0.006615 0.037903 
0.022235 0.022174 0.086489 
-0.009703 0.030857 0.084852 
0.018286 0.025224 0.040408 
0.031582 0.004615 0.055945 
-0.016384 0.022537 0.046858 
-0.028459 -0.014592 0.056782 
-0.032316 -0.000000 0.076028 
-0.027790 -0.003593 0.049349 
0.015376 0.009900 0.001000 
0.027752 0.006315 0.059947 
0.007755 0.024196 0.001000 
0.007520 -0.030492 0.045409 
-0.013087 -0.023461 0.032096 
-0.015511 0.022017 0.035261 
-0.001208 -0.032928 0.068120 
-0.015853 0.005448 0.001000 
-0.023351 0.008215 0.000000 
-0.031254 0.011386 0.073356 
0.014686 0.030262 0.081228 
-0.024090 0.021638 0.059369 
0.032578 0.008277 0.078591 
-0.017396 -0.018935 0.019142 
0.032677 -0.010255 0.090625 
-0.002457 -0.031440 0.051259 
-0.028983 -0.005096 0.070015 
-0.012242 -0.029949 0.058223 
0.015323 0.026281 0.078368 
0.003767 -0.033383 0.099000 
-0.021343 -0.021604 0.073873 
-0.018827 0.021680 0.056026 
0.027377 0.011692 0.025378 
-0.010184 0.026919 0.046922 
-0.031142 -0.004984 0.094773 
0.026608 0.016344 0.081663 
0.028745 -0.015868 0.071114 
-0.012424 -0.028872 0.084098 
0.028573 0.013059 0.046909 
0.005314 -0.031828 0.096877 
0.005846 0.032092 0.063710 
0.026141 0.019827 0.071610 
0.027351 -0.013029 0.078736 
0.013037 -0.017813 0.000000 
-0.005316 0.030185 0.035676 
0.022103 0.015411 0.003198 
0.026717 0.010802 0.063569 
0.026915 0.016991 0.087494 
-0.006192 0.031023 0.047832 
-0.020711 -0.025462 0.070366 
-0.010040 0.029319 0.041273 
0.028793 0.009121 0.081867 
-0.014574 -0.023764 0.046330 
0.005357 0.024798 0.000000 
-0.005949 0.032802 0.076830 
-0.008278 0.024352 0.005768 
0.012983 0.024396 0.041169 
0.023705 -0.003882 0.000000 
-0.031722 0.002791 0.056965 
-0.012489 0.029406 0.052506 
0.024531 -0.002592 0.000000 
-0.024762 0.022034 0.072894 
-0.024599 0.011836 0.042509 
-0.009076 0.028250 0.052699 
-0.021500 -0.023274 0.092598 
-0.030482 -0.000000 0.056365 
0.009508 0.030873 0.058382 
0.033063 -0.008956 0.091640 
0.028884 -0.010589 0.038135 
0.009319 -0.028889 0.050961 
-0.026425 -0.012590 0.066412 
-0.007885 -0.032501 0.075351 
-0.003338 0.028216 0.014270 
0.026645 0.010467 0.061555 
-0.026517 0.011854 0.064913 
-0.005522 0.004455 0.000000 
-0.001511 0.024076 0.000941 
0.006373 0.007632 0.001000 
-0.012152 -0.028732 0.042731 
-0.026165 -0.019402 0.086914 
-0.024409 -0.015650 0.016010 
-0.011285 -0.022707 0.011306 
0.023279 -0.017593 0.048796 
-0.004789 -0.029500 0.068066 
0.024463 0.002553 0.003892 
-0.015346 -0.022204 0.035866 
0.008320 -0.025637 0.010557 
0.001567 0.031274 0.051471 
-0.027166 0.003602 0.041665 
-0.001444 0.033044 0.074875 
-0.011190 0.030239 0.089307 
-0.029510 -0.000420 0.018821 
-0.030931 -0.002973 0.046366 
-0.021822 -0.008488 0.001000 
0.029161 -0.000000 0.036758 
0.013320 -0.027041 0.032169 
-0.007148 -0.027705 0.045849 
-0.019628 -0.023172 0.077629 
0.028675 -0.007002 0.022591 
0.008655 0.025859 0.024416 
0.009561 -0.029602 0.046846 
0.029278 0.017988 0.098123 
0.018790 -0.022081 0.059934 
-0.011896 0.007667 0.001000 
0.004752 0.001018 0.001000 
-0.022037 0.011631 0.011313 
0.030471 -0.001730 0.033692 
0.019459 -0.019909 0.043490 
-0.029098 0.012789 0.050660 
-0.026631 -0.012556 0.068687 
-0.006123 0.030015 0.033693 
-0.027385 -0.007221 0.058830 
-0.022228 -0.016589 0.030953 
-0.031468 0.014114 0.092668 
-0.000807 0.024308 0.003811 
-0.027703 -0.009616 0.021536 
-0.013300 0.024723 0.046958 
0.027981 -0.004597 0.011889 
-0.009893 -0.029738 0.074406 
-0.020822 0.025051 0.065678 
0.021060 -0.016796 0.025025 
-0.009804 -0.030389 0.075655 
-0.013575 -0.029632 0.062208 
-0.003246 0.032160 0.064959 
0.024370 -0.008826 0.028610 
-0.005150 0.030248 0.077321 
-0.025816 -0.006706 0.001013 
-0.002329 -0.018157 0.001000 
-0.029711 0.015818 0.084054 
