
# .PCD v.6 - Point Cloud Data file format
FIELDS x y z 
SIZE 4 4 4 
TYPE F F F 
COUNT 1 1 1 
WIDTH 1647
HEIGHT 1
VIEWPOINT 0.000000 0.000000 0.000000 1.000000 0.000000 0.000000 0.00000
POINTS 1647
DATA ascii
0.005920 -0.031962 0.065381 
-0.032318 0.004918 0.028038 
-0.026624 0.017406 0.015860 
-0.011947 0.024895 0.000000 
-0.027724 -0.014757 0.007500 
-0.027639 -0.010892 0.000000 
0.031144 -0.000000 0.016341 
0.018437 -0.025628 0.061282 
0.004062 -0.016120 0.000000 
-0.031451 -0.013530 0.049342 
-0.008110 0.028879 0.014497 
-0.031601 0.008137 0.021719 
-0.017704 0.024061 0.037655 
-0.031050 -0.001924 0.036028 
0.026903 0.019927 0.043160 
0.014311 0.026100 0.031352 
-0.002053 0.012739 0.000000 
0.015702 -0.006530 0.001000 
0.034411 -0.002510 0.051281 
0.007038 0.028676 0.011152 
0.017581 -0.022168 0.012544 
-0.017361 -0.029547 0.059205 
-0.022683 0.013651 0.000000 
0.019581 0.028255 0.055635 
-0.005532 0.033229 0.036063 
-0.006625 -0.031947 0.021259 
-0.001091 0.034678 0.057939 
0.026543 -0.016332 0.043250 
-0.004926 0.030578 0.042532 
0.029230 -0.016093 0.036720 
0.023253 0.021065 0.048091 
-0.026549 -0.008759 0.001000 
0.010169 -0.032169 0.058742 
0.002568 -0.033056 0.029425 
-0.019250 -0.024704 0.055257 
-0.032497 -0.000000 0.035132 
-0.021691 -0.022510 0.048643 
0.015438 -0.000089 0.000000 
-0.029527 -0.011733 0.009464 
0.009592 -0.031270 0.053950 
-0.031233 -0.005428 0.054669 
0.030968 0.008360 0.064621 
-0.011830 -0.027689 0.023656 
0.033717 -0.003408 0.038307 
-0.016014 0.015687 0.000000 
-0.026165 -0.019682 0.029072 
-0.026508 0.019575 0.055091 
-0.009319 0.029676 0.012900 
-0.000504 -0.032417 0.019099 
-0.006893 -0.031807 0.019301 
-0.017905 -0.027471 0.030452 
0.008702 -0.009968 0.000000 
0.032920 -0.000000 0.045867 
0.005515 0.029648 0.027190 
-0.033538 0.006892 0.053555 
0.028849 -0.008343 0.036848 
-0.006459 0.030969 0.048986 
-0.020193 -0.021319 0.022712 
-0.027206 0.016704 0.053617 
0.007295 -0.029621 0.026745 
0.029182 0.013258 0.063670 
-0.026391 -0.012738 0.024823 
-0.025106 0.000692 0.001000 
-0.021881 -0.019445 0.016822 
0.019595 0.007181 0.000000 
-0.021640 -0.018475 0.004361 
-0.021239 -0.022936 0.050139 
-0.009695 -0.030271 0.010368 
-0.009894 -0.031575 0.053472 
0.014707 0.001172 0.000000 
0.006805 0.006622 0.001000 
0.028084 0.014965 0.013512 
0.013689 0.013120 0.001000 
0.017870 0.029455 0.066000 
-0.020107 -0.025512 0.024855 
-0.004584 -0.031137 0.051767 
0.006602 -0.017785 0.001000 
-0.031598 -0.003318 0.049746 
-0.033959 -0.000114 0.040220 
-0.030491 0.008121 0.057287 
0.031055 -0.003504 0.043455 
-0.033367 -0.000000 0.052797 
0.014854 -0.024060 0.009094 
0.030112 -0.008231 0.052834 
-0.009912 -0.031604 0.036551 
0.010856 0.029950 0.011302 
-0.030525 -0.004396 0.040605 
-0.019663 0.024567 0.013672 
-0.017214 0.026216 0.058164 
-0.032445 0.009248 0.044633 
-0.025293 -0.020894 0.061640 
-0.002812 -0.006610 0.001000 
0.020419 0.021871 0.034559 
-0.019495 0.020900 0.015808 
0.010398 0.022234 0.001000 
0.028818 -0.018021 0.049221 
-0.008856 0.031192 0.052666 
-0.028389 -0.014889 0.017076 
0.016937 0.026830 0.014369 
0.002773 -0.029345 0.022198 
0.028132 0.014657 0.056361 
-0.017384 0.027246 0.023924 
0.029215 -0.005035 0.026292 
-0.034231 0.002912 0.046770 
0.017441 0.024812 0.002106 
0.019409 0.023323 0.004459 
-0.025725 -0.016694 0.034216 
-0.021641 -0.025940 0.041513 
0.031540 0.009468 0.028879 
0.030015 0.005507 0.039049 
-0.028188 0.020159 0.062136 
-0.010482 -0.005839 0.001000 
0.011752 -0.028287 0.001228 
0.017296 -0.029922 0.057795 
-0.009680 -0.030719 0.041639 
-0.002768 0.034773 0.060336 
-0.019704 0.002756 0.001000 
-0.016768 0.028668 0.035447 
0.029505 -0.014321 0.026402 
-0.018854 -0.023818 0.005060 
-0.016392 -0.024473 0.024507 
0.015476 -0.025178 0.031251 
-0.001992 -0.029306 0.021549 
0.008749 -0.032009 0.033246 
0.023594 -0.018706 0.024093 
-0.000338 0.034349 0.049719 
-0.033508 -0.006329 0.048098 
0.011755 0.030314 0.020585 
0.013070 0.030945 0.035795 
0.014551 0.027418 0.050473 
-0.023581 -0.018671 0.022859 
0.003678 0.034909 0.063725 
0.027193 0.007098 0.009221 
-0.023625 -0.018249 0.018694 
0.022138 0.020091 0.028139 
-0.023955 -0.016063 0.008200 
-0.027038 -0.013129 0.035064 
-0.012702 -0.032181 0.059703 
-0.013631 -0.031280 0.044912 
-0.029918 -0.005305 0.036829 
-0.010674 -0.033039 0.065160 
-0.021571 0.026197 0.044673 
-0.030356 -0.011893 0.021817 
-0.034297 -0.000000 0.049219 
0.015323 0.030386 0.047707 
-0.018386 0.022109 0.020454 
0.028784 -0.013961 0.013941 
-0.015287 -0.028247 0.018798 
0.023894 0.017675 0.014461 
-0.029455 -0.007579 0.041260 
0.029938 -0.006219 0.041357 
0.032256 0.000188 0.043853 
-0.005519 -0.030387 0.039388 
-0.027311 0.009899 0.023823 
-0.027743 0.019051 0.043751 
0.013663 -0.029333 0.065081 
-0.031205 0.002024 0.038532 
0.025497 0.004043 0.001000 
-0.025404 0.016706 0.004331 
0.008917 -0.030960 0.048837 
0.024007 0.017925 0.018536 
0.018513 0.013592 0.000000 
-0.028772 0.017675 0.046562 
0.011338 -0.028295 0.000449 
0.003508 0.034365 0.050122 
-0.027047 0.011778 0.029008 
-0.016500 -0.027101 0.061636 
0.007289 0.028674 0.011118 
0.030409 0.008794 0.059289 
-0.020366 -0.019145 0.000000 
0.007393 0.013608 0.001000 
0.034448 0.002370 0.052195 
-0.011849 -0.004109 0.001000 
0.028636 0.002629 0.007437 
-0.008169 0.011170 0.000000 
-0.000820 0.031892 0.064221 
0.032503 0.003395 0.061961 
-0.026365 -0.021774 0.049224 
0.018276 -0.003802 0.001000 
-0.006010 -0.028002 0.000033 
-0.016889 -0.012263 0.001000 
0.007634 0.030855 0.047103 
0.031204 0.005348 0.010858 
-0.009575 -0.027606 0.000616 
-0.028200 0.015239 0.017703 
0.008332 0.030430 0.040088 
0.002720 0.027461 0.000000 
-0.025268 -0.021655 0.033836 
-0.034392 0.004603 0.055814 
-0.017612 -0.027872 0.032791 
0.003339 0.028484 0.007985 
-0.025678 0.017941 0.039310 
-0.011270 -0.030256 0.017515 
0.011656 -0.030654 0.025908 
0.029648 0.002098 0.018323 
-0.012252 0.012075 0.000000 
-0.011678 -0.030429 0.021836 
-0.027282 -0.015975 0.011719 
-0.027568 0.014480 0.005862 
0.009972 0.029534 0.031681 
0.021396 0.026878 0.053126 
-0.002708 -0.032362 0.024152 
0.018790 -0.021702 0.019228 
0.008681 0.029258 0.000907 
0.027257 0.020257 0.063957 
-0.023547 -0.017378 0.007414 
-0.022233 0.019053 0.017133 
0.007174 0.015982 0.001000 
-0.030728 -0.013506 0.034778 
0.010381 -0.033125 0.065264 
0.014282 0.024198 0.004802 
-0.021307 0.027518 0.061845 
-0.025320 -0.016185 0.000528 
0.011836 -0.010846 0.000000 
0.031410 0.011989 0.039244 
-0.025158 0.023467 0.056615 
0.007835 0.029095 0.018071 
-0.001249 0.031268 0.053916 
0.009265 -0.029466 0.005433 
-0.013916 0.030882 0.039018 
-0.026566 0.019566 0.037351 
0.026704 -0.006999 0.000000 
0.033208 0.001142 0.026792 
-0.008951 -0.031242 0.020488 
0.008345 0.032905 0.049836 
-0.027405 -0.009713 0.024191 
0.012377 0.015536 0.001000 
-0.027657 -0.019777 0.048629 
-0.021731 -0.025747 0.039868 
0.004038 0.030924 0.007390 
-0.024170 0.020286 0.046601 
0.008346 -0.000318 0.001000 
0.025654 -0.014704 0.024189 
-0.026580 0.001738 0.000000 
-0.027420 -0.010609 0.028533 
0.018312 0.021008 0.004475 
0.000381 -0.025226 0.001000 
-0.023662 0.021449 0.055716 
-0.019218 0.029095 0.066000 
0.028705 0.005124 0.019974 
-0.011455 -0.032128 0.050846 
-0.005652 -0.031509 0.015132 
0.014051 -0.031061 0.043173 
0.000507 -0.029494 0.024658 
-0.016244 -0.028280 0.027047 
0.015699 -0.027924 0.018130 
-0.020957 0.026029 0.066000 
-0.025318 0.013632 0.014895 
-0.025544 0.016712 0.031930 
-0.015425 -0.013583 0.001000 
-0.019471 0.022529 0.000313 
0.032158 0.001922 0.020593 
-0.010439 -0.032371 0.066000 
0.023042 -0.020402 0.038892 
-0.024502 -0.017886 0.012768 
0.027529 0.016885 0.058660 
0.026057 -0.012271 0.018325 
-0.001445 -0.031862 0.063715 
0.000433 -0.034454 0.052338 
0.026093 0.014653 0.029682 
-0.025771 0.020962 0.034299 
0.002201 0.022195 0.001000 
0.000902 -0.031235 0.053380 
0.027693 -0.006265 0.011942 
-0.028378 0.015714 0.024132 
-0.006680 -0.029062 0.000000 
0.013031 0.029133 0.010156 
0.020273 0.024303 0.014873 
0.023369 0.021053 0.048884 
-0.027292 0.020292 0.048682 
-0.031193 -0.001637 0.036568 
0.011428 0.001620 0.000000 
0.015480 -0.030507 0.048403 
-0.025521 -0.013328 0.016154 
-0.030423 -0.013055 0.028284 
-0.005417 0.030000 0.000833 
0.008661 -0.031529 0.058230 
0.018069 0.025575 0.012512 
-0.019601 -0.028224 0.055381 
0.021320 -0.026165 0.041677 
-0.029350 0.018034 0.063782 
0.020691 -0.024199 0.063112 
-0.007333 0.006348 0.001000 
0.019786 -0.022707 0.001969 
0.012858 0.029064 0.055591 
-0.021593 0.020038 0.023175 
0.008674 -0.005130 0.000000 
0.020357 -0.024567 0.064617 
-0.021399 -0.021279 0.032461 
-0.012405 0.011947 0.000000 
0.028083 0.018460 0.041847 
-0.020211 -0.025194 0.022016 
-0.008533 -0.031636 0.024792 
-0.023892 0.024432 0.049083 
0.027899 0.007626 0.000000 
0.020761 -0.025453 0.029151 
-0.026342 0.006242 0.000000 
-0.019493 0.010475 0.000000 
0.028536 0.014215 0.012842 
-0.013553 -0.001882 0.001000 
0.032394 -0.003611 0.025744 
0.024404 -0.018053 0.018689 
0.021398 -0.002366 0.000000 
0.000014 -0.029073 0.017711 
-0.026831 -0.011578 0.025272 
-0.011566 0.029750 0.051942 
0.024637 0.018422 0.014190 
0.023259 -0.017984 0.013220 
0.026347 0.021063 0.041830 
0.014820 0.025891 0.033975 
0.013600 0.003529 0.000000 
0.010162 -0.030475 0.015399 
-0.020281 -0.026686 0.039562 
0.023229 0.024624 0.039604 
-0.014721 0.013997 0.000000 
0.022508 0.005178 0.000000 
0.013776 0.027581 0.045977 
0.029892 0.012985 0.020415 
0.002225 -0.021684 0.000000 
-0.031630 -0.007490 0.019109 
0.009418 -0.032068 0.038599 
-0.032211 -0.004935 0.065186 
-0.026442 -0.010526 0.001000 
0.027116 0.009417 0.019005 
0.003624 0.023296 0.000000 
-0.033039 -0.005618 0.037567 
-0.009971 0.031528 0.052936 
-0.010521 -0.031352 0.062067 
-0.018022 0.020916 0.000068 
0.028497 0.019311 0.056567 
0.001356 -0.028586 0.009666 
0.026353 -0.018122 0.048952 
0.019501 -0.021886 0.027380 
0.028612 0.005217 0.019177 
0.010748 0.026133 0.001000 
-0.032102 0.006671 0.023936 
0.030848 0.000626 0.006787 
-0.009989 -0.031957 0.042452 
-0.009165 -0.029465 0.010033 
0.030379 -0.002551 0.030087 
0.003992 -0.034400 0.050992 
-0.018728 0.023317 0.037415 
0.009428 0.031530 0.028454 
0.013365 -0.026470 0.026205 
0.017286 -0.008402 0.000000 
0.005248 -0.031656 0.060328 
-0.012472 0.030310 0.023908 
-0.011455 -0.022333 0.001000 
-0.015931 -0.027491 0.061475 
0.025492 0.011669 0.008051 
0.027502 0.020502 0.063602 
0.031563 0.006927 0.015882 
-0.005041 -0.031265 0.011704 
-0.027616 -0.020616 0.064680 
0.033706 0.000040 0.035405 
-0.016685 -0.028032 0.027564 
-0.022922 0.009331 0.001000 
0.002131 -0.022589 0.000000 
-0.022102 -0.020529 0.030337 
0.032219 -0.005043 0.024079 
-0.022419 -0.022370 0.013524 
0.022364 0.012011 0.001000 
-0.006680 -0.005262 0.001000 
-0.000400 -0.031663 0.060444 
-0.030613 0.004048 0.040154 
-0.023292 0.022447 0.064066 
0.011063 0.030547 0.057488 
-0.021042 0.026219 0.040011 
-0.002205 0.006475 0.000000 
0.015776 -0.028677 0.028013 
-0.021942 -0.020275 0.000869 
0.011437 -0.032718 0.063446 
-0.027067 0.017810 0.056861 
-0.029243 -0.005891 0.001000 
-0.029667 -0.000000 0.000872 
0.030379 0.015286 0.044539 
0.001225 0.033267 0.034036 
0.008835 -0.030219 0.036612 
-0.034848 -0.001335 0.062195 
-0.016385 -0.012232 0.001000 
0.031072 0.004896 0.050135 
0.027489 -0.010418 0.028560 
0.024539 -0.017014 0.001000 
-0.017330 0.024701 0.002036 
-0.009796 -0.028600 0.016302 
0.027744 0.020747 0.065784 
-0.025023 0.014122 0.013269 
0.027038 -0.020107 0.061452 
-0.005828 -0.030394 0.039509 
-0.017889 0.011424 0.000000 
0.022434 -0.019717 0.001176 
-0.005767 -0.015684 0.001000 
-0.027047 -0.014839 0.004512 
-0.034026 -0.005302 0.052490 
-0.024338 -0.023894 0.046802 
0.023546 -0.020088 0.007703 
0.025193 -0.017397 0.006327 
0.011609 -0.027571 0.022355 
-0.023407 -0.019592 0.031287 
0.025101 -0.018855 0.013642 
0.025800 -0.015340 0.000211 
-0.003102 0.032283 0.024692 
0.012130 -0.029477 0.054290 
0.009966 -0.031877 0.039598 
0.000545 0.029169 0.019281 
-0.015022 0.024963 0.023367 
0.010455 -0.033102 0.065154 
0.011846 0.028082 0.031970 
0.032376 -0.000535 0.018885 
0.031182 -0.007235 0.011638 
-0.017887 -0.005410 0.000000 
-0.008137 -0.009701 0.000000 
-0.006304 0.033404 0.045303 
-0.014847 -0.025600 0.024221 
0.028689 0.017122 0.038383 
-0.010585 0.027698 0.013020 
-0.010473 -0.026932 0.000958 
-0.002423 -0.030099 0.034641 
-0.009454 0.028904 0.017384 
0.022401 0.018545 0.012719 
-0.013090 0.001851 0.000000 
-0.014139 0.027196 0.044596 
0.021858 -0.025170 0.034261 
0.030219 0.006201 0.044945 
0.025239 0.019377 0.044853 
-0.029629 -0.009345 0.051621 
-0.026490 0.019490 0.032961 
0.002167 0.030573 0.042459 
-0.010000 -0.031404 0.042169 
0.033994 0.005498 0.053336 
-0.016724 0.027390 0.020218 
0.016508 0.023878 0.024510 
0.028766 -0.005672 0.023339 
0.031270 0.011782 0.035592 
0.030043 0.008294 0.052228 
-0.001553 -0.032011 0.018698 
-0.004685 -0.028482 0.007955 
0.024193 0.017898 0.019450 
0.012285 -0.032430 0.063339 
-0.009522 0.031395 0.056019 
0.031723 -0.007869 0.022236 
-0.012641 -0.027257 0.025634 
0.007317 0.017655 0.000000 
0.030585 -0.000759 0.024451 
0.015746 -0.026435 0.004473 
0.032056 0.008082 0.029918 
0.025020 0.023354 0.050352 
0.007495 0.033399 0.055102 
-0.007459 -0.028453 0.007467 
0.011566 0.026106 0.001678 
-0.028290 0.014763 0.058901 
-0.021132 -0.024867 0.025284 
0.022171 0.020032 0.027726 
-0.026381 0.019436 0.050794 
0.016412 -0.030491 0.058416 
0.010021 -0.027235 0.000508 
0.013847 -0.028560 0.057792 
-0.015891 -0.022742 0.001678 
-0.025584 0.018466 0.015345 
-0.016573 -0.025531 0.040346 
-0.021048 0.021775 0.038493 
0.028324 0.001371 0.001000 
-0.031519 -0.003362 0.048919 
-0.011274 0.006873 0.000000 
-0.010281 -0.028084 0.013864 
0.012245 -0.032257 0.059854 
-0.018535 -0.029163 0.064252 
0.011006 0.026436 0.000000 
0.031943 -0.002760 0.021041 
-0.019683 -0.003682 0.000000 
0.033293 0.009482 0.063842 
0.033679 0.005906 0.048861 
0.027903 0.007055 0.018391 
0.026279 0.013759 0.028023 
-0.031866 0.001667 0.045594 
0.019380 -0.021167 0.018240 
-0.025913 0.018913 0.021650 
-0.021316 0.025348 0.032169 
-0.025795 0.011441 0.010997 
0.030764 -0.008506 0.062616 
0.024850 0.024086 0.064391 
-0.020462 -0.024352 0.062304 
0.021824 0.027049 0.062822 
-0.031707 -0.004095 0.017899 
-0.023236 0.019373 0.028780 
-0.003697 0.012081 0.001000 
-0.000167 -0.031096 0.051084 
0.023197 -0.022817 0.022131 
0.028702 -0.014981 0.065283 
-0.025865 0.006024 0.000000 
-0.029259 0.007989 0.040583 
-0.029390 0.012495 0.011101 
-0.026200 0.017353 0.043440 
0.002144 0.033328 0.034615 
0.031768 -0.013885 0.059249 
-0.032995 0.002439 0.028581 
0.003020 0.030487 0.003893 
0.002601 0.030988 0.049295 
-0.025570 -0.023327 0.063424 
0.002936 0.030624 0.043292 
-0.031102 -0.011518 0.031154 
-0.005632 0.017737 0.001000 
0.010407 0.027151 0.003536 
-0.015392 -0.028792 0.026412 
-0.004246 -0.026024 0.000000 
0.025888 -0.005213 0.001000 
0.010373 0.032480 0.052464 
-0.003143 0.027001 0.000000 
-0.031404 -0.001739 0.010831 
-0.001360 -0.030758 0.045515 
-0.017915 -0.024069 0.000059 
0.027986 -0.003825 0.004442 
0.007063 0.031837 0.063311 
0.029386 0.012448 0.062642 
-0.034446 -0.004656 0.057614 
0.026938 0.010136 0.020009 
-0.013921 0.026944 0.038756 
0.029975 -0.013369 0.024524 
0.029452 0.007961 0.042975 
0.026875 0.014235 0.037995 
-0.012717 -0.028164 0.003079 
-0.033850 0.007506 0.065425 
-0.032747 -0.001186 0.054980 
-0.002452 0.032467 0.026438 
0.033263 -0.007726 0.053632 
0.023958 -0.012654 0.000000 
-0.034465 -0.001776 0.052617 
0.022341 -0.025290 0.039295 
-0.031635 -0.000557 0.037376 
0.019494 -0.026246 0.028564 
0.000234 0.030299 0.002393 
-0.013097 -0.031695 0.050853 
0.017771 -0.022863 0.024193 
0.009240 -0.029071 0.017677 
0.007672 0.009901 0.000000 
-0.016252 -0.011488 0.001000 
-0.026022 -0.022198 0.048310 
-0.006401 -0.001327 0.000000 
-0.007616 0.020576 0.000000 
0.018000 0.028417 0.042254 
0.017867 0.028778 0.046338 
0.023151 -0.021143 0.010066 
0.013180 0.026076 0.018755 
0.003140 0.034553 0.054817 
-0.026046 -0.009466 0.005103 
-0.020298 -0.002652 0.000000 
-0.007469 0.031260 0.013821 
0.005794 0.033392 0.040808 
0.015965 -0.008824 0.001000 
-0.033378 0.001441 0.064464 
0.029210 -0.003995 0.021379 
-0.023345 0.020271 0.007324 
0.025181 0.018671 0.033671 
0.010888 0.028372 0.025592 
0.020989 0.027521 0.058697 
0.025009 0.016987 0.026198 
-0.017024 0.026803 0.014804 
0.029653 0.016441 0.045212 
-0.016878 0.022511 0.009674 
0.018619 0.028447 0.048905 
0.023358 -0.020409 0.041505 
-0.004131 -0.030845 0.046944 
-0.025725 0.012071 0.013009 
-0.018557 -0.023951 0.037826 
0.008459 -0.002351 0.001000 
0.030040 -0.015890 0.048495 
-0.003631 -0.030297 0.037901 
0.024972 -0.000963 0.001000 
-0.021909 -0.017967 0.001177 
0.027740 0.008518 0.023048 
0.004398 -0.031387 0.013421 
-0.031558 -0.010842 0.036604 
-0.018454 0.025372 0.013670 
0.031286 0.004315 0.012000 
-0.032573 -0.011157 0.058982 
0.026086 -0.016554 0.006561 
0.013571 -0.030650 0.034044 
-0.012555 -0.025357 0.001613 
-0.013026 0.028292 0.047659 
0.021546 0.025571 0.036461 
-0.013907 -0.028331 0.053221 
-0.008570 0.031414 0.056327 
-0.028565 0.013653 0.057421 
0.000542 0.029923 0.031728 
-0.013418 0.029950 0.024611 
0.031721 -0.000537 0.038422 
-0.019249 -0.021258 0.014079 
-0.001773 -0.034473 0.052822 
0.017440 -0.026309 0.061022 
-0.027608 0.016901 0.059773 
0.017727 0.022015 0.000000 
-0.025738 0.013038 0.017664 
0.011313 -0.032646 0.061326 
0.030522 -0.001161 0.004173 
-0.014523 0.028786 0.019223 
0.005182 0.034182 0.055410 
-0.028076 -0.007668 0.023528 
-0.028862 -0.011977 0.053638 
0.024872 -0.018657 0.033753 
-0.022488 -0.003406 0.001000 
-0.030348 -0.003242 0.032903 
0.002646 0.030915 0.007322 
-0.014978 0.025687 0.000000 
0.028825 0.006282 0.001000 
0.011330 -0.003547 0.000000 
0.020853 -0.025670 0.032319 
-0.002284 -0.033800 0.037198 
-0.020198 0.027324 0.047835 
-0.022246 0.021441 0.044298 
0.009903 0.027897 0.008357 
0.014463 -0.019063 0.001000 
-0.026087 0.019108 0.029254 
0.003208 0.034125 0.044134 
-0.012630 -0.027328 0.026512 
-0.029710 -0.010548 0.058178 
-0.021131 -0.011194 0.001000 
0.003346 0.028945 0.000000 
0.025367 -0.019866 0.051416 
0.028195 0.008995 0.031277 
0.005379 -0.033390 0.038152 
0.034132 0.006121 0.061979 
-0.004915 0.030804 0.046263 
0.000437 0.031661 0.060407 
-0.003351 -0.034321 0.049024 
0.027467 -0.020593 0.057693 
0.034061 -0.003965 0.042515 
-0.029532 -0.009673 0.004539 
-0.030433 0.001989 0.003466 
-0.029660 -0.002891 0.022183 
0.013772 -0.026242 0.027470 
-0.009665 -0.030440 0.023076 
0.023944 -0.023765 0.038230 
-0.005021 0.030758 0.045501 
-0.003337 0.007839 0.001000 
-0.021134 -0.022029 0.038281 
-0.015600 -0.030337 0.051084 
0.031945 0.002651 0.020803 
0.025131 -0.023589 0.059017 
0.025175 -0.019442 0.045079 
0.030081 -0.016728 0.063492 
0.021023 0.001252 0.000000 
-0.009952 -0.031810 0.060274 
-0.020545 -0.023638 0.010814 
0.006572 -0.030371 0.039120 
-0.034533 0.004745 0.060531 
0.003971 0.028561 0.009253 
-0.021691 0.023947 0.066000 
-0.026288 -0.017532 0.045408 
0.024478 0.018109 0.019989 
0.000899 0.030878 0.047493 
0.023972 -0.004314 0.001000 
-0.034991 -0.003936 0.065782 
-0.010526 -0.032176 0.047159 
0.028117 0.003508 0.004692 
-0.013864 -0.022211 0.000000 
-0.001073 -0.002402 0.001000 
-0.022796 0.025342 0.044460 
-0.008215 -0.020264 0.001000 
0.029949 0.007289 0.046401 
-0.034158 0.000356 0.044942 
0.026991 -0.019991 0.042184 
0.007640 -0.030125 0.004032 
0.024631 -0.021573 0.025953 
0.016583 -0.028721 0.034656 
-0.008555 -0.021523 0.001000 
0.008672 -0.032417 0.040510 
0.018277 -0.022362 0.001000 
-0.011696 0.025975 0.001290 
0.026400 -0.019806 0.059000 
0.001463 0.028392 0.006471 
-0.008573 0.006447 0.001000 
0.021025 -0.022385 0.045228 
0.027584 -0.015246 0.051884 
-0.025685 -0.019986 0.025901 
0.031245 -0.000000 0.024901 
0.024996 0.023273 0.066000 
-0.024621 -0.014335 0.008985 
-0.030020 -0.011002 0.012954 
0.033058 0.009462 0.057841 
0.021007 0.027310 0.055712 
-0.029016 -0.015280 0.028111 
0.026672 0.021078 0.046867 
-0.010509 -0.015316 0.001000 
0.031419 0.002263 0.042471 
-0.024727 -0.018000 0.013739 
-0.000277 -0.030301 0.037969 
0.020330 0.027383 0.050040 
-0.028790 -0.018172 0.049578 
-0.024876 -0.020240 0.019503 
-0.007004 0.017895 0.000000 
-0.029765 0.015823 0.066000 
0.031326 0.007178 0.013391 
0.011031 -0.019270 0.001000 
-0.031958 0.003844 0.056901 
0.029777 0.009998 0.056536 
-0.002096 -0.029011 0.016674 
0.023276 -0.020828 0.045596 
-0.019654 0.023040 0.041683 
0.029799 -0.010668 0.008298 
0.026999 -0.009776 0.019127 
0.016458 0.021552 0.001000 
-0.012439 -0.031833 0.049850 
-0.030885 -0.011539 0.027665 
-0.017845 0.029070 0.050496 
0.014855 0.008584 0.000000 
-0.009627 0.031212 0.023668 
0.013922 0.025612 0.020403 
-0.025644 -0.018947 0.043457 
-0.030187 -0.016266 0.054669 
-0.031639 -0.000610 0.037672 
0.001685 -0.031162 0.052181 
0.027368 0.016225 0.016312 
0.005642 0.028690 0.011383 
-0.014917 -0.029437 0.030151 
0.030202 -0.005269 0.001614 
-0.017762 0.000238 0.001000 
0.028771 0.012834 0.056361 
0.019479 -0.019213 0.001000 
-0.026322 0.018065 0.048295 
0.021444 -0.022971 0.010903 
-0.013881 -0.024780 0.006610 
0.002284 0.030235 0.036873 
0.012340 0.026732 0.018696 
-0.007905 0.031541 0.058428 
-0.009538 -0.029901 0.014835 
0.031349 -0.004202 0.050567 
-0.023185 -0.019734 0.030944 
0.014582 -0.031027 0.048936 
-0.006891 -0.033360 0.049091 
0.014193 -0.028237 0.008457 
-0.015937 0.029307 0.036413 
0.027098 -0.002206 0.001000 
-0.022937 -0.024021 0.031101 
-0.022682 -0.019666 0.025956 
-0.022323 -0.000228 0.001000 
0.002490 -0.029027 0.016939 
0.020441 0.025715 0.029709 
0.032976 -0.004208 0.031272 
-0.027148 0.016858 0.018086 
0.029748 -0.006312 0.039280 
-0.025492 -0.010512 0.002670 
0.031537 -0.006917 0.015521 
-0.000971 0.022741 0.001000 
0.026029 0.012003 0.016707 
0.001171 0.002975 0.001000 
0.005875 -0.028530 0.008753 
0.024967 -0.018979 0.013208 
0.022827 0.025795 0.056553 
-0.011002 -0.030189 0.015326 
0.031372 -0.005163 0.013212 
-0.012981 0.031515 0.047496 
0.002427 -0.007221 0.000000 
0.003757 -0.030597 0.042857 
0.026686 -0.020634 0.042629 
-0.030000 0.005884 0.000423 
-0.031009 0.007464 0.010298 
-0.021860 -0.026302 0.049133 
0.025084 0.020068 0.051446 
0.029825 0.002346 0.021813 
0.015723 -0.017515 0.001000 
-0.022683 0.019523 0.026054 
0.027428 0.017570 0.027418 
0.016131 0.030318 0.059480 
-0.021685 -0.019928 0.020360 
0.014072 -0.029201 0.020816 
0.004400 -0.032039 0.022367 
0.031912 0.000744 0.016121 
0.032274 0.007660 0.031376 
0.016759 -0.027904 0.026672 
-0.031592 0.002459 0.045665 
0.031673 -0.008504 0.025316 
0.025418 0.018932 0.032108 
-0.005071 0.017381 0.000000 
-0.009985 -0.031487 0.051454 
0.020861 0.026470 0.041659 
-0.000868 0.028387 0.000000 
-0.019841 -0.020402 0.009883 
-0.024467 -0.020347 0.016664 
0.032614 0.006102 0.027989 
0.019050 0.009274 0.001000 
-0.017258 0.002859 0.001000 
0.009368 -0.029472 0.018208 
0.022746 0.021556 0.049609 
0.010760 0.030064 0.047542 
0.007986 0.031313 0.016989 
0.015570 0.029927 0.040700 
-0.017906 0.023843 0.036806 
-0.023563 0.024917 0.053007 
0.017929 0.022257 0.001000 
0.002933 -0.028421 0.006944 
-0.008581 0.032608 0.044368 
0.025113 -0.023641 0.059867 
-0.031174 -0.007436 0.063086 
0.014594 0.029076 0.023581 
-0.030219 -0.000000 0.015797 
-0.002320 0.034934 0.064344 
0.010885 0.026532 0.000186 
0.029534 -0.008496 0.046490 
0.018254 -0.021611 0.001000 
0.030568 0.009757 0.065774 
-0.003274 0.030456 0.003651 
-0.018800 -0.022847 0.027368 
0.030429 -0.004953 0.041941 
-0.000458 -0.006138 0.000000 
-0.034698 0.003665 0.058448 
-0.017025 0.025737 0.051223 
-0.027128 -0.002112 0.001000 
0.011607 -0.029943 0.014707 
0.027039 0.007007 0.006765 
-0.032219 0.011782 0.056245 
0.031688 0.003502 0.017635 
0.024396 -0.020408 0.016411 
-0.005183 -0.030493 0.041137 
0.009510 0.033047 0.059488 
-0.031259 -0.004769 0.011620 
0.026055 0.021683 0.043658 
-0.024131 0.015545 0.008134 
0.028336 -0.017993 0.040981 
0.023837 0.018309 0.001169 
-0.033168 0.004129 0.034578 
0.016259 0.029756 0.047542 
-0.009874 0.031019 0.040195 
0.010176 -0.029609 0.034931 
-0.027118 -0.020118 0.045340 
-0.017815 0.024059 0.038524 
0.012840 -0.024989 0.000088 
-0.017636 0.008099 0.001000 
0.009933 0.030052 0.010900 
-0.027274 -0.007854 0.013803 
-0.019092 -0.022908 0.000226 
-0.025614 -0.018118 0.039269 
0.019880 0.023899 0.009277 
0.031724 0.009501 0.032596 
-0.029055 0.016253 0.035946 
-0.025470 -0.018762 0.036238 
0.023804 0.018332 0.021533 
0.030159 -0.005301 0.039997 
0.032393 0.009137 0.042972 
-0.003747 -0.034503 0.053566 
-0.025452 -0.018661 0.031574 
-0.030129 -0.013577 0.027854 
0.028338 -0.011296 0.043679 
0.031743 0.001118 0.041415 
0.033620 0.008341 0.064875 
0.026936 0.012804 0.032242 
-0.003371 -0.029203 0.019846 
0.028071 -0.010215 0.035242 
-0.006535 -0.030512 0.041442 
-0.003134 -0.029985 0.032750 
-0.014683 -0.026697 0.002334 
0.030572 -0.009327 0.063870 
0.031194 0.008279 0.016677 
-0.029626 0.000297 0.009643 
-0.033428 -0.006330 0.046118 
0.033335 0.001938 0.029991 
0.021084 0.025188 0.028580 
0.001795 -0.032833 0.025512 
-0.014257 0.024980 0.015311 
0.020663 -0.022798 0.047013 
-0.031698 -0.008877 0.028157 
-0.020226 0.027554 0.051573 
0.003398 0.031337 0.055062 
0.023253 0.020446 0.041069 
-0.021927 -0.008260 0.000000 
0.013711 0.005607 0.001000 
0.028207 -0.014257 0.055500 
0.025480 0.013477 0.016299 
0.003451 -0.004940 0.000000 
-0.020784 -0.025697 0.066000 
-0.002233 0.030149 0.035455 
-0.033789 -0.005380 0.047222 
-0.033385 -0.000451 0.059981 
-0.029551 0.002767 0.020159 
0.001056 0.028733 0.012098 
0.015980 0.025619 0.041520 
0.027591 0.011494 0.034810 
0.012163 0.029117 0.049681 
-0.029613 0.008131 0.001941 
-0.001510 0.033288 0.034233 
-0.004616 0.033034 0.031824 
0.009422 0.033160 0.061317 
-0.022764 0.019525 0.026737 
0.020620 -0.020568 0.021395 
-0.010184 0.029491 0.033386 
0.013181 -0.013766 0.001000 
0.018548 -0.027451 0.035106 
0.031729 -0.000921 0.015253 
-0.024735 -0.017033 0.022832 
0.026500 -0.015387 0.038364 
0.013266 0.031491 0.047154 
0.031532 0.009793 0.030799 
-0.012157 -0.028739 0.041627 
0.009242 0.009395 0.001000 
-0.033080 -0.009184 0.058527 
0.024089 0.022238 0.025108 
0.024177 -0.015511 0.008567 
-0.012244 0.011002 0.001000 
0.028911 -0.014443 0.065561 
0.032747 -0.005783 0.066000 
0.027723 0.018151 0.035184 
0.025111 -0.011971 0.004432 
0.030473 -0.000000 0.013384 
-0.026007 -0.022610 0.056422 
-0.001687 -0.030862 0.047230 
-0.000812 0.031889 0.016119 
0.009454 0.029820 0.014246 
0.006097 -0.028945 0.015594 
0.004052 0.021292 0.001000 
-0.023729 -0.022039 0.062214 
-0.005605 0.011622 0.000000 
0.031389 0.011909 0.038456 
-0.025858 -0.014891 0.027709 
0.017454 0.027243 0.024417 
0.028105 -0.018804 0.045610 
-0.008857 -0.031986 0.065764 
0.032624 0.000695 0.051075 
0.025350 -0.023213 0.055078 
-0.031037 0.002379 0.037978 
-0.009397 -0.029589 0.019701 
-0.026917 0.009588 0.017172 
-0.014953 0.031441 0.063945 
0.002706 0.028198 0.003263 
0.031179 -0.000147 0.029451 
0.013689 0.027510 0.044055 
0.009810 -0.003978 0.001000 
0.005285 0.033624 0.042317 
0.009270 0.031862 0.033759 
0.019343 -0.027023 0.036270 
0.011296 -0.029521 0.045859 
-0.006275 -0.029780 0.029375 
-0.001910 0.032467 0.066000 
0.013530 0.029450 0.019250 
-0.032169 0.001556 0.049083 
-0.013898 -0.027871 0.046685 
0.032767 -0.001853 0.058354 
0.004072 -0.031786 0.019005 
-0.031822 0.001134 0.042540 
-0.032571 0.002112 0.056970 
-0.009146 0.031233 0.021271 
-0.024934 0.023940 0.062852 
-0.010982 -0.027423 0.011535 
-0.009761 -0.030414 0.019223 
-0.022005 0.018709 0.011405 
0.030749 0.013535 0.035217 
0.017297 -0.023253 0.000000 
-0.002424 0.028903 0.014903 
0.012019 0.023510 0.000000 
-0.029035 0.014732 0.024162 
-0.000358 0.004109 0.001000 
-0.016126 -0.027089 0.057767 
-0.026154 -0.016992 0.041186 
0.023494 -0.016777 0.005431 
-0.024520 -0.021244 0.022178 
-0.021621 0.022052 0.046232 
0.006390 0.020379 0.001000 
0.028337 0.011961 0.001944 
-0.028497 -0.011602 0.047158 
0.005708 0.030921 0.048190 
0.013955 -0.025612 0.020769 
0.020004 0.027685 0.051311 
0.020054 -0.024144 0.057404 
0.011215 0.031462 0.036541 
-0.010260 -0.003240 0.000000 
-0.025500 -0.010989 0.004990 
-0.008547 0.030614 0.009816 
-0.007950 -0.030103 0.004516 
-0.029518 -0.003883 0.000000 
-0.030688 0.009654 0.016022 
0.031975 -0.000000 0.029212 
0.001467 -0.003530 0.000000 
-0.028416 0.010387 0.000000 
-0.026888 -0.010410 0.020619 
0.018767 -0.025531 0.016759 
0.005855 -0.029754 0.028948 
0.033784 0.007583 0.064246 
-0.027890 0.007127 0.018548 
-0.026939 0.019939 0.046270 
-0.027368 -0.016667 0.019378 
-0.012732 -0.027327 0.027505 
0.022026 0.021555 0.006324 
0.014863 -0.024022 0.008665 
-0.009329 0.031390 0.025165 
0.001015 0.031179 0.010510 
0.016552 -0.024534 0.033800 
-0.022434 -0.026396 0.061756 
0.012613 0.011620 0.000000 
-0.009201 -0.030900 0.016869 
-0.013128 -0.028086 0.042073 
-0.010916 0.030168 0.014627 
-0.030458 0.015229 0.047933 
0.019794 -0.023435 0.047288 
0.007977 -0.004700 0.001000 
-0.031224 -0.006929 0.061408 
-0.009349 0.029531 0.008053 
0.031760 -0.005068 0.018638 
-0.014594 -0.026584 0.035515 
0.004738 -0.030012 0.000096 
-0.026781 0.012373 0.028249 
-0.005791 -0.032050 0.066000 
-0.011281 0.031094 0.029875 
-0.025911 -0.020020 0.057024 
-0.033261 -0.002870 0.031919 
0.019656 0.024078 0.053466 
-0.028345 0.017900 0.040375 
0.012420 0.028004 0.037115 
-0.031401 -0.005828 0.058690 
-0.027863 -0.016676 0.062079 
0.017357 -0.029926 0.066000 
0.015642 0.029327 0.034404 
0.027016 0.006051 0.002001 
0.003475 -0.031954 0.021351 
-0.030237 -0.009159 0.007740 
-0.029595 -0.014392 0.027967 
0.031699 0.013761 0.056980 
-0.003282 0.028152 0.002504 
0.006696 -0.029406 0.023194 
-0.013894 0.031932 0.063647 
-0.006544 -0.031410 0.013742 
-0.013627 -0.026915 0.030591 
-0.028067 0.007331 0.021833 
0.029774 0.009228 0.052988 
0.018394 0.024198 0.004732 
-0.014513 -0.006736 0.000000 
0.003456 0.031611 0.059580 
-0.009535 0.029185 0.022147 
0.012343 0.028190 0.038845 
-0.026386 -0.013665 0.028999 
0.028172 0.004457 0.009839 
0.016782 -0.022604 0.009904 
-0.026587 -0.011584 0.022101 
-0.002138 0.028615 0.010147 
-0.030191 0.006461 0.045778 
0.028535 -0.015451 0.065253 
-0.019137 -0.024908 0.056989 
0.019962 -0.022643 0.039652 
0.021187 -0.019646 0.015481 
0.015472 -0.028114 0.065737 
0.024003 -0.021337 0.057177 
0.030160 -0.011462 0.017066 
0.023611 -0.017486 0.008257 
-0.001241 -0.031717 0.061323 
-0.013263 0.028040 0.046744 
-0.022260 -0.026256 0.053893 
-0.001574 -0.034119 0.043984 
-0.023483 -0.012003 0.001000 
-0.031151 0.008061 0.015073 
0.025430 0.011245 0.005262 
-0.026605 -0.010751 0.018476 
-0.030293 0.009766 0.011007 
0.002265 0.020292 0.001000 
-0.024951 0.015213 0.017323 
0.003757 -0.012435 0.001000 
0.024551 -0.017543 0.022752 
-0.032359 0.005383 0.028816 
-0.000342 0.028295 0.004871 
0.032034 0.004287 0.022319 
-0.029355 0.006413 0.034558 
0.022960 0.019325 0.002279 
0.026472 0.020248 0.036867 
-0.010765 0.030819 0.057998 
0.026952 -0.016599 0.012918 
0.021929 0.021791 0.045727 
-0.019297 -0.023210 0.035460 
0.027225 -0.008038 0.014022 
0.010011 0.011793 0.000000 
0.007689 0.032703 0.039725 
-0.028820 -0.003220 0.012619 
-0.025069 0.007865 0.000000 
-0.012633 -0.030040 0.064583 
-0.021066 -0.021855 0.035830 
0.002392 -0.031320 0.010240 
-0.032665 0.005566 0.034384 
-0.017525 0.024264 0.038524 
0.009354 -0.030408 0.010698 
-0.030407 0.010453 0.015811 
0.013777 0.029786 0.066000 
-0.012519 -0.029513 0.012943 
0.017222 -0.023221 0.023195 
0.026521 0.011763 0.022058 
-0.014730 0.028601 0.065324 
0.029174 -0.002701 0.014884 
0.019696 0.025686 0.023707 
0.025027 -0.012671 0.000000 
-0.007799 -0.033441 0.058686 
0.001424 0.003887 0.001000 
-0.027222 0.012713 0.035569 
0.003260 0.029044 0.017232 
-0.030681 -0.007715 0.007514 
0.008589 -0.023099 0.000000 
0.030635 0.014886 0.044386 
0.031747 0.012812 0.066000 
0.030112 0.007639 0.003948 
0.012502 0.031898 0.051466 
0.021724 -0.000072 0.000000 
-0.023972 0.024651 0.056573 
0.031410 -0.009397 0.025966 
0.007956 0.030738 0.045169 
-0.024724 -0.014572 0.011418 
-0.020215 0.008329 0.001000 
-0.000448 0.018909 0.001000 
0.024709 -0.018383 0.021535 
-0.003293 -0.004292 0.000000 
-0.018913 0.017321 0.001000 
0.029729 0.011773 0.064032 
0.007776 -0.031138 0.051777 
0.023480 0.020366 0.041987 
-0.007189 -0.032745 0.037346 
-0.010866 -0.015935 0.000000 
0.003936 0.000166 0.001000 
0.032268 -0.008148 0.034358 
0.027678 -0.007135 0.015791 
0.000252 -0.013713 0.000000 
0.016585 -0.022188 0.002029 
-0.020451 0.024299 0.015836 
0.024176 -0.022810 0.031366 
-0.022644 -0.026042 0.058158 
0.029893 -0.016610 0.056825 
-0.001762 0.034975 0.065365 
-0.023596 -0.005350 0.001000 
0.016678 -0.009073 0.001000 
0.026980 -0.016133 0.048055 
0.027899 -0.016002 0.020601 
0.029443 -0.013586 0.019675 
-0.008061 0.027408 0.000000 
-0.029711 -0.001093 0.014474 
0.013613 0.027840 0.004396 
0.018623 0.022916 0.032027 
-0.002774 0.005933 0.001000 
-0.007074 -0.028495 0.008170 
0.018568 0.028148 0.043891 
0.027563 -0.002978 0.001000 
-0.032890 -0.008303 0.049096 
-0.025125 0.023077 0.046046 
0.027446 -0.021081 0.058495 
0.020762 0.019122 0.005018 
-0.017026 -0.005145 0.000000 
0.031284 0.003900 0.011975 
-0.028572 -0.005401 0.019507 
-0.024613 0.016588 0.019197 
-0.030047 0.012543 0.020522 
-0.025316 0.019058 0.041856 
0.002018 0.009564 0.000000 
-0.000094 -0.028367 0.006054 
-0.011214 -0.031795 0.042969 
0.024903 -0.022857 0.038804 
-0.016440 -0.026651 0.054737 
0.013233 0.029217 0.060321 
-0.013846 -0.023255 0.000000 
0.027199 -0.012628 0.000000 
-0.019013 0.027362 0.037622 
0.013852 0.028652 0.058865 
-0.021728 0.019699 0.000000 
-0.024884 0.022125 0.033029 
0.024076 0.018716 0.028057 
-0.021155 0.027838 0.065828 
0.025557 0.018921 0.042015 
0.028850 -0.003371 0.013720 
0.018524 0.028554 0.049551 
-0.009526 0.027695 0.000000 
-0.016407 0.024780 0.000000 
0.027352 0.005873 0.005614 
0.023477 -0.017880 0.013783 
-0.012888 0.026896 0.026898 
-0.010685 0.015768 0.001000 
0.008833 -0.030044 0.005930 
-0.013321 0.029820 0.022383 
-0.014322 -0.030025 0.032333 
-0.012826 0.031364 0.042759 
-0.028186 0.012181 0.001481 
-0.003178 0.030810 0.006477 
0.028142 -0.003653 0.005691 
0.025710 -0.015548 0.028780 
0.031506 0.012521 0.044410 
-0.017042 0.017670 0.001000 
-0.009360 -0.019552 0.000000 
-0.025703 0.022544 0.047168 
-0.010164 0.028456 0.018899 
-0.024839 -0.018141 0.018435 
-0.020885 0.008531 0.000000 
0.002190 0.032707 0.028718 
0.027708 -0.015979 0.056859 
-0.015124 0.030753 0.048880 
-0.012404 0.026984 0.022880 
0.000603 -0.030553 0.004426 
-0.022240 -0.020219 0.028170 
0.022022 -0.026866 0.063220 
0.009192 0.028981 0.012650 
-0.027595 -0.018785 0.038547 
-0.033877 -0.003414 0.038671 
-0.032292 -0.010934 0.052311 
0.031427 0.012334 0.041267 
0.027245 -0.006327 0.006307 
-0.020693 0.028101 0.064444 
-0.029626 0.016207 0.043424 
0.028469 0.003618 0.009850 
-0.003841 0.028044 0.000731 
0.009692 0.009696 0.000000 
-0.024650 -0.002532 0.000000 
0.028945 -0.017834 0.050050 
0.011296 0.030282 0.017994 
0.016786 -0.030386 0.060480 
0.012391 0.027951 0.036065 
-0.030311 -0.000000 0.009376 
-0.010532 0.030316 0.014906 
0.031129 -0.011057 0.031144 
-0.028315 -0.006837 0.022805 
-0.029614 -0.002581 0.020134 
-0.000421 0.033538 0.034892 
-0.014394 0.013484 0.001000 
0.029134 -0.005618 0.027943 
0.000876 -0.030115 0.000923 
-0.026159 0.019997 0.031383 
-0.014365 0.026453 0.000142 
0.024124 -0.021294 0.019090 
-0.028513 -0.003499 0.009878 
0.004956 -0.030234 0.036863 
0.023565 -0.018085 0.016819 
0.000881 -0.030583 0.042614 
0.008951 0.031683 0.060773 
-0.029605 0.001019 0.012732 
0.026449 0.008939 0.007972 
0.030269 0.016119 0.051221 
0.014892 -0.026916 0.004052 
-0.031597 -0.001534 0.012177 
-0.029339 -0.009000 0.002033 
0.030475 0.001314 0.025593 
0.001111 -0.030000 0.000926 
0.016217 -0.024133 0.024875 
-0.008049 -0.032715 0.042622 
0.025333 0.022989 0.049050 
-0.023244 0.020659 0.043414 
0.013233 0.032199 0.064582 
-0.002732 -0.029027 0.000000 
0.024393 -0.018455 0.027638 
-0.034056 0.000352 0.042397 
-0.029739 -0.007905 0.002246 
0.014416 -0.010786 0.000000 
0.001073 -0.028453 0.007471 
0.030307 -0.001810 0.025685 
-0.021564 -0.019405 0.000000 
-0.009554 0.023418 0.000000 
0.023430 0.017514 0.009269 
0.031728 -0.006325 0.065242 
0.023236 -0.025294 0.054253 
0.031674 0.010131 0.035423 
-0.023465 -0.023256 0.028855 
0.029258 0.011116 0.054878 
0.017771 -0.029951 0.062969 
-0.029518 -0.004221 0.026500 
0.029683 0.013048 0.018014 
-0.019258 -0.012905 0.000000 
-0.005056 0.002217 0.001000 
0.020405 -0.023816 0.011521 
0.026132 0.017151 0.041625 
0.010713 -0.031165 0.029645 
-0.031337 -0.000000 0.012301 
-0.026478 0.015168 0.037071 
0.031457 -0.011552 0.038641 
0.033579 -0.001467 0.066000 
-0.030154 -0.013287 0.025936 
-0.016307 0.028523 0.030302 
0.004422 0.034542 0.066000 
0.024698 0.016894 0.021707 
0.011559 -0.029891 0.053810 
-0.031276 0.012381 0.039043 
0.029027 -0.005125 0.001000 
-0.013229 0.030234 0.026417 
-0.020120 0.028454 0.064004 
-0.003019 -0.034608 0.066000 
0.027181 0.009083 0.018305 
0.003636 0.031515 0.058002 
-0.026167 0.015065 0.032545 
0.031919 -0.004161 0.057840 
-0.024380 -0.014206 0.005200 
0.028694 0.008427 0.035199 
-0.010083 -0.032425 0.049908 
-0.006436 -0.031204 0.052867 
0.031127 -0.000000 0.009623 
0.032445 0.010011 0.049421 
-0.022017 -0.023988 0.022044 
0.028511 0.011072 0.001212 
0.024778 0.003859 0.000000 
0.009721 -0.030885 0.033791 
0.022830 0.019662 0.028807 
0.017748 0.028613 0.042679 
-0.028275 0.019664 0.059444 
0.028702 -0.015274 0.024482 
-0.001343 -0.031122 0.009704 
-0.013271 -0.026288 0.001000 
-0.031135 -0.015404 0.063286 
-0.025917 0.017433 0.040108 
-0.030575 -0.000000 0.015355 
0.032682 -0.004530 0.028477 
-0.012993 0.018747 0.000000 
0.022689 -0.025692 0.050512 
0.007427 0.017408 0.000000 
0.012701 -0.025569 0.006570 
0.027362 0.011469 0.031711 
0.030360 -0.003322 0.002880 
0.024753 -0.021056 0.059991 
-0.027287 -0.009575 0.021997 
-0.021922 -0.021739 0.006645 
-0.031240 0.004133 0.048830 
-0.000554 -0.034535 0.054379 
0.013437 -0.024682 0.001000 
0.009248 -0.029759 0.029025 
-0.021698 -0.002506 0.001000 
-0.024810 -0.019427 0.014393 
-0.008084 -0.012211 0.000000 
0.017296 0.003229 0.000000 
0.026328 -0.015227 0.035382 
0.001977 0.028120 0.000000 
-0.001948 0.014936 0.000000 
-0.003140 -0.011764 0.000000 
-0.031630 0.006771 0.065996 
0.009277 -0.029299 0.021435 
0.005559 0.028843 0.013903 
-0.023379 -0.024792 0.045279 
-0.001333 -0.029089 0.017969 
-0.026646 0.010250 0.016678 
-0.022800 -0.019565 0.025872 
0.000276 -0.034834 0.066000 
-0.028074 -0.012484 0.045662 
0.003097 -0.006514 0.000000 
-0.033910 0.006209 0.057161 
0.007485 -0.031184 0.052543 
-0.010567 -0.031313 0.030635 
0.029844 -0.010238 0.007542 
-0.009091 -0.029174 0.003129 
-0.027576 0.010968 0.032209 
-0.002132 0.030641 0.043581 
-0.033039 0.003325 0.031345 
-0.012253 0.031489 0.042304 
-0.026806 -0.013664 0.000000 
-0.007245 -0.032680 0.036464 
0.013768 -0.004469 0.000000 
0.024410 -0.018111 0.023878 
0.020922 -0.023016 0.051560 
-0.024752 -0.020767 0.021418 
0.011579 0.031204 0.033374 
-0.031521 0.007626 0.018218 
-0.031448 0.001298 0.038361 
0.017348 0.028172 0.034207 
-0.009589 0.027579 0.000577 
0.030796 0.008871 0.064708 
-0.021897 -0.021437 0.038354 
0.004872 0.021012 0.000000 
-0.006239 0.028311 0.005135 
0.000456 -0.022396 0.000000 
0.027842 -0.013652 0.047972 
0.003389 0.028680 0.000000 
0.019273 -0.021032 0.015226 
-0.026502 0.009202 0.009894 
-0.007390 0.013021 0.001000 
-0.022824 0.010379 0.000000 
0.011133 0.032524 0.057154 
0.000466 -0.029227 0.020246 
-0.031457 -0.004617 0.053885 
0.007378 0.032641 0.036572 
0.018880 0.023001 0.035054 
-0.031899 0.004802 0.020586 
-0.031623 -0.008418 0.023816 
0.017760 -0.026063 0.060796 
0.029428 0.007216 0.039257 
0.019827 -0.019944 0.006226 
-0.016340 0.025558 0.043712 
0.009526 0.030106 0.021023 
0.010489 0.028646 0.025042 
0.030907 -0.000000 0.013525 
-0.009824 0.030713 0.032366 
0.000041 0.030028 0.033466 
0.001678 -0.010152 0.001000 
-0.025839 -0.022746 0.055619 
0.007327 -0.028061 0.001000 
-0.021306 0.019037 0.009534 
0.004441 -0.031723 0.018127 
-0.029591 -0.009492 0.004529 
0.021669 0.024799 0.028593 
-0.011802 0.029888 0.056394 
-0.003863 -0.028401 0.006623 
-0.030835 0.004061 0.006684 
0.025685 -0.010831 0.000000 
-0.004555 0.028762 0.012581 
-0.017834 -0.023244 0.023475 
0.013765 0.028814 0.060015 
0.008926 0.003304 0.000000 
0.000144 0.030894 0.047748 
0.023768 -0.024083 0.039584 
-0.029292 0.003325 0.019349 
0.019754 -0.027838 0.051104 
0.031821 0.008495 0.028065 
-0.014615 0.030767 0.066000 
-0.031410 -0.005648 0.057988 
0.026284 -0.014329 0.000000 
-0.008942 0.031616 0.027004 
-0.004868 0.034375 0.057607 
0.018122 -0.022944 0.028340 
0.011061 0.031576 0.037988 
-0.025951 0.022950 0.063530 
0.018491 -0.025575 0.061109 
0.027692 -0.020692 0.065103 
-0.002730 -0.031021 0.049841 
-0.031148 -0.003306 0.043762 
-0.007994 -0.032484 0.037485 
0.025266 0.016383 0.000899 
0.034979 -0.003816 0.065478 
0.003464 -0.032198 0.023881 
-0.034723 -0.001548 0.059085 
-0.019857 -0.011048 0.001000 
0.030883 0.000214 0.025849 
-0.007813 0.030996 0.049426 
0.001841 -0.025558 0.000000 
0.025727 0.012471 0.000000 
0.009377 -0.029509 0.024505 
0.007972 -0.028240 0.003954 
-0.032672 0.003452 0.064428 
-0.029797 -0.017719 0.060282 
-0.020857 0.019784 0.000000 
-0.016541 -0.028763 0.034817 
-0.001663 -0.031029 0.008405 
-0.029951 -0.010982 0.011889 
-0.018087 -0.021095 0.002516 
0.026977 0.007410 0.007816 
0.032892 0.002239 0.061759 
0.025625 -0.018003 0.012393 
0.005557 0.028159 0.002623 
-0.009464 0.031828 0.063168 
0.030888 -0.006815 0.056502 
0.024807 0.016544 0.021530 
0.004645 0.029061 0.017508 
0.010000 0.031516 0.032489 
-0.013335 -0.019945 0.000000 
0.004234 -0.030326 0.002607 
0.032222 -0.006742 0.024589 
-0.028771 -0.013643 0.010797 
0.024651 0.024295 0.064660 
-0.001481 0.029630 0.026898 
-0.005409 0.015859 0.000000 
0.024607 0.023611 0.046434 
0.028533 0.012098 0.049883 
-0.016841 -0.026801 0.060810 
-0.017128 -0.016853 0.000000 
-0.031436 0.012134 0.040536 
0.030257 -0.013017 0.025969 
-0.027145 -0.016386 0.013630 
-0.000507 0.029609 0.026544 
-0.029381 -0.000815 0.008828 
0.006837 -0.032750 0.035213 
0.025025 0.003127 0.001000 
-0.029680 -0.000000 0.002297 
0.025376 -0.014023 0.017431 
-0.005624 -0.030361 0.038951 
-0.006553 0.031852 0.063555 
-0.026512 -0.015541 0.039226 
0.012894 0.028241 0.045519 
-0.004760 0.006702 0.000000 
0.014710 -0.028200 0.012763 
0.031184 -0.000000 0.014647 
0.025214 -0.017015 0.028996 
-0.002291 0.031983 0.065715 
0.016406 0.026366 0.053395 
0.018173 -0.024240 0.002838 
-0.027635 0.017680 0.030610 
-0.032744 0.000701 0.021841 
-0.031764 0.010647 0.039870 
-0.033115 0.000496 0.056634 
-0.031202 -0.003446 0.045119 
-0.020289 0.019436 0.000000 
-0.022240 -0.018667 0.000000 
0.033025 0.009757 0.058863 
0.004188 -0.034724 0.060661 
-0.028761 -0.015795 0.029116 
-0.020067 -0.024002 0.053499 
-0.021554 0.020062 0.001000 
-0.033366 0.007132 0.050979 
0.010000 0.030737 0.019974 
-0.031130 -0.006958 0.060317 
-0.030264 0.010002 0.011702 
0.023528 0.023943 0.035973 
0.011732 -0.024735 0.000000 
-0.011429 -0.030657 0.023901 
0.018891 -0.028953 0.059205 
0.024911 -0.018683 0.015031 
-0.010284 0.030075 0.042529 
0.020124 0.019693 0.001000 
-0.019827 0.022355 0.035305 
0.015181 0.027699 0.010149 
-0.001223 -0.029018 0.016793 
0.027024 0.002431 0.000000 
-0.010518 0.013831 0.001000 
0.024439 0.021187 0.058970 
-0.027108 -0.008093 0.012736 
-0.010353 0.029550 0.036040 
0.010581 -0.031854 0.066000 
0.008059 -0.026272 0.000000 
0.032150 0.007489 0.027955 
-0.000975 -0.030097 0.000774 
0.022235 -0.025001 0.035194 
0.020241 -0.019852 0.009432 
0.027792 0.020792 0.061061 
0.016895 -0.028707 0.036868 
-0.034979 -0.000973 0.065482 
-0.026711 -0.011498 0.023327 
-0.001095 -0.020027 0.001000 
-0.031313 -0.006094 0.058757 
0.003886 0.030257 0.037237 
0.017375 0.026276 0.060121 
0.001386 -0.030899 0.007191 
0.012854 -0.025407 0.006002 
0.024192 -0.018742 0.029280 
-0.018398 -0.027318 0.032451 
0.031377 0.005486 0.013273 
-0.026062 -0.011498 0.000000 
0.030683 -0.007943 0.058978 
0.025359 0.012677 0.010994 
0.025112 0.016589 0.025719 
0.006461 -0.028258 0.004262 
-0.027628 -0.010048 0.028683 
-0.018464 0.028684 0.050905 
0.007093 -0.030919 0.048170 
-0.028373 0.002226 0.002088 
-0.005144 0.022230 0.000000 
-0.014134 0.002967 0.001000 
-0.011325 0.031172 0.031568 
-0.012754 -0.003725 0.000000 
0.000582 -0.031784 0.062439 
0.019370 0.027490 0.042054 
0.004145 -0.011577 0.000000 
-0.020874 0.022797 0.048695 
-0.009853 -0.029161 0.024726 
-0.015119 0.028622 0.022401 
0.022599 0.023074 0.065626 
0.032820 0.007515 0.040846 
-0.020634 0.022502 0.004545 
0.005797 0.021457 0.000000 
0.029072 0.008985 0.042692 
-0.018717 0.022066 0.023156 
-0.030469 0.004207 0.003749 
0.008942 0.030887 0.047638 
0.030858 -0.000000 0.009135 
0.006624 -0.031070 0.050659 
-0.026342 -0.022373 0.058875 
0.027143 0.007425 0.010073 
0.026115 -0.009973 0.008386 
-0.031016 0.004386 0.008225 
0.031260 -0.002956 0.011639 
0.013476 0.024914 0.005940 
-0.021860 -0.024936 0.031605 
-0.022089 -0.018916 0.012894 
-0.004566 0.034548 0.059423 
0.030852 -0.012745 0.033982 
0.030763 0.006782 0.054713 
0.000183 0.025966 0.001000 
0.028514 0.013752 0.057212 
-0.028212 0.012363 0.046901 
0.033530 -0.005636 0.042882 
0.030459 0.003585 0.035958 
0.021012 0.027974 0.065736 
-0.005223 -0.029572 0.025931 
-0.003929 -0.012520 0.001000 
0.019927 -0.025419 0.022426 
0.012187 0.029368 0.053395 
-0.007985 -0.032340 0.034694 
0.004925 -0.030803 0.046252 
-0.028610 -0.009005 0.036749 
0.025549 0.018703 0.018366 
-0.021780 -0.020254 0.024667 
0.031972 0.006825 0.021615 
-0.008292 0.029933 0.031888 
-0.014047 -0.024159 0.001341 
-0.012791 -0.032097 0.058341 
0.023094 0.017789 0.000000 
-0.019463 0.027287 0.040193 
-0.019672 -0.024665 0.014555 
0.009679 -0.030335 0.011191 
0.029985 -0.000000 0.000624 
-0.003409 -0.030734 0.045111 
0.018936 -0.028228 0.048780 
-0.015539 0.026052 0.042900 
-0.024883 0.009617 0.001000 
0.013071 0.030576 0.030541 
-0.027711 -0.003912 0.001204 
0.014406 0.011719 0.001000 
0.026550 0.019688 0.056914 
0.034612 -0.004442 0.059987 
0.017793 -0.024551 0.002755 
0.007241 -0.021687 0.001000 
0.034368 -0.003750 0.050199 
0.013728 -0.026302 0.027821 
0.012795 0.029436 0.013145 
0.012289 -0.011308 0.000000 
0.010316 -0.008061 0.000000 
-0.026999 -0.019993 0.065956 
-0.018639 0.024001 0.044448 
-0.032149 -0.013134 0.063386 
0.031633 0.009333 0.029797 
0.021670 -0.026787 0.054515 
-0.010602 0.006795 0.000000 
0.012287 0.028109 0.037123 
-0.027998 0.011643 0.040821 
-0.024435 -0.024195 0.056751 
-0.008985 -0.011838 0.000000 
0.001467 -0.028496 0.008187 
0.002116 -0.030681 0.044239 
-0.029764 0.008896 0.051335 
0.011319 -0.024278 0.001000 
-0.030000 -0.004691 0.000290 
-0.010000 -0.030387 0.018591 
0.025198 0.021531 0.032097 
-0.029687 -0.008803 0.049901 
0.030391 -0.015569 0.051923 
0.032230 -0.007293 0.028228 
0.033471 -0.004825 0.036172 
0.024853 0.019983 0.017872 
0.005480 -0.009674 0.001000 
-0.020351 0.020052 0.013385 
-0.021128 -0.006603 0.000000 
0.018450 0.027132 0.030723 
0.013870 -0.027180 0.041456 
-0.017072 -0.005399 0.001000 
0.021223 -0.008944 0.001000 
-0.006835 -0.006516 0.000000 
-0.018244 0.008930 0.000000 
0.010606 -0.032606 0.062612 
0.025404 -0.016519 0.029218 
-0.030994 0.011973 0.033202 
-0.012359 -0.030203 0.021847 
-0.032522 -0.007360 0.034205 
-0.000780 -0.030867 0.047300 
0.010292 -0.032292 0.051690 
-0.017558 0.025730 0.010020 
0.031465 -0.005239 0.056839 
0.024077 -0.014179 0.001075 
0.012867 0.027329 0.000000 
0.029532 0.011951 0.062278 
0.028424 0.004970 0.015551 
-0.003813 -0.031978 0.065644 
-0.007316 -0.015662 0.000000 
-0.012548 0.031634 0.047788 
-0.002329 0.031578 0.059037 
-0.010690 0.029138 0.034018 
0.016306 -0.025123 0.038508 
0.023511 -0.020435 0.009131 
0.025684 0.016110 0.031006 
0.004943 0.031703 0.061101 
-0.031132 -0.012919 0.038381 
-0.026618 0.020247 0.065744 
