
# .PCD v.6 - Point Cloud Data file format
FIELDS x y z 
SIZE 4 4 4 
TYPE F F F 
COUNT 1 1 1 
WIDTH 1646
HEIGHT 1
VIEWPOINT 0.000000 0.000000 0.000000 1.000000 0.000000 0.000000 0.00000
POINTS 1646
DATA ascii
-0.026019 0.011279 0.034474 
-0.017930 0.024942 0.000000 
-0.028068 0.005473 0.033575 
0.026132 -0.010960 0.033858 
-0.031000 0.001916 0.049246 
-0.029444 -0.005338 0.001000 
-0.010299 0.012771 0.001000 
0.010165 0.017310 0.000000 
0.000886 0.031000 0.006507 
0.012260 0.028247 0.016597 
-0.028403 -0.011792 0.041163 
-0.027369 0.010193 0.055000 
-0.005772 -0.028000 0.041008 
-0.011957 0.025831 0.049611 
-0.027082 0.014834 0.001000 
-0.001426 0.028000 0.035160 
0.015592 0.025042 0.001000 
-0.005225 0.030258 0.020179 
-0.029429 -0.005435 0.055000 
-0.018575 0.020978 0.012529 
0.006239 0.029940 0.037293 
-0.027910 -0.005921 0.010711 
-0.019519 0.023506 0.001000 
0.017613 0.021684 0.052324 
-0.005007 0.028000 0.015309 
-0.009254 -0.028254 0.017885 
0.029446 0.008215 0.028612 
-0.029637 0.006395 0.000000 
0.023984 -0.017012 0.000843 
-0.009019 -0.028019 0.014067 
-0.006840 0.028000 0.007855 
-0.019220 0.024187 0.021909 
0.026504 0.009905 0.049513 
0.019902 0.020005 0.000569 
-0.024207 -0.017207 0.043382 
0.007718 0.026928 0.001000 
-0.010697 -0.003839 0.001000 
0.000122 -0.028000 0.028544 
-0.028448 0.004399 0.027414 
-0.022515 -0.021485 0.014633 
-0.000174 -0.031000 0.000556 
-0.025636 0.017046 0.045857 
-0.019822 0.020064 0.034580 
-0.014805 0.025700 0.055000 
-0.028218 0.005050 0.015700 
0.003849 -0.028000 0.002372 
0.016104 0.022791 0.052631 
0.023904 0.019644 0.002531 
0.019706 -0.004990 0.000000 
0.005517 -0.028000 0.024499 
0.014635 0.027183 0.014167 
-0.026336 -0.015996 0.016585 
-0.015109 0.026927 0.034245 
-0.010005 0.027263 0.002460 
-0.013419 -0.025315 0.001000 
-0.025613 0.012430 0.023098 
0.027791 0.013417 0.007438 
0.007993 0.029502 0.030622 
0.001695 0.022498 0.000000 
0.029004 -0.009983 0.020701 
0.000784 0.028000 0.036085 
-0.024328 -0.016071 0.032434 
0.005014 -0.030329 0.022962 
-0.014329 -0.018116 0.000000 
0.004511 0.002398 0.000000 
-0.028214 0.012358 0.013721 
0.028732 -0.010805 0.019399 
0.027669 0.006606 0.046341 
0.027396 0.014208 0.009922 
-0.014006 0.024329 0.037615 
-0.031000 0.002593 0.018346 
0.014184 -0.015617 0.000000 
-0.009403 -0.027705 0.029776 
0.030210 -0.000000 0.044462 
0.008445 -0.028000 0.046799 
-0.027519 -0.014442 0.047900 
0.021325 -0.018961 0.046915 
0.021644 -0.022356 0.010651 
-0.008473 0.000011 0.000000 
-0.018149 0.024901 0.008644 
0.009482 0.028482 0.004660 
-0.031000 0.001481 0.029426 
0.018617 -0.020948 0.019203 
-0.026732 0.010881 0.000000 
-0.004257 0.030581 0.016575 
-0.003695 0.028000 0.021007 
0.025416 -0.012988 0.028054 
0.019178 0.016992 0.000000 
-0.013758 0.024511 0.041195 
0.003315 -0.008920 0.000000 
-0.009460 -0.028460 0.006603 
-0.025965 -0.011433 0.022984 
0.008862 0.029284 0.019990 
0.023360 -0.019799 0.055000 
-0.007405 -0.028000 0.035873 
0.020530 0.019545 0.026799 
-0.026550 0.009774 0.021795 
-0.007871 0.028000 0.020384 
-0.004413 -0.030529 0.012744 
0.018407 0.024728 0.013847 
-0.024546 0.018681 0.001300 
0.022375 -0.021625 0.011233 
-0.029815 -0.000524 0.052158 
-0.016611 -0.024986 0.055000 
-0.010078 0.027210 0.028408 
-0.029321 0.008715 0.003497 
0.028626 -0.003893 0.024226 
-0.000734 -0.028000 0.039571 
0.027635 -0.013283 0.055000 
0.004443 -0.030519 0.053462 
-0.011704 0.026017 0.028622 
0.012405 0.027738 0.000000 
0.026280 0.010539 0.031009 
0.018253 0.024831 0.005595 
-0.030187 0.005439 0.010051 
0.023562 -0.020157 0.017269 
-0.031000 -0.002171 0.026281 
0.025392 0.017411 0.038743 
0.018070 -0.019810 0.001000 
0.025253 0.017621 0.026780 
0.026967 0.015557 0.044994 
-0.019846 0.002498 0.001000 
-0.017640 0.021664 0.025120 
-0.009353 0.018953 0.000000 
-0.009878 -0.028878 0.000391 
0.005466 0.028000 0.051139 
-0.013625 0.024608 0.038613 
-0.006790 -0.024719 0.000000 
0.024166 -0.019251 0.027141 
-0.011925 -0.025855 0.036758 
0.030282 -0.000000 0.013101 
0.012820 -0.028060 0.014000 
-0.015880 0.026970 0.051848 
-0.016961 0.022162 0.035563 
0.008348 0.028000 0.015188 
0.012425 -0.026779 0.000000 
-0.026230 0.010681 0.012073 
0.019578 0.013179 0.001000 
-0.029086 -0.009654 0.054296 
0.009056 -0.028056 0.033239 
-0.002909 0.028850 0.055000 
-0.028274 -0.004891 0.035501 
0.003578 0.028000 0.009605 
0.016179 0.026214 0.001882 
0.030810 0.003570 0.010697 
0.030039 0.005883 0.017577 
-0.015767 0.026488 0.019368 
-0.019013 0.022766 0.055000 
0.017379 -0.025569 0.053904 
-0.008593 -0.013489 0.001000 
-0.002196 -0.031000 0.005182 
0.000465 0.021844 0.000000 
0.029555 -0.007781 0.052652 
-0.026418 -0.015873 0.006869 
-0.000179 -0.028000 0.008613 
0.008182 0.019818 0.001000 
0.013224 -0.024902 0.003109 
-0.029926 -0.000209 0.029780 
-0.023471 0.020294 0.016247 
-0.015905 0.005007 0.000000 
0.012406 -0.028198 0.053060 
0.009811 -0.028811 0.012620 
0.024647 -0.018530 0.049864 
-0.009803 0.018314 0.000000 
0.025818 0.012336 0.000000 
0.023208 -0.020688 0.011557 
-0.001358 -0.003216 0.001000 
0.024512 -0.006932 0.000000 
-0.028123 -0.012631 0.010343 
0.011712 0.028429 0.003605 
0.002259 -0.031000 0.049543 
0.031000 0.001560 0.000953 
0.025460 0.017311 0.000774 
-0.026740 -0.015390 0.021800 
0.003495 -0.019260 0.000000 
-0.011635 0.026067 0.030883 
-0.026399 0.011252 0.001000 
0.015286 0.005412 0.001000 
-0.028967 -0.002928 0.031218 
-0.022654 -0.021346 0.034452 
-0.030368 -0.004897 0.000077 
0.021325 0.018962 0.047108 
-0.003002 -0.013133 0.001000 
0.000162 -0.030428 0.000000 
0.004586 -0.028000 0.050362 
-0.021323 -0.018963 0.030642 
0.019986 -0.004663 0.001000 
0.028956 0.010131 0.023281 
0.024534 -0.017534 0.011536 
0.014615 0.023882 0.036193 
0.023085 0.020592 0.001000 
0.016123 0.026251 0.001230 
-0.018628 0.016505 0.000000 
-0.028533 -0.011401 0.040855 
-0.020926 0.023049 0.047349 
-0.027990 -0.013030 0.036789 
-0.000583 -0.028000 0.019436 
-0.020759 -0.022040 0.000000 
-0.030559 0.004323 0.028491 
-0.025960 -0.011446 0.032915 
0.016516 -0.013293 0.000000 
-0.013346 -0.024813 0.040297 
0.021742 0.018656 0.037467 
0.028452 -0.004387 0.050334 
0.029411 0.008358 0.004498 
-0.008711 0.009055 0.001000 
-0.008194 0.011892 0.001000 
0.017340 0.007717 0.000000 
-0.024814 0.017814 0.051799 
-0.010568 0.026369 0.001000 
0.028585 -0.004010 0.043715 
0.028001 0.012998 0.020088 
-0.010180 0.006562 0.000000 
-0.010204 -0.028932 0.054973 
-0.015963 0.025656 0.000000 
0.011574 -0.015756 0.000000 
-0.028176 -0.012471 0.052645 
0.031000 0.001749 0.036929 
-0.011380 0.028540 0.010394 
-0.024255 -0.017255 0.009517 
-0.005966 0.030011 0.017417 
0.017884 0.021485 0.052857 
-0.016462 -0.006214 0.001000 
0.011974 0.028342 0.031512 
-0.013618 0.023496 0.000000 
-0.026825 -0.015262 0.035276 
0.010236 0.028921 0.039774 
-0.027606 -0.006784 0.015772 
0.001775 -0.028257 0.001000 
-0.024078 0.016780 0.012784 
-0.014860 0.023703 0.026599 
-0.024532 -0.018702 0.036318 
0.003038 0.008878 0.001000 
0.019977 0.023682 0.046115 
-0.028198 0.012407 0.002858 
-0.029703 0.007188 0.004452 
-0.025233 0.013507 0.040154 
0.029045 -0.009821 0.031905 
-0.014742 0.021848 0.001000 
-0.016847 0.025769 0.010874 
0.011921 0.025858 0.042750 
-0.006866 -0.020959 0.001000 
0.009600 -0.029100 0.008114 
-0.030521 -0.000000 0.020527 
-0.028783 0.003449 0.051150 
0.004916 -0.030361 0.024795 
-0.021963 -0.022037 0.016140 
0.015872 -0.003265 0.000000 
0.001631 0.028554 0.055000 
0.010245 0.028918 0.025760 
-0.005425 -0.028000 0.032015 
-0.027193 -0.007953 0.008970 
0.012545 -0.025401 0.010193 
-0.027182 -0.013971 0.001000 
0.020372 -0.019378 0.000000 
-0.031000 -0.001854 0.044137 
-0.010205 0.028932 0.033139 
0.029248 0.002130 0.044101 
0.015568 -0.005502 0.001000 
-0.029117 0.002502 0.011117 
-0.012040 -0.028320 0.009421 
-0.026923 0.008717 0.049163 
-0.010213 0.028929 0.035065 
-0.012035 0.028322 0.041000 
0.029061 -0.002660 0.027928 
-0.006333 0.028000 0.037554 
0.024391 0.017391 0.047411 
-0.031000 0.002085 0.051896 
-0.010849 -0.027091 0.055000 
-0.023854 -0.017107 0.004542 
-0.027180 0.009903 0.000000 
-0.026651 -0.009490 0.045881 
-0.024891 0.006102 0.000000 
-0.010775 -0.026699 0.030345 
-0.027927 0.003814 0.001000 
0.002244 0.018623 0.001000 
0.018440 -0.013163 0.000000 
0.026171 0.016325 0.044412 
0.029160 -0.002380 0.039183 
-0.009139 -0.027898 0.048709 
-0.002770 -0.031000 0.054566 
0.018290 0.024807 0.029132 
-0.006122 -0.028048 0.055000 
-0.020248 0.012932 0.000000 
0.020239 -0.006553 0.001000 
-0.015119 -0.023513 0.005924 
0.018501 0.024666 0.048525 
0.001681 0.028000 0.039688 
-0.023350 -0.018705 0.001000 
-0.019167 0.024222 0.044188 
-0.023020 0.017719 0.036531 
-0.009031 -0.028031 0.026851 
-0.006518 0.029870 0.030166 
0.013365 0.024799 0.034912 
-0.011062 -0.026488 0.039469 
0.029340 -0.008640 0.013211 
-0.025851 0.011755 0.041013 
-0.027137 0.014725 0.006144 
-0.014818 -0.023734 0.016000 
0.014973 -0.023620 0.003139 
0.012666 -0.028111 0.018288 
-0.023670 0.017242 0.049501 
0.024991 0.014191 0.015325 
0.011939 0.028354 0.030993 
0.011142 -0.026429 0.021966 
-0.030540 -0.004381 0.012660 
0.023941 0.017043 0.039524 
0.019637 0.020200 0.020033 
0.014268 -0.027366 0.025616 
0.008174 0.028000 0.004664 
0.012868 -0.025164 0.039973 
-0.028264 -0.004919 0.048725 
-0.005283 0.030239 0.009254 
-0.008592 0.007242 0.000000 
0.024055 0.017055 0.014664 
0.003827 -0.025390 0.001000 
0.006426 -0.028000 0.021136 
-0.005207 0.028000 0.044301 
-0.002997 0.029318 0.001000 
0.017473 -0.021787 0.008521 
0.028763 -0.003506 0.003051 
-0.030951 0.002283 0.001000 
-0.026252 0.010620 0.006960 
-0.003460 -0.028000 0.020165 
-0.021886 -0.018550 0.045736 
0.023451 -0.020323 0.041654 
-0.027268 -0.007740 0.017883 
0.002257 0.031000 0.047604 
0.028164 0.012508 0.050515 
0.019627 0.023915 0.050156 
0.020553 0.019528 0.045174 
0.009691 -0.028691 0.013556 
0.013645 -0.024593 0.024762 
-0.028279 -0.004876 0.049158 
0.006849 0.028000 0.007665 
0.024778 -0.014797 0.006419 
0.005151 0.028000 0.044050 
0.026302 0.010478 0.018131 
-0.017949 0.025034 0.023025 
0.012320 0.012567 0.000000 
0.002965 0.031000 0.030921 
-0.011871 0.025895 0.044607 
0.026684 0.015474 0.032983 
0.009364 -0.029159 0.022120 
-0.023617 -0.020075 0.000708 
0.026910 0.015135 0.032701 
-0.002964 -0.031000 0.033507 
-0.019822 0.020064 0.019834 
-0.018334 -0.021155 0.023094 
0.029555 0.007779 0.005089 
-0.019977 0.012398 0.001000 
0.014889 -0.023681 0.043718 
-0.017380 -0.025252 0.001000 
0.007493 0.028000 0.052584 
-0.019507 0.023995 0.043053 
-0.014373 0.024479 0.001000 
-0.005546 0.030151 0.010917 
0.006983 0.025070 0.000000 
0.000194 -0.031000 0.032158 
0.029707 -0.000830 0.040158 
-0.011760 -0.022889 0.001000 
-0.024189 -0.019216 0.024641 
-0.009213 0.029197 0.025049 
-0.028777 0.003466 0.022207 
0.007294 -0.029676 0.020791 
0.002049 -0.028000 0.023054 
0.003411 -0.001663 0.000000 
0.025669 -0.016997 0.052490 
0.016859 -0.011692 0.000000 
-0.017415 -0.016750 0.000000 
0.007376 -0.029656 0.011807 
0.022630 0.021370 0.031904 
0.002394 0.028000 0.003973 
0.014484 -0.023978 0.054940 
0.017356 -0.025429 0.016090 
-0.017173 -0.020019 0.000000 
-0.029257 -0.008971 0.042918 
0.023978 0.019533 0.000738 
-0.022437 -0.021563 0.014805 
0.024259 -0.019112 0.008961 
-0.006080 0.028000 0.036172 
0.022018 -0.021982 0.031178 
-0.024816 -0.016822 0.055000 
0.008764 0.029309 0.035372 
0.026257 0.016352 0.046805 
0.025373 0.015941 0.055000 
-0.028292 -0.012123 0.027890 
0.011631 -0.004575 0.001000 
-0.011439 0.024092 0.001000 
0.016094 -0.016861 0.001000 
-0.024288 0.016185 0.020512 
0.029506 0.003651 0.001000 
-0.030646 -0.004063 0.022506 
0.016781 -0.010812 0.001000 
-0.001196 0.031000 0.048774 
0.016810 0.025794 0.013527 
0.015326 -0.023361 0.049425 
0.024964 -0.018053 0.010217 
0.025426 -0.012960 0.006357 
0.027658 0.006636 0.011567 
0.016152 0.026232 0.037242 
-0.003764 0.030745 0.021662 
-0.016538 0.022472 0.033614 
-0.026364 0.015954 0.029624 
-0.010074 0.027212 0.025541 
-0.025226 0.017662 0.015399 
-0.021404 0.022596 0.042503 
-0.030705 0.003886 0.027105 
-0.021696 -0.022304 0.030033 
0.029079 -0.009682 0.036605 
0.020900 -0.019273 0.026530 
0.018062 0.021355 0.049878 
-0.024273 -0.017273 0.004188 
-0.015225 0.023435 0.016575 
0.028622 -0.011134 0.053350 
0.006151 -0.000922 0.001000 
-0.005147 -0.030284 0.039420 
-0.024662 0.015124 0.023150 
-0.023497 -0.017369 0.004405 
0.010932 0.028689 0.005011 
-0.022829 0.017859 0.035645 
-0.026098 0.016352 0.003710 
0.020667 0.019445 0.009353 
0.028159 0.012522 0.049539 
0.011526 -0.026147 0.019349 
-0.024235 -0.010286 0.001000 
-0.024866 0.017866 0.018157 
-0.016647 -0.022392 0.049104 
-0.013276 -0.027862 0.042889 
0.025404 0.013691 0.001000 
0.024667 0.015110 0.043434 
0.017021 0.025652 0.020205 
-0.026333 0.016000 0.051230 
0.018340 -0.024773 0.035581 
-0.013845 0.012889 0.001000 
-0.026616 0.015577 0.004150 
0.017776 -0.025149 0.016088 
0.015655 0.023120 0.024709 
0.001624 -0.028000 0.040360 
-0.026173 -0.010843 0.017158 
0.021657 -0.022343 0.029670 
-0.012110 0.025719 0.026525 
-0.026878 -0.008845 0.039407 
0.027295 -0.007665 0.038141 
0.000309 -0.028000 0.044390 
0.028736 -0.010792 0.035721 
0.026975 0.013011 0.001000 
-0.027315 -0.007608 0.012040 
0.004712 0.028000 0.002730 
0.026274 0.010558 0.014518 
-0.018629 -0.020939 0.053065 
0.028520 -0.011441 0.006369 
0.029872 -0.006513 0.032840 
-0.015955 -0.022900 0.011271 
-0.028076 0.012773 0.049030 
-0.011994 -0.028335 0.023140 
-0.000678 -0.017496 0.000000 
0.018542 0.021002 0.003781 
0.030793 -0.000000 0.029680 
-0.012883 -0.001221 0.001000 
0.028995 0.010016 0.013741 
-0.019184 -0.024211 0.037530 
-0.015678 -0.023103 0.015961 
-0.020872 0.019294 0.042468 
-0.024622 -0.015238 0.052903 
0.009040 0.027971 0.032512 
0.015904 -0.026925 0.051409 
0.002042 0.030454 0.001000 
0.019455 -0.020333 0.048199 
0.020593 0.019498 0.032170 
0.015023 -0.023583 0.040633 
0.007154 0.028686 0.055000 
0.013820 -0.010782 0.001000 
-0.005758 0.028000 0.046851 
-0.015032 -0.026978 0.026877 
0.022473 -0.018119 0.030136 
-0.017049 -0.014790 0.001000 
0.015604 -0.023157 0.038305 
-0.025188 -0.013634 0.027663 
-0.017795 -0.025137 0.024724 
0.013735 -0.001805 0.000000 
-0.008410 -0.015424 0.001000 
0.029870 -0.006518 0.042843 
0.001868 -0.029470 0.000000 
0.013708 -0.024548 0.017193 
-0.008110 -0.028000 0.001188 
0.023027 -0.020960 0.036427 
0.023704 0.017217 0.023928 
-0.026777 -0.009131 0.038565 
0.012966 0.025091 0.015392 
-0.009482 -0.011902 0.001000 
-0.024598 -0.015305 0.023171 
0.030837 0.003490 0.050495 
0.001710 -0.031000 0.049770 
0.026064 0.011151 0.017623 
-0.000868 -0.031000 0.030537 
-0.026397 -0.010210 0.026994 
0.023516 0.017355 0.035593 
0.012636 0.028121 0.010632 
-0.027963 -0.013074 0.031186 
0.000857 -0.031000 0.046908 
-0.024239 0.019141 0.050499 
0.009890 -0.027348 0.014313 
0.026556 -0.013201 0.001000 
-0.024441 -0.017441 0.006183 
0.012672 -0.025307 0.054627 
-0.014008 0.024328 0.018995 
0.020445 0.000128 0.001000 
-0.023799 -0.019801 0.025436 
0.005070 0.028000 0.007676 
0.011569 -0.026116 0.032557 
-0.018880 0.004446 0.000000 
0.021588 0.022412 0.049898 
0.028657 -0.011028 0.014439 
-0.013309 0.027897 0.037579 
-0.018994 -0.024338 0.032732 
-0.004202 -0.030599 0.016787 
-0.006849 -0.029622 0.001000 
-0.031000 -0.001446 0.019932 
0.018372 0.024752 0.006338 
0.020377 -0.001688 0.000000 
-0.005043 0.030319 0.022784 
0.023467 0.017391 0.011336 
-0.001528 0.031000 0.020769 
-0.022804 0.021196 0.007051 
0.028246 -0.004971 0.023560 
0.023350 -0.017476 0.048157 
-0.012252 -0.028249 0.049924 
-0.029487 0.008053 0.054597 
-0.013987 0.024343 0.045876 
-0.025671 -0.016993 0.045448 
0.028466 -0.004346 0.045359 
-0.027303 0.007640 0.029814 
-0.018997 -0.004330 0.001000 
0.005051 -0.028000 0.015005 
0.022487 0.018109 0.033902 
-0.029129 -0.009482 0.046208 
-0.007785 0.001582 0.001000 
-0.002073 -0.030340 0.000000 
-0.004596 -0.030468 0.049978 
0.023412 0.020382 0.007370 
0.009041 -0.028041 0.034848 
-0.010649 -0.028784 0.017323 
0.005161 -0.004061 0.001000 
0.022437 -0.021563 0.000556 
0.027004 0.015318 0.040845 
-0.030298 0.005107 0.006952 
-0.013227 0.027886 0.020126 
-0.004515 0.013569 0.000000 
0.005373 0.024541 0.001000 
0.003903 -0.030699 0.024864 
-0.001468 0.028000 0.001712 
-0.027740 -0.003405 0.000000 
-0.002952 -0.003126 0.000000 
-0.009602 0.028602 0.008569 
-0.001730 -0.031000 0.027630 
0.029471 0.006808 0.000000 
0.011030 0.028657 0.009840 
0.011172 -0.026407 0.027092 
0.008271 -0.029432 0.046099 
0.012335 0.028222 0.050654 
0.011964 -0.028345 0.010609 
-0.005341 0.030220 0.034744 
-0.019985 -0.023677 0.028254 
-0.013477 0.024717 0.019823 
0.014920 0.023659 0.018934 
0.017229 0.021966 0.038646 
0.024048 0.019428 0.002358 
-0.030775 -0.003675 0.022606 
-0.026881 0.015179 0.042754 
-0.027938 -0.013123 0.023969 
0.012419 -0.025493 0.037818 
0.008489 -0.029378 0.007231 
0.003672 0.028000 0.040058 
-0.020832 -0.023112 0.027690 
-0.023766 -0.017172 0.053947 
0.008478 -0.029380 0.000205 
0.010832 -0.026657 0.034780 
0.016770 -0.011872 0.001000 
0.029709 -0.007165 0.037557 
0.016460 -0.026027 0.015517 
-0.010285 -0.017942 0.000000 
-0.020482 -0.019580 0.025745 
-0.002620 -0.028000 0.014484 
0.017713 -0.022544 0.001000 
-0.018051 0.024966 0.023071 
0.004271 -0.021381 0.000000 
0.030920 -0.003239 0.032717 
-0.029413 0.001662 0.015323 
-0.012616 -0.028128 0.008361 
-0.017032 0.025853 0.052591 
0.027890 -0.005980 0.053503 
-0.024429 0.017429 0.018353 
-0.009116 -0.016277 0.001000 
0.007893 0.029527 0.011078 
-0.015777 -0.026482 0.047801 
-0.019383 0.008529 0.001000 
0.025787 0.011936 0.025098 
-0.030855 0.003436 0.051141 
-0.015466 0.010539 0.001000 
-0.015766 -0.026490 0.010017 
-0.023880 -0.019680 0.053328 
-0.025425 0.012964 0.047129 
0.016940 -0.025910 0.051850 
0.022399 0.018174 0.033246 
0.025012 0.017982 0.015127 
-0.026957 -0.015064 0.030552 
-0.031000 -0.001696 0.012928 
-0.004695 0.030435 0.030737 
-0.030898 -0.000000 0.041743 
0.019611 0.020218 0.053908 
0.024610 -0.015271 0.051922 
-0.005168 -0.028000 0.043806 
-0.013767 0.024504 0.046107 
-0.016972 0.022154 0.024123 
0.020929 -0.019930 0.000000 
-0.029625 0.001063 0.033365 
-0.013636 0.027106 0.001000 
0.016641 -0.022396 0.011631 
0.010072 -0.027214 0.028221 
-0.001982 0.011247 0.001000 
-0.030117 -0.005648 0.041008 
-0.002507 0.031000 0.021514 
-0.026202 0.016197 0.054579 
-0.019337 0.024109 0.027129 
-0.026046 -0.011204 0.048777 
0.030126 0.005622 0.020403 
0.023691 0.019964 0.045024 
0.027891 -0.002001 0.000000 
0.006935 0.007840 0.000000 
0.015168 -0.023476 0.020483 
-0.006474 0.029882 0.016141 
0.017990 -0.021407 0.043416 
-0.028369 -0.004621 0.004971 
0.029071 0.003580 0.000000 
0.026008 0.011310 0.032197 
0.012898 0.025142 0.028090 
-0.008048 -0.028000 0.046934 
0.013090 0.025000 0.052264 
0.026068 -0.011140 0.007243 
-0.004933 0.030356 0.005349 
0.028227 -0.012318 0.030396 
0.019159 0.023484 0.055000 
-0.028049 0.006011 0.000000 
0.009290 -0.028290 0.011334 
-0.018138 -0.021299 0.018422 
-0.013253 -0.024881 0.024546 
-0.024626 0.017626 0.029272 
-0.013452 -0.024735 0.014464 
-0.012435 -0.009144 0.001000 
-0.026534 0.009821 0.005752 
-0.005511 -0.028000 0.054379 
-0.027125 -0.014749 0.031253 
0.026948 0.011041 0.000000 
-0.012196 -0.025656 0.047005 
0.012813 -0.025204 0.007794 
0.025896 -0.011812 0.000000 
-0.029380 -0.001757 0.034528 
-0.006986 0.028000 0.009837 
0.005044 0.030319 0.016037 
-0.006672 -0.029832 0.030684 
-0.005530 -0.028000 0.042926 
-0.027079 -0.008276 0.024466 
-0.005108 0.002760 0.001000 
0.009956 -0.022204 0.001000 
-0.003650 0.030783 0.046349 
-0.016467 0.022524 0.053011 
0.026650 -0.009491 0.028412 
0.009836 0.028836 0.014178 
-0.016968 -0.025688 0.040275 
-0.031000 0.000973 0.051060 
0.003605 -0.028000 0.049197 
0.027367 0.014266 0.004677 
-0.027731 -0.013539 0.011137 
-0.026131 0.015936 0.000000 
-0.009255 -0.028255 0.034363 
-0.018860 -0.017761 0.001000 
-0.015348 -0.026768 0.007727 
-0.013872 -0.024428 0.013218 
-0.009593 -0.029102 0.001184 
0.003980 -0.030673 0.032298 
-0.014138 -0.009611 0.001000 
-0.000377 -0.014357 0.000000 
0.003755 -0.026213 0.001000 
0.004689 -0.014567 0.000000 
0.022956 0.021044 0.008788 
-0.024663 -0.018506 0.051845 
0.007813 -0.028000 0.015488 
0.000602 0.018585 0.000000 
-0.024307 -0.016131 0.044267 
-0.024172 0.016514 0.002257 
-0.030294 0.005119 0.006076 
0.026050 -0.011193 0.043665 
-0.030633 -0.004102 0.015799 
0.021933 -0.018516 0.022456 
0.025197 -0.013609 0.030720 
0.003397 -0.030868 0.032592 
0.020144 0.023571 0.005349 
-0.024757 -0.014855 0.040778 
-0.011257 0.028581 0.042508 
-0.017644 0.025237 0.023337 
-0.013488 0.024709 0.047008 
-0.009457 -0.027665 0.005308 
-0.008191 -0.025701 0.000000 
0.016429 0.026047 0.039775 
-0.021535 0.022465 0.009635 
0.003337 0.008968 0.000000 
0.026203 -0.013332 0.000000 
-0.000606 0.031000 0.018754 
-0.029888 0.000318 0.020370 
0.029144 0.002426 0.037826 
0.008853 -0.028000 0.036951 
0.025292 0.017562 0.005283 
-0.011717 0.028428 0.040852 
0.027610 -0.006772 0.038710 
-0.020538 0.019539 0.040038 
0.028355 0.004662 0.000603 
0.027344 0.007526 0.033951 
-0.025963 -0.016555 0.011679 
-0.023041 -0.020938 0.043228 
0.018644 0.008455 0.001000 
0.025098 0.016157 0.055000 
-0.026657 0.015514 0.008700 
-0.013988 0.005648 0.000000 
0.021307 -0.022693 0.008474 
0.020015 -0.023656 0.005578 
0.004347 -0.030551 0.028875 
0.012398 0.025508 0.038061 
-0.021565 -0.015627 0.000000 
-0.010877 0.028708 0.022995 
0.028869 -0.010394 0.038865 
-0.021735 -0.022265 0.024514 
-0.017671 -0.021641 0.034577 
0.015431 -0.023284 0.049623 
-0.000860 -0.030407 0.000000 
0.002475 -0.031000 0.024530 
0.018524 -0.021016 0.052199 
0.010268 0.027070 0.023833 
-0.025343 0.013195 0.015615 
0.019245 0.024170 0.000707 
0.029668 0.000941 0.042978 
0.015706 0.026529 0.048216 
-0.016961 -0.025693 0.035207 
0.005758 0.030081 0.032544 
0.030140 0.005581 0.046232 
-0.023753 -0.018169 0.000000 
0.009574 0.028574 0.012321 
-0.024876 -0.017876 0.033009 
-0.025546 -0.017180 0.043843 
-0.013504 -0.027748 0.013241 
-0.012531 -0.028156 0.006138 
-0.024780 -0.014791 0.037837 
0.000320 -0.031000 0.054294 
0.002191 0.028000 0.008080 
-0.024078 0.016778 0.019585 
-0.024647 0.017647 0.001028 
0.026647 0.009501 0.015982 
-0.024648 0.017648 0.017045 
0.029320 -0.008718 0.004029 
-0.021457 -0.022543 0.006937 
0.020469 0.023312 0.000000 
-0.027751 -0.009761 0.000000 
0.026240 -0.010652 0.034880 
0.027675 0.013649 0.014309 
-0.008387 -0.029403 0.037710 
-0.029582 0.007671 0.041580 
-0.026588 0.015619 0.014521 
0.009209 -0.027847 0.012031 
-0.028881 0.010357 0.022754 
0.012246 -0.006392 0.000000 
-0.017532 0.021743 0.029778 
-0.003579 -0.028000 0.052738 
0.010021 0.028993 0.022494 
0.020487 0.011157 0.000000 
-0.025450 0.017325 0.015553 
0.021112 -0.022888 0.009633 
0.003726 0.030758 0.019968 
-0.029325 0.001913 0.024174 
-0.018206 -0.021249 0.003637 
-0.004089 0.028000 0.005742 
0.027455 0.014635 0.052865 
-0.024958 -0.017958 0.036585 
0.000824 0.019242 0.000000 
0.003943 -0.012582 0.001000 
-0.014899 0.003964 0.000000 
0.028887 0.010338 0.020474 
0.029931 -0.002129 0.000000 
0.008169 0.029458 0.054434 
0.026765 0.015353 0.008968 
-0.028026 -0.005592 0.026496 
0.008212 -0.021443 0.000000 
-0.009336 -0.029166 0.054990 
-0.019889 0.011783 0.000000 
-0.003347 0.030884 0.040013 
0.019613 0.002019 0.001000 
-0.017885 -0.025077 0.018149 
-0.020197 0.019789 0.038119 
-0.009678 0.028678 0.051600 
0.016149 -0.020190 0.000000 
-0.026262 -0.010590 0.003000 
-0.012015 0.025789 0.043645 
-0.027911 -0.005917 0.031239 
-0.007285 0.029679 0.052459 
-0.026680 0.009406 0.032758 
-0.012039 -0.028320 0.052837 
0.016656 -0.025896 0.009263 
0.027599 0.013802 0.029558 
-0.025782 -0.014864 0.001000 
-0.012965 -0.028012 0.043499 
-0.029951 0.000139 0.040388 
-0.019272 0.020467 0.014698 
0.023070 0.020895 0.044920 
0.024485 0.017485 0.028120 
-0.003340 -0.030887 0.009733 
0.019178 -0.020536 0.053341 
0.000433 0.031000 0.006206 
0.008644 -0.029339 0.000918 
-0.020807 -0.023129 0.037549 
-0.017681 0.025212 0.049549 
0.000705 0.021304 0.000000 
-0.031000 -0.000816 0.028761 
0.009875 -0.028875 0.014427 
0.024256 0.019116 0.025118 
0.008847 0.028000 0.045858 
-0.029604 0.001123 0.034481 
-0.003104 0.002264 0.001000 
0.023339 0.010309 0.001000 
0.006443 0.028000 0.012832 
-0.007415 0.029646 0.035679 
-0.000549 0.031000 0.024854 
0.009599 -0.029100 0.029754 
0.008564 0.028209 0.055000 
-0.021416 0.018895 0.025546 
0.027085 -0.014831 0.003370 
0.018642 -0.006172 0.001000 
-0.003324 -0.030892 0.004553 
0.001655 0.031000 0.021173 
-0.024373 -0.015944 0.023577 
0.005696 -0.022554 0.000000 
-0.028176 -0.012472 0.036710 
-0.023687 -0.019969 0.024450 
0.022857 0.017839 0.014271 
-0.015979 0.026412 0.042216 
0.001528 0.014084 0.000000 
0.027801 -0.006231 0.009337 
-0.025405 0.014291 0.001000 
-0.027568 -0.013865 0.007527 
0.023136 0.020797 0.028565 
-0.005380 -0.022334 0.000000 
-0.018479 0.024681 0.031507 
0.004198 0.028000 0.007716 
0.029303 0.008789 0.042316 
-0.011818 -0.028394 0.001858 
-0.000170 -0.028000 0.009490 
0.014864 -0.027074 0.034267 
-0.001121 -0.031000 0.011962 
-0.028406 -0.004515 0.000399 
0.024100 -0.017100 0.034286 
0.004782 0.028000 0.026558 
-0.030023 0.005930 0.001580 
-0.027619 0.006746 0.026609 
-0.015733 0.021377 0.000000 
0.014991 0.004555 0.001000 
0.021198 -0.017927 0.001000 
-0.022224 -0.021776 0.011080 
0.015161 -0.023482 0.047510 
-0.030480 -0.000000 0.047563 
0.026499 0.015751 0.036920 
0.028334 -0.004720 0.015301 
0.005239 -0.029288 0.055000 
-0.022376 -0.018191 0.024101 
0.029706 0.003937 0.000000 
-0.002652 0.028000 0.030891 
-0.003799 -0.022669 0.000000 
0.002458 -0.028000 0.030507 
0.028914 -0.003076 0.034730 
-0.012674 0.025306 0.007299 
0.011394 0.027647 0.001000 
0.029076 0.002618 0.054430 
0.029381 0.001753 0.032671 
0.020805 0.021310 0.055000 
-0.015264 0.023406 0.019520 
-0.026098 -0.011056 0.049705 
-0.014496 -0.007651 0.001000 
0.014211 -0.027395 0.029262 
-0.027780 -0.013441 0.009692 
-0.031000 -0.002008 0.032528 
-0.009975 -0.016139 0.001000 
-0.005782 -0.028000 0.051642 
0.029241 0.002150 0.037274 
-0.028052 -0.005518 0.005508 
0.022138 -0.021862 0.054432 
-0.027719 0.013561 0.053137 
0.009656 -0.027519 0.035155 
-0.011333 -0.006122 0.000000 
0.018691 -0.024540 0.049831 
0.018142 0.024905 0.037312 
-0.009835 0.028835 0.035688 
-0.009080 -0.000881 0.001000 
0.013042 -0.027979 0.011244 
-0.017226 -0.023738 0.055000 
0.029265 -0.000817 0.000000 
0.020898 -0.023068 0.000509 
-0.024195 -0.019207 0.054982 
0.002559 -0.031000 0.025825 
0.003650 0.028000 0.037216 
-0.016890 -0.023142 0.001000 
-0.000689 -0.028000 0.008905 
-0.028341 0.007765 0.001000 
-0.028979 -0.005360 0.001000 
0.004801 -0.025499 0.001000 
-0.016553 0.001846 0.000000 
0.030104 -0.000000 0.014358 
0.016187 -0.026641 0.051392 
-0.007533 -0.010412 0.001000 
-0.002352 -0.031000 0.009952 
-0.026891 -0.015163 0.004320 
-0.010906 0.026602 0.050274 
0.014124 0.027438 0.005495 
0.014599 -0.027200 0.005821 
0.027941 0.005834 0.053174 
0.024379 0.017379 0.030965 
-0.016028 -0.010528 0.001000 
0.020838 -0.023108 0.012186 
-0.024611 -0.018584 0.032096 
0.024441 0.015751 0.046692 
0.025405 -0.008774 0.000000 
-0.015941 -0.017781 0.001000 
0.024291 0.017291 0.040354 
-0.013599 -0.024783 0.001000 
0.004792 0.017232 0.001000 
-0.025239 0.013489 0.034662 
0.000961 -0.031000 0.020022 
-0.027012 -0.014975 0.001740 
-0.028062 0.007443 0.000000 
0.029712 0.007152 0.026863 
0.018910 0.007790 0.000000 
-0.027597 0.006810 0.009937 
0.005019 0.028000 0.044453 
-0.023488 -0.017376 0.003277 
-0.023711 0.019933 0.034022 
0.001132 -0.031000 0.000563 
-0.009417 -0.028417 0.008055 
0.025550 -0.012609 0.003032 
0.014777 -0.027111 0.011563 
0.027709 0.013581 0.022910 
0.003122 -0.002647 0.000000 
-0.010528 0.026879 0.010133 
0.019758 -0.017143 0.001000 
0.005773 -0.030076 0.033830 
-0.020505 -0.023330 0.031597 
0.027265 -0.007750 0.046748 
-0.014995 -0.023603 0.000106 
-0.022636 0.021364 0.027070 
0.021767 0.018638 0.010492 
0.018044 -0.021367 0.015589 
-0.003350 -0.001759 0.001000 
-0.003254 -0.028000 0.042170 
0.005232 0.028000 0.005524 
-0.017142 -0.015761 0.000000 
-0.017678 -0.021636 0.035589 
0.029314 0.008746 0.052438 
-0.007610 0.029598 0.000904 
0.028581 0.007614 0.001000 
0.000182 -0.028000 0.014551 
-0.031000 -0.002932 0.047884 
0.030509 -0.002337 0.001000 
-0.029216 -0.002220 0.016107 
-0.024513 0.008106 0.000000 
0.006159 0.018245 0.001000 
-0.021587 -0.021022 0.055000 
0.030593 -0.000000 0.044847 
-0.011464 -0.028512 0.046714 
0.010546 -0.017070 0.000000 
-0.010680 0.005095 0.000000 
0.001800 -0.028000 0.026631 
-0.029762 0.006953 0.020456 
-0.017366 0.025422 0.034615 
0.023170 0.020745 0.000307 
0.002438 0.028000 0.002864 
-0.023505 -0.005551 0.001000 
0.023272 -0.020591 0.008983 
-0.024783 -0.018326 0.000178 
0.022743 -0.020951 0.055000 
-0.031000 0.000266 0.031785 
-0.030243 0.004348 0.000000 
-0.030399 -0.004803 0.007145 
-0.000696 -0.020903 0.001000 
0.023528 0.017346 0.033111 
-0.008798 -0.028445 0.055000 
-0.024913 0.014413 0.036641 
-0.019385 0.011767 0.000000 
0.025364 0.015155 0.000000 
0.027404 -0.007356 0.021670 
0.010823 -0.013644 0.000000 
0.004981 0.028000 0.013996 
-0.023515 -0.017355 0.041415 
0.021367 0.020668 0.000000 
-0.029838 0.000458 0.011057 
0.026234 -0.016148 0.004803 
-0.003628 -0.030791 0.046571 
-0.028676 -0.001931 0.001000 
0.020570 -0.023287 0.051914 
-0.009689 0.015239 0.000000 
-0.027384 0.007411 0.041709 
-0.027242 0.007813 0.001406 
-0.028607 -0.003946 0.005443 
0.020125 -0.023583 0.034780 
0.028209 -0.012373 0.009211 
0.018919 -0.020726 0.008918 
-0.016056 -0.025101 0.000000 
0.017548 -0.025302 0.022035 
0.028087 -0.012739 0.006815 
0.009149 0.027891 0.047752 
0.011661 -0.026048 0.009065 
0.006054 -0.029987 0.018547 
-0.003666 0.030778 0.026225 
-0.015073 0.023546 0.041741 
0.009898 -0.028898 0.013540 
0.024663 0.018506 0.028450 
0.030822 -0.000000 0.007566 
0.031000 -0.001015 0.032746 
-0.015705 0.016913 0.001000 
-0.009832 0.013372 0.001000 
0.012478 0.025449 0.045534 
-0.009669 -0.027509 0.037270 
-0.024898 -0.018153 0.000087 
-0.022802 0.021198 0.009170 
-0.022484 -0.018112 0.054201 
0.008422 -0.029395 0.045022 
-0.009204 0.027850 0.015237 
0.009888 0.028888 0.016250 
-0.021081 0.008302 0.001000 
-0.024362 0.018956 0.014433 
-0.002615 -0.028000 0.014428 
0.026505 0.011033 0.000000 
0.015961 0.026359 0.023578 
-0.027000 -0.008499 0.043017 
-0.013178 0.024936 0.014092 
0.008573 0.029357 0.027448 
-0.019548 -0.023968 0.011797 
0.006469 -0.014029 0.001000 
-0.006709 0.028000 0.020278 
0.024762 0.018357 0.044705 
0.027878 -0.006012 0.036651 
0.015353 0.000848 0.001000 
0.028446 0.011662 0.038984 
-0.008070 -0.029482 0.030226 
-0.000739 -0.031000 0.036531 
0.009934 0.028563 0.000000 
0.019928 -0.023289 0.055000 
0.009151 0.028151 0.009217 
0.030710 -0.003869 0.018199 
-0.011956 -0.025832 0.044476 
0.020736 -0.000120 0.000000 
0.024955 -0.017955 0.026555 
0.019864 -0.023757 0.003914 
0.007525 -0.000588 0.001000 
0.024708 0.014995 0.014086 
0.002505 0.031000 0.022334 
-0.006453 -0.029887 0.050695 
0.023414 0.020379 0.037810 
-0.026120 0.010994 0.049084 
-0.024040 -0.019440 0.051370 
0.009580 0.028580 0.012179 
-0.005401 0.028000 0.014005 
0.014809 -0.027397 0.048630 
0.010086 -0.027204 0.004405 
0.010866 -0.026632 0.014056 
-0.016545 -0.025970 0.018407 
-0.017312 0.021905 0.001620 
-0.012027 -0.025780 0.032478 
-0.020007 0.023662 0.046248 
0.013647 -0.001257 0.000000 
-0.028813 -0.003362 0.040766 
-0.024800 0.000992 0.001000 
-0.011206 -0.026382 0.051535 
0.017262 -0.025492 0.001800 
-0.029581 -0.001188 0.021104 
0.029143 0.002428 0.000379 
0.030080 -0.000000 0.002329 
-0.017718 0.016524 0.001000 
-0.000624 -0.010402 0.001000 
0.012808 -0.011986 0.001000 
0.029279 0.008885 0.040433 
0.025451 0.017323 0.027207 
-0.029211 0.009156 0.000686 
0.019855 -0.020040 0.039694 
-0.004319 0.028000 0.023829 
0.007949 0.028000 0.022352 
-0.030327 0.005019 0.037369 
0.024308 -0.016128 0.031184 
0.026171 0.010848 0.031556 
-0.013880 -0.024422 0.020972 
0.024873 0.017873 0.019989 
-0.025643 0.012346 0.016112 
-0.017734 0.025177 0.045843 
-0.008805 0.002096 0.000000 
0.004015 -0.028000 0.027661 
-0.001709 -0.028000 0.000380 
0.024065 -0.016815 0.013713 
-0.027237 0.010461 0.001000 
-0.031000 0.001628 0.004304 
-0.021475 0.018851 0.012184 
-0.030658 0.004025 0.000567 
0.019741 0.020124 0.020901 
0.029730 -0.007080 0.054192 
-0.018731 0.020864 0.016628 
0.016300 0.022647 0.000270 
0.007012 0.029747 0.036719 
-0.029346 -0.001854 0.005667 
0.009344 0.028344 0.053551 
-0.031000 -0.001555 0.024070 
-0.009510 -0.017023 0.000000 
0.024807 0.018290 0.020403 
-0.028607 -0.003948 0.015404 
0.008814 0.023695 0.001000 
0.012833 0.009987 0.000000 
0.004376 0.030541 0.034447 
0.018363 0.001816 0.000000 
-0.029782 -0.006873 0.015776 
0.006532 -0.028000 0.024613 
-0.021015 -0.022985 0.018493 
0.024067 -0.017067 0.042624 
-0.002878 0.031000 0.008190 
0.025842 0.016738 0.028081 
-0.026013 0.011298 0.024534 
0.027303 0.014394 0.011441 
-0.013643 0.024595 0.049322 
0.028921 -0.010236 0.020125 
0.031000 0.001047 0.013046 
0.031000 0.001053 0.050284 
-0.024889 -0.017889 0.020396 
-0.009345 0.027747 0.008224 
-0.024583 -0.015348 0.051163 
0.011932 0.025850 0.052905 
0.030253 -0.005242 0.049920 
0.011694 0.011002 0.001000 
-0.026665 0.009450 0.005017 
-0.007385 -0.028000 0.010434 
-0.026406 -0.010184 0.053197 
-0.008107 -0.028000 0.033270 
0.014659 0.023850 0.004298 
-0.014814 -0.027093 0.013664 
0.018502 -0.021032 0.033017 
0.004204 -0.028000 0.054923 
-0.022775 -0.014341 0.001000 
-0.019252 0.011058 0.000000 
-0.028246 -0.004971 0.034932 
-0.016777 0.006162 0.001000 
0.021529 -0.013117 0.000000 
0.028100 0.005382 0.002760 
0.028692 0.003706 0.011743 
0.015448 -0.026701 0.037100 
0.010835 0.028722 0.011813 
0.005355 0.030215 0.026843 
-0.026659 -0.009466 0.004253 
-0.018882 0.016191 0.001000 
0.017763 0.021573 0.008590 
0.017968 0.021423 0.000556 
0.007286 0.010602 0.000000 
-0.031000 0.002773 0.006837 
0.028056 -0.005507 0.042076 
-0.005133 0.028000 0.050355 
0.011735 0.027086 0.000000 
0.024786 0.018321 0.025919 
0.024708 0.017708 0.034989 
0.028940 0.010181 0.041071 
0.000252 0.028000 0.047040 
0.014916 -0.019191 0.001000 
-0.024699 0.017699 0.024626 
0.027394 0.007384 0.017391 
0.014567 -0.023917 0.048020 
0.008655 -0.028000 0.016934 
-0.030197 0.005409 0.040089 
-0.016073 -0.022813 0.023479 
0.002459 0.002706 0.000000 
0.028370 -0.011890 0.040296 
-0.009574 -0.028574 0.049743 
0.012756 -0.000867 0.000000 
-0.015249 -0.026834 0.018285 
0.030850 0.003449 0.041333 
-0.018191 -0.021260 0.019228 
-0.031000 -0.000694 0.021366 
-0.011264 0.028579 0.054658 
0.016671 -0.004014 0.001000 
-0.030854 -0.003438 0.049105 
0.028633 -0.011101 0.011985 
0.016098 -0.026268 0.013800 
-0.009024 -0.028024 0.012407 
-0.012540 0.025404 0.052697 
0.025810 0.017024 0.051513 
-0.017478 -0.021783 0.041735 
-0.004072 0.030496 0.000000 
-0.026567 0.009727 0.047851 
-0.007986 0.029503 0.018363 
0.004176 0.029956 0.055000 
0.026507 -0.009897 0.053263 
-0.016373 -0.026084 0.050520 
-0.004670 -0.030443 0.026434 
0.013911 -0.027545 0.000528 
-0.025411 0.013002 0.049811 
0.014385 -0.012045 0.000000 
-0.031000 0.002197 0.039003 
0.015500 -0.026667 0.005691 
0.030387 -0.004839 0.003349 
0.000138 0.028000 0.044091 
0.017646 0.021660 0.053367 
-0.025155 -0.013728 0.030191 
-0.027440 -0.014121 0.031003 
0.010031 -0.028990 0.003580 
-0.023854 0.013128 0.000000 
-0.025864 -0.011717 0.044511 
0.022230 0.018298 0.004663 
0.003230 0.028000 0.009019 
0.013360 -0.008285 0.000000 
-0.011091 -0.003825 0.001000 
-0.001141 -0.028000 0.001113 
-0.015434 -0.023281 0.012586 
-0.012924 0.028025 0.010007 
-0.022342 0.021658 0.043847 
0.024182 0.017182 0.052339 
0.005854 0.019212 0.000000 
-0.014858 0.023704 0.020315 
0.010880 0.026621 0.051005 
-0.012177 -0.025670 0.044557 
-0.026763 -0.015810 0.046040 
-0.023648 -0.001789 0.000000 
0.015151 0.009618 0.000000 
0.014912 -0.027044 0.001547 
0.031000 0.001586 0.045048 
-0.015897 -0.022942 0.017046 
0.023119 -0.006142 0.001000 
-0.002103 0.031000 0.043695 
0.009482 0.028482 0.004660 
-0.006649 -0.029838 0.016254 
0.026941 -0.015089 0.016616 
0.009909 -0.027334 0.000478 
-0.026596 0.009646 0.029274 
-0.026326 0.016011 0.045902 
-0.026963 -0.008605 0.045645 
0.017757 -0.021578 0.017113 
0.004666 -0.030445 0.028640 
-0.006376 -0.028000 0.017021 
0.007242 0.029689 0.043576 
-0.008523 -0.000695 0.000000 
-0.018897 -0.024402 0.004060 
-0.024066 -0.019400 0.011437 
0.021385 -0.018506 0.001000 
0.016573 -0.025952 0.029531 
0.009683 -0.028683 0.022698 
0.027909 -0.013181 0.009100 
-0.012477 -0.013851 0.001000 
0.003453 -0.030849 0.033239 
-0.022965 -0.021035 0.009404 
0.001049 -0.028000 0.046694 
-0.012281 0.025594 0.013655 
-0.007709 0.029573 0.040030 
-0.003080 0.028000 0.003882 
-0.028923 -0.010230 0.014568 
0.030176 0.005472 0.011065 
-0.001593 0.031000 0.049111 
0.012958 0.006741 0.000000 
-0.024052 0.016852 0.000879 
-0.010210 -0.028930 0.009710 
0.028723 0.010832 0.032863 
0.002330 0.026771 0.001000 
-0.004380 0.024408 0.000000 
-0.006509 0.028000 0.005605 
-0.012215 0.019575 0.000000 
0.030591 -0.000000 0.038668 
-0.021635 0.018734 0.004892 
0.026529 -0.015707 0.021623 
0.004488 -0.030504 0.016709 
-0.005189 -0.028000 0.031913 
0.024277 -0.019084 0.007303 
-0.012555 0.020785 0.000000 
0.003077 -0.030974 0.045701 
0.006667 -0.021812 0.000000 
-0.024961 0.018059 0.005662 
0.010591 -0.026833 0.054432 
-0.007911 0.029522 0.004031 
-0.012573 -0.006220 0.000000 
0.009277 -0.028277 0.037690 
0.025283 -0.013364 0.011309 
-0.028768 -0.003490 0.003029 
0.020030 -0.019911 0.020751 
0.021913 0.022087 0.013975 
-0.024124 -0.016649 0.008622 
-0.027877 0.006016 0.001086 
-0.000645 -0.009741 0.001000 
0.024588 0.017588 0.034972 
-0.031000 -0.001959 0.028700 
0.028312 0.004781 0.042093 
-0.014006 0.014787 0.000000 
0.029644 0.007426 0.016536 
-0.030590 -0.000000 0.047485 
0.007512 -0.028000 0.027907 
0.024063 0.016822 0.019887 
-0.028343 -0.011971 0.039803 
-0.013357 -0.027822 0.026434 
0.023552 0.009260 0.000000 
-0.027012 0.014976 0.026660 
0.027544 0.003010 0.001000 
0.002499 0.010968 0.000000 
-0.029550 0.001275 0.047417 
0.031000 0.001564 0.037011 
-0.007011 -0.029747 0.041345 
0.013637 -0.024599 0.046953 
-0.019105 0.024263 0.041254 
0.027223 -0.014555 0.033660 
0.028261 -0.004927 0.023373 
0.007944 -0.025314 0.000000 
-0.011564 -0.028479 0.006127 
-0.031000 -0.002106 0.024618 
-0.011604 0.028465 0.002659 
-0.020759 -0.016959 0.001000 
0.010863 0.026633 0.050170 
0.024341 0.018989 0.014025 
-0.026314 -0.016029 0.028535 
-0.029547 -0.007813 0.021626 
-0.026360 -0.010313 0.053027 
0.002063 -0.028000 0.032711 
-0.003809 -0.030324 0.001000 
-0.009310 0.029172 0.030862 
-0.027426 -0.007293 0.027719 
0.027798 -0.013403 0.039119 
-0.020762 -0.000221 0.000000 
0.025965 0.016553 0.014300 
0.009233 0.013694 0.000000 
-0.025949 0.011479 0.040246 
-0.005267 -0.028000 0.006513 
-0.017700 -0.025200 0.048279 
-0.005889 0.030037 0.042487 
0.021437 0.022563 0.029468 
0.009541 0.029115 0.019585 
-0.019386 -0.024076 0.031095 
0.025403 -0.013025 0.041516 
-0.009879 -0.028879 0.032495 
0.013436 -0.027855 0.040667 
-0.008348 -0.028000 0.037199 
0.021861 -0.022139 0.007359 
-0.003233 0.029967 0.055000 
0.014098 0.006643 0.000000 
-0.028626 -0.003892 0.026344 
-0.009528 -0.028528 0.002753 
-0.024005 0.007222 0.000000 
-0.007390 -0.029653 0.049610 
0.026188 0.016217 0.041249 
0.030668 -0.000000 0.051219 
-0.019708 0.020148 0.015375 
0.026429 -0.010118 0.034578 
-0.026047 -0.011200 0.020990 
0.031000 -0.001326 0.045282 
-0.007294 -0.022417 0.000000 
0.030253 0.005241 0.040172 
-0.003180 -0.006741 0.000000 
-0.005602 -0.030133 0.054294 
0.017393 -0.025405 0.020713 
0.024622 0.017622 0.002933 
-0.011998 -0.028334 0.020285 
0.031000 -0.000505 0.041818 
-0.018913 0.023303 0.000000 
-0.008914 0.004956 0.001000 
0.002615 -0.028000 0.038795 
-0.007827 -0.028000 0.040982 
0.000252 -0.006941 0.001000 
-0.025019 0.017972 0.037447 
-0.023977 -0.019534 0.048168 
0.015844 0.026437 0.050369 
0.030330 0.005009 0.052102 
0.006964 0.020524 0.000000 
-0.021790 0.022210 0.039948 
-0.015859 -0.026427 0.000572 
0.025565 0.012566 0.015925 
-0.015925 -0.026383 0.003566 
0.024643 -0.017643 0.015002 
-0.023710 -0.017212 0.018978 
0.007607 -0.019943 0.001000 
0.004354 -0.004079 0.001000 
0.023342 -0.020487 0.039163 
-0.029855 0.006579 0.020615 
0.030825 -0.003524 0.028771 
0.017073 0.023789 0.000000 
0.023631 0.009138 0.000000 
-0.018046 -0.024970 0.021979 
0.024026 0.017026 0.039139 
0.019160 0.020550 0.010649 
-0.009732 -0.028732 0.047813 
-0.013762 -0.027619 0.024782 
0.015653 -0.011637 0.001000 
0.008101 -0.011448 0.000000 
-0.020258 -0.002719 0.000000 
0.009243 -0.028243 0.008573 
0.015745 0.026503 0.025042 
0.024441 0.018839 0.007817 
0.019070 0.020615 0.035312 
0.024095 0.016731 0.025059 
-0.020619 0.023254 0.045711 
0.005623 0.028000 0.028584 
0.009905 -0.026860 0.000000 
-0.006421 -0.029895 0.038746 
0.004581 0.030473 0.016518 
0.016623 -0.025918 0.030075 
-0.026912 -0.015132 0.027945 
0.026979 0.008560 0.004576 
-0.030978 -0.003067 0.009633 
0.009994 0.027271 0.031899 
0.024997 0.017997 0.000941 
0.028959 -0.002950 0.038741 
0.006685 -0.022476 0.000000 
0.026030 0.016455 0.012372 
0.018180 0.021268 0.003761 
-0.015277 -0.023397 0.032193 
0.024709 -0.017709 0.005765 
-0.011181 0.005703 0.001000 
-0.014786 0.023757 0.016615 
-0.015726 0.026516 0.009463 
-0.028098 -0.001372 0.000000 
0.019393 -0.024071 0.012730 
0.030515 0.004456 0.036153 
-0.027437 0.008832 0.000000 
-0.003160 -0.014833 0.001000 
0.017995 -0.025003 0.046617 
0.002690 -0.029247 0.000000 
0.005219 0.030260 0.040457 
-0.025551 0.012604 0.010101 
0.026847 0.008932 0.049153 
-0.029808 0.000544 0.006778 
0.025665 -0.017002 0.018016 
0.024928 0.014370 0.008038 
-0.011334 0.026288 0.036410 
0.028430 0.004449 0.013593 
0.003904 0.030699 0.004008 
0.016061 -0.022822 0.002541 
-0.020753 -0.023165 0.028166 
-0.022167 0.021833 0.036968 
0.023980 -0.017015 0.015080 
-0.020636 -0.007751 0.000000 
0.009888 0.027349 0.006923 
-0.025973 -0.011410 0.029589 
0.015912 0.007314 0.001000 
-0.025810 -0.016785 0.013178 
0.026970 0.008586 0.032796 
0.018735 0.009523 0.001000 
-0.022416 0.018162 0.008822 
-0.020458 -0.023361 0.048865 
0.020021 0.023653 0.018471 
0.026364 -0.010302 0.037850 
0.022237 0.013667 0.001000 
-0.006253 -0.029937 0.013167 
-0.030791 -0.000000 0.019539 
-0.030090 -0.005731 0.029070 
0.026029 -0.011251 0.021146 
0.028934 0.010197 0.011097 
0.012530 0.000347 0.001000 
0.031000 0.002151 0.015740 
-0.009671 -0.028671 0.016538 
0.026796 -0.009077 0.023065 
-0.001116 -0.031000 0.050795 
-0.000647 -0.029850 0.000000 
-0.024416 -0.018875 0.026087 
0.027366 -0.007462 0.053225 
0.011797 -0.005924 0.001000 
-0.030983 0.003052 0.051565 
-0.025339 0.013206 0.011260 
0.010393 -0.010258 0.001000 
0.024767 0.017767 0.047728 
-0.021228 -0.019033 0.019356 
-0.024536 0.018696 0.004488 
0.009305 -0.028305 0.039177 
-0.027755 0.006362 0.002758 
-0.011071 0.028643 0.007724 
0.006691 0.029827 0.031348 
0.019867 0.023755 0.052237 
-0.014464 0.021492 0.001000 
0.004711 -0.005908 0.000000 
0.026534 -0.009820 0.046250 
0.028787 0.010640 0.034708 
-0.011158 0.002454 0.001000 
-0.021194 -0.022806 0.040973 
0.009635 0.028635 0.025454 
-0.027241 0.007819 0.013689 
-0.024388 -0.015901 0.053541 
-0.029837 0.006651 0.026509 
-0.009635 0.028635 0.033326 
0.018314 0.023763 0.055000 
0.026654 0.015519 0.028329 
0.023344 0.020483 0.039192 
-0.012639 0.025331 0.020383 
0.017003 0.022131 0.048932 
0.013120 0.024979 0.043545 
0.005438 0.030187 0.041301 
-0.009595 0.028595 0.038724 
0.009324 -0.028324 0.007561 
-0.021891 0.022109 0.017467 
0.004901 -0.006744 0.000000 
0.024239 -0.019142 0.048485 
0.030693 -0.000000 0.016386 
-0.025591 -0.017113 0.023535 
0.026512 -0.009882 0.009231 
0.029991 0.000024 0.013538 
0.023109 0.013425 0.001000 
-0.016231 -0.022697 0.046826 
0.002224 -0.026001 0.000000 
-0.031000 -0.002103 0.002656 
0.029019 0.002781 0.002057 
0.029221 -0.002207 0.005166 
-0.017098 -0.005298 0.000000 
0.024040 -0.016887 0.015226 
0.031000 -0.000944 0.008969 
-0.030180 0.005461 0.000694 
0.024296 -0.017296 0.014860 
0.018934 -0.020715 0.011153 
-0.028829 -0.003316 0.023198 
0.006381 -0.028000 0.023644 
0.013060 0.025023 0.031894 
0.011745 0.025987 0.040089 
0.007573 -0.028000 0.046367 
-0.001948 -0.022002 0.000000 
-0.010975 -0.026552 0.010397 
-0.023904 -0.018122 0.001000 
0.022318 0.006480 0.001000 
-0.025840 -0.016909 0.049720 
0.026653 0.009483 0.023685 
0.025369 -0.017447 0.041466 
0.008032 -0.028000 0.003153 
0.030815 0.003556 0.050251 
0.016476 -0.026016 0.027010 
-0.029860 0.006560 0.010131 
0.005591 -0.030136 0.024357 
-0.030260 0.005219 0.011796 
-0.014606 0.027238 0.035726 
-0.008393 0.029402 0.004533 
0.027323 -0.007586 0.054523 
0.023575 0.020138 0.040982 
0.002091 -0.014251 0.000000 
0.009790 0.027420 0.026450 
0.018365 0.021132 0.013380 
0.024728 -0.018409 0.049772 
0.010715 -0.026742 0.044506 
-0.009296 -0.029176 0.045653 
0.000618 0.031000 0.030262 
0.025179 0.013660 0.045285 
-0.030744 0.003769 0.016993 
-0.020302 -0.019712 0.016096 
0.024695 -0.015031 0.049004 
-0.013019 -0.025053 0.002972 
-0.029067 0.009733 0.047535 
-0.029124 0.009503 0.052127 
0.014052 0.024295 0.002866 
-0.002602 0.028000 0.006926 
-0.010027 -0.027247 0.049153 
0.004106 -0.030631 0.039010 
-0.015221 0.026853 0.016099 
0.025791 0.010215 0.001000 
0.022276 -0.021724 0.041537 
0.006714 0.028000 0.035595 
0.015927 0.006776 0.000000 
-0.017615 0.021682 0.025331 
-0.004705 0.003485 0.000000 
-0.016614 -0.022417 0.034778 
-0.025188 -0.017718 0.041895 
0.029506 -0.001399 0.001293 
-0.029944 -0.000160 0.040451 
-0.017262 0.025492 0.040290 
0.000390 -0.020924 0.000000 
0.023486 0.020271 0.000906 
-0.028285 -0.012144 0.010712 
-0.003670 0.030777 0.039667 
0.019280 -0.020462 0.018232 
0.024817 0.014686 0.022684 
0.010954 -0.026567 0.034214 
0.028177 0.005164 0.042093 
-0.014563 0.010908 0.001000 
-0.025668 -0.012275 0.019447 
0.022054 0.018427 0.028362 
0.006411 -0.029897 0.013210 
-0.019994 0.023262 0.001000 
-0.025623 0.017065 0.019844 
0.000737 -0.022956 0.001000 
-0.011535 0.002933 0.001000 
-0.009610 0.027553 0.034383 
-0.024451 -0.015721 0.021321 
-0.008152 -0.028000 0.020590 
0.004331 -0.028000 0.045144 
0.021230 0.007606 0.001000 
-0.029281 0.008876 0.013389 
-0.002877 0.028000 0.020957 
-0.026459 0.010034 0.042763 
-0.012326 -0.025561 0.044273 
0.025257 0.013439 0.021013 
0.015141 -0.023497 0.029737 
0.012353 0.025541 0.045838 
0.021310 0.018972 0.036393 
0.016318 -0.022633 0.027510 
-0.013566 -0.027717 0.001188 
0.027741 0.004492 0.000000 
-0.004899 -0.030367 0.002566 
-0.015482 -0.023246 0.043707 
0.000480 0.028000 0.016800 
-0.025626 0.017061 0.001941 
0.013253 -0.024881 0.035356 
0.001977 0.005389 0.000000 
-0.027643 -0.013783 0.035461 
0.005728 0.030091 0.002445 
0.031000 -0.001551 0.021885 
-0.012611 -0.025352 0.038643 
0.004690 -0.030437 0.004027 
-0.029205 0.002252 0.023541 
0.009242 -0.029189 0.034521 
0.007304 0.028000 0.017614 
-0.015117 -0.026922 0.031824 
-0.027132 0.008125 0.014343 
0.015000 0.023929 0.055000 
-0.026934 0.015099 0.023501 
0.022125 0.021875 0.038286 
-0.027111 -0.014778 0.009170 
-0.026567 -0.015650 0.033050 
0.021144 -0.022856 0.024315 
0.026023 0.011269 0.035908 
0.030818 0.002387 0.055000 
-0.010781 -0.026694 0.003982 
-0.028383 0.004582 0.001789 
-0.030359 -0.004922 0.028975 
0.025557 0.009829 0.001000 
-0.003833 0.030722 0.023049 
0.005064 -0.028000 0.047697 
-0.022695 0.020916 0.000000 
0.001618 -0.028000 0.016287 
-0.012279 -0.025596 0.041530 
-0.029331 0.008677 0.027100 
0.031000 0.000591 0.026144 
0.028730 0.003598 0.022469 
-0.012168 0.016052 0.001000 
-0.002708 0.031000 0.038931 
-0.009214 0.027843 0.019241 
0.024606 0.018590 0.015639 
-0.024561 -0.017561 0.030430 
0.029149 0.009404 0.015116 
0.017177 -0.022003 0.038237 
-0.024748 -0.017430 0.055000 
-0.009385 0.029154 0.023963 
-0.031000 0.002812 0.014630 
0.024068 -0.016808 0.012416 
-0.015817 -0.023001 0.007509 
