
# .PCD v.6 - Point Cloud Data file format
FIELDS x y z 
SIZE 4 4 4 
TYPE F F F 
COUNT 1 1 1 
WIDTH 1648
HEIGHT 1
VIEWPOINT 0.000000 0.000000 0.000000 1.000000 0.000000 0.000000 0.00000
POINTS 1648
DATA ascii
0.003432 -0.017413 0.000000 
0.004319 -0.075600 0.010634 
-0.057244 -0.028360 0.009095 
-0.056394 -0.021509 0.003027 
0.054426 -0.041869 0.014821 
0.001328 0.012805 0.002400 
0.021728 -0.088626 0.037364 
-0.076415 0.035076 0.023922 
0.073049 -0.053488 0.049686 
0.014493 -0.000196 0.000000 
-0.049974 0.053904 0.008333 
-0.078555 0.013590 0.040688 
-0.084341 -0.057080 0.079566 
-0.070934 -0.069804 0.056584 
0.070408 -0.032028 0.012471 
0.098147 0.007324 0.054500 
0.061596 0.082093 0.064562 
-0.087519 0.037402 0.046780 
-0.088845 0.064993 0.089654 
-0.039444 -0.099330 0.078197 
-0.019331 -0.081439 0.045377 
-0.056670 -0.057501 0.018328 
-0.083824 -0.053156 0.056178 
0.065537 0.018176 0.003638 
0.073229 -0.032050 0.016867 
-0.097229 0.000793 0.050944 
-0.103068 0.011677 0.068778 
-0.096325 0.012484 0.051531 
-0.049060 -0.095240 0.077963 
-0.105069 -0.020810 0.078047 
0.079264 0.033375 0.027042 
-0.031313 -0.052835 0.003000 
-0.076056 -0.000000 0.013320 
-0.008474 -0.080679 0.043839 
-0.052901 -0.037352 0.006451 
0.001100 -0.077183 0.013043 
-0.076881 0.056102 0.046175 
0.060038 0.014866 0.005795 
0.010026 -0.105110 0.091000 
0.080447 -0.033861 0.057229 
-0.021166 -0.064459 0.005244 
-0.016635 0.012903 0.002805 
0.020737 -0.105644 0.080170 
0.000246 -0.085569 0.026193 
-0.089845 0.013816 0.062690 
0.044675 -0.064225 0.039318 
-0.096489 0.011656 0.074182 
0.013045 0.091699 0.066126 
-0.026498 0.035032 0.000000 
0.033194 0.064908 0.026634 
-0.051033 -0.068450 0.053806 
0.065201 -0.047525 0.018208 
-0.044133 -0.062668 0.036141 
0.102338 0.034346 0.081181 
-0.009369 -0.097026 0.052443 
-0.050813 -0.046039 0.003786 
-0.071186 -0.072459 0.062292 
0.100737 0.006437 0.060849 
0.069986 -0.062979 0.067702 
-0.007904 -0.093332 0.069427 
0.084430 -0.046981 0.073275 
0.025587 -0.082174 0.026790 
-0.097496 0.016287 0.054917 
-0.034181 -0.059308 0.018739 
-0.090388 0.001769 0.035772 
0.001621 0.069199 0.020625 
-0.062390 0.072314 0.073719 
-0.091577 -0.036378 0.054359 
0.023752 0.105358 0.091000 
-0.064060 -0.077056 0.058087 
-0.083341 -0.058665 0.062154 
0.065227 0.001359 0.007125 
0.003037 -0.048237 0.002913 
0.086905 -0.013044 0.056508 
0.073428 -0.073182 0.088386 
-0.042025 -0.055999 0.005109 
0.062812 0.074996 0.078574 
0.059850 0.010919 0.003000 
0.064097 -0.053527 0.045320 
0.056396 -0.018593 0.001141 
0.053515 0.025683 0.000148 
0.062896 -0.066409 0.064749 
-0.025699 0.014647 0.003000 
0.055240 0.093948 0.082982 
-0.006307 -0.079502 0.041460 
-0.085309 0.027768 0.062772 
-0.045236 0.054490 0.024218 
-0.089126 -0.008312 0.034568 
0.024780 0.083836 0.050224 
-0.095072 0.048492 0.077771 
0.068103 0.049350 0.042230 
-0.062147 0.072886 0.074354 
0.002884 -0.078415 0.015171 
-0.045782 0.060217 0.034149 
-0.090244 0.014233 0.038374 
-0.037193 0.002595 0.000000 
0.035039 0.083774 0.036834 
-0.064706 -0.068285 0.044281 
0.099595 -0.027980 0.067813 
-0.027241 0.060067 0.001410 
0.094047 -0.004784 0.044681 
0.062788 0.066421 0.064638 
0.072552 0.025015 0.012245 
-0.029157 -0.090067 0.050783 
0.045287 -0.049030 0.002146 
-0.096447 0.029098 0.085181 
-0.033812 0.022432 0.000000 
-0.019251 0.082324 0.024812 
-0.080806 0.007392 0.019302 
0.021560 -0.081013 0.023707 
0.080207 -0.067522 0.087350 
0.085046 -0.015312 0.027859 
-0.099584 -0.038534 0.077985 
-0.014533 -0.068016 0.018232 
0.103279 -0.029976 0.080015 
0.026855 -0.000447 0.003000 
-0.087115 0.017545 0.059774 
0.017002 -0.082176 0.046867 
-0.028780 -0.080870 0.026668 
-0.081926 -0.058294 0.075676 
0.015017 0.029788 0.000000 
-0.000659 -0.081824 0.046156 
-0.058742 -0.042760 0.018029 
0.023122 0.019879 0.002796 
-0.057459 -0.020444 0.004402 
-0.006266 0.023354 0.002313 
0.091621 -0.062524 0.089184 
0.017190 -0.102734 0.088441 
-0.085401 0.007157 0.049856 
-0.015939 0.064905 0.011941 
-0.096657 0.035189 0.089458 
-0.027275 0.084445 0.045438 
0.031551 0.096654 0.072779 
0.042223 0.052025 0.002400 
0.027957 0.085382 0.036877 
-0.005315 -0.089930 0.062546 
0.052842 -0.070293 0.030025 
0.027748 0.067148 0.023724 
0.090003 -0.004003 0.056761 
0.088120 -0.064581 0.085377 
0.074411 0.063380 0.073671 
-0.111592 0.004421 0.090891 
-0.101379 0.032064 0.091000 
-0.077014 0.020734 0.017380 
0.040577 0.035266 0.003000 
-0.011461 -0.080204 0.019561 
-0.004011 -0.060091 0.002205 
0.080855 0.067620 0.073389 
0.063423 -0.081559 0.066957 
-0.020210 -0.082694 0.025702 
-0.103172 -0.026321 0.091000 
0.054648 0.051763 0.009972 
-0.033647 -0.082078 0.032108 
-0.098270 0.053100 0.090880 
0.057718 0.029015 0.000191 
-0.023223 -0.014684 0.003000 
-0.086905 -0.007638 0.053150 
-0.027156 -0.029090 0.003000 
-0.012178 -0.043758 0.003000 
-0.027395 -0.053797 0.000000 
-0.041608 -0.075603 0.054086 
0.029873 0.101796 0.086543 
-0.074961 0.005292 0.028457 
-0.072519 0.038268 0.020725 
0.017594 -0.084970 0.052517 
-0.100001 -0.011611 0.060204 
0.004242 0.080192 0.042854 
0.081051 0.032617 0.057740 
0.032049 0.098148 0.074596 
-0.014879 0.098966 0.058143 
0.106685 -0.007678 0.077936 
-0.052708 -0.049021 0.006942 
-0.000066 0.107169 0.077328 
-0.060699 0.074122 0.074618 
0.046416 0.098416 0.083716 
-0.070456 -0.010078 0.022877 
-0.054781 -0.051423 0.009838 
0.049568 0.088044 0.083825 
0.062020 0.016522 0.010703 
0.030162 0.092440 0.051425 
-0.073664 -0.065997 0.077017 
-0.054460 0.073077 0.065429 
-0.056599 0.017696 0.000957 
0.072056 -0.052537 0.050220 
-0.001095 0.017720 0.002362 
0.025675 0.014706 0.000000 
0.031784 0.097579 0.073372 
0.081181 0.064731 0.068680 
0.042420 0.081543 0.064695 
0.092500 -0.045096 0.066709 
0.051564 0.059643 0.040166 
-0.048209 0.003586 0.003000 
0.017783 -0.105842 0.079706 
-0.061552 -0.087760 0.078573 
-0.103993 -0.014290 0.090386 
-0.072347 -0.000000 0.009135 
0.074889 -0.046842 0.054798 
0.029671 0.090854 0.046977 
-0.031721 -0.046940 0.003000 
-0.038268 -0.048555 0.006237 
-0.076079 0.034309 0.049057 
-0.080920 0.048477 0.067440 
-0.062063 -0.067116 0.038226 
0.026086 -0.080259 0.038551 
0.054430 -0.039726 0.003543 
-0.100273 0.013319 0.061395 
-0.096870 0.045467 0.078476 
-0.060767 0.067878 0.037478 
0.016088 0.082605 0.047735 
-0.068458 0.084106 0.082107 
0.009993 -0.089910 0.036734 
0.092923 0.031690 0.053141 
0.097556 0.007745 0.073832 
-0.020334 0.044887 0.002407 
0.060052 -0.065761 0.060281 
0.045071 -0.016988 0.000000 
-0.073702 0.053767 0.054010 
-0.017146 -0.022906 0.003000 
-0.014587 0.087172 0.031768 
0.063407 -0.027333 0.020221 
0.037057 -0.000284 0.000000 
-0.004330 0.088240 0.059130 
-0.019434 -0.069285 0.007389 
0.064756 -0.059178 0.055265 
-0.098689 -0.000000 0.062235 
-0.082230 0.069380 0.079518 
0.061247 0.010503 0.005321 
0.110078 -0.003792 0.086511 
-0.095788 0.017623 0.076616 
0.053806 -0.034418 0.006303 
-0.027146 -0.074655 0.035175 
-0.042790 -0.082339 0.041475 
-0.063874 0.074493 0.053247 
0.030658 0.004160 0.003000 
-0.073300 -0.069979 0.061557 
0.054270 0.000552 0.003000 
-0.000315 0.082632 0.021556 
0.028685 0.088089 0.040206 
-0.076514 0.074564 0.077155 
0.000115 -0.063659 0.009421 
0.057843 0.084173 0.063674 
-0.063006 0.012962 0.000161 
-0.021677 -0.096161 0.053576 
0.018400 0.005210 0.002544 
0.096559 -0.035115 0.065933 
0.049673 -0.040828 0.003000 
-0.083454 -0.057565 0.060931 
0.009826 -0.106654 0.078348 
0.071014 0.021252 0.031168 
0.070494 0.024890 0.032493 
0.008988 -0.063020 0.008130 
0.010995 0.025208 0.000000 
0.054228 -0.068815 0.058238 
-0.088160 -0.058097 0.072968 
0.020636 0.000652 0.003000 
0.049014 -0.021072 0.003000 
0.032776 0.063314 0.023546 
0.092624 -0.030717 0.078807 
-0.099105 -0.013715 0.080597 
-0.025061 0.104543 0.079529 
-0.033564 -0.101828 0.086955 
-0.069204 -0.073400 0.083664 
0.013421 -0.091828 0.041858 
-0.058647 -0.056394 0.019362 
-0.091766 -0.048206 0.088269 
0.076585 0.004452 0.011926 
0.064533 0.064777 0.064068 
-0.043790 0.046717 0.009894 
0.081527 -0.009790 0.044028 
-0.053066 0.021791 0.000000 
-0.064756 -0.070161 0.073068 
0.069406 -0.025504 0.009039 
-0.089576 0.043120 0.080787 
-0.063590 0.046497 0.026240 
0.059844 0.012695 0.004019 
-0.046768 0.009268 0.003000 
0.065831 0.042026 0.034343 
0.013727 0.099259 0.081412 
0.104933 0.035831 0.091000 
-0.026085 -0.079941 0.034559 
0.032493 0.073618 0.039917 
-0.056201 -0.006797 0.000000 
0.058277 0.034827 0.015220 
-0.001922 0.026403 0.002294 
-0.021606 0.059353 0.000000 
-0.056131 0.094318 0.091000 
0.015713 0.097036 0.076918 
0.019772 0.085662 0.030119 
-0.083421 -0.005146 0.023148 
-0.065456 0.010368 0.013289 
0.104665 0.021282 0.077343 
-0.044079 0.070390 0.048600 
0.037757 -0.092708 0.077200 
-0.022849 -0.086085 0.054771 
0.029412 0.079614 0.045939 
-0.092627 0.056602 0.091000 
-0.086420 0.024522 0.033985 
-0.025148 -0.099658 0.082220 
0.051309 0.018962 0.003000 
0.030524 -0.102887 0.088749 
0.060460 0.051471 0.037622 
0.017971 -0.083700 0.026493 
-0.005046 0.045512 0.002144 
-0.035402 -0.105212 0.091000 
0.023260 0.057087 0.002022 
0.106790 0.000121 0.076267 
-0.060899 0.083093 0.089409 
-0.028762 -0.088286 0.047329 
0.030279 -0.099150 0.068240 
0.070587 -0.067092 0.075096 
-0.055652 0.051557 0.010488 
0.091763 0.023895 0.072880 
-0.018931 0.092897 0.068547 
-0.076939 0.031638 0.022228 
0.051277 -0.080275 0.073278 
-0.005732 -0.099575 0.082051 
0.067111 0.075577 0.060714 
-0.072038 -0.063620 0.071209 
0.065710 0.014411 0.016485 
-0.033627 0.103025 0.088739 
-0.073678 0.066021 0.055023 
-0.097031 -0.010198 0.052659 
0.027170 0.049218 0.002484 
-0.072048 -0.024984 0.011487 
-0.021659 -0.108149 0.091000 
0.094409 -0.046244 0.073258 
0.094355 -0.035068 0.084923 
-0.109398 0.016594 0.088707 
0.061521 -0.028773 0.003184 
-0.014870 0.076478 0.014658 
0.082039 -0.060489 0.062264 
0.069081 0.064565 0.045319 
0.002984 -0.071223 0.024717 
0.035383 0.054349 0.012152 
-0.070106 -0.051055 0.048537 
-0.087740 0.028093 0.067685 
-0.038184 0.051856 0.011480 
-0.083119 -0.016310 0.051409 
0.081014 -0.062707 0.064325 
0.033228 -0.052605 0.003000 
0.001892 0.048385 0.002122 
0.022613 -0.101633 0.086213 
-0.048904 0.100105 0.090701 
-0.106718 -0.012094 0.091000 
-0.032478 -0.102486 0.079654 
0.007492 0.063918 0.001934 
0.027818 -0.056053 0.005822 
0.066846 0.069777 0.074956 
-0.031504 0.097199 0.066459 
-0.024459 -0.098906 0.080699 
-0.003058 -0.054126 0.000000 
-0.101008 -0.006035 0.061567 
0.096116 -0.031614 0.060794 
-0.105225 -0.000000 0.083021 
0.039851 0.021441 0.000000 
-0.083668 0.061242 0.069389 
-0.028086 0.067457 0.024631 
0.062078 0.067760 0.039273 
0.056409 -0.041237 0.006814 
0.081313 -0.058487 0.057073 
-0.049959 -0.092745 0.091000 
0.091645 0.003152 0.038989 
-0.087208 0.056901 0.068961 
-0.065990 -0.008965 0.002217 
0.040318 -0.026768 0.003000 
0.100135 -0.015456 0.061961 
-0.071732 -0.045570 0.047966 
-0.038380 -0.060609 0.006935 
-0.002315 -0.088826 0.060316 
-0.006590 -0.099828 0.082563 
-0.003961 -0.046576 0.003000 
-0.036116 -0.101693 0.081344 
-0.059941 0.068840 0.037913 
-0.034716 -0.018108 0.003000 
-0.037643 -0.099513 0.076906 
-0.076727 -0.056164 0.057331 
0.084933 0.047203 0.074457 
0.039340 -0.102810 0.087592 
0.008850 -0.075184 0.032727 
0.037216 0.041452 0.000000 
-0.042639 0.075461 0.055094 
-0.054647 -0.028127 0.003916 
0.010794 -0.109332 0.091000 
0.023408 -0.073999 0.030332 
-0.090889 0.057909 0.079321 
-0.031477 -0.055001 0.000000 
0.024098 0.057697 0.000000 
0.028874 -0.078956 0.044226 
0.016661 -0.077125 0.036654 
-0.060518 0.058683 0.024301 
0.059961 -0.056512 0.021062 
0.073200 0.003782 0.024126 
0.092965 -0.002425 0.041717 
0.071554 -0.027041 0.035697 
-0.063922 0.005601 0.007284 
0.024964 0.029526 0.000000 
0.001212 -0.071090 0.024450 
-0.030521 0.094715 0.067299 
-0.101202 0.000176 0.060457 
0.075261 -0.000295 0.025863 
-0.048357 -0.067766 0.022230 
0.076108 -0.051836 0.039753 
-0.065972 -0.084839 0.079344 
-0.069748 0.051059 0.041829 
0.077824 0.041958 0.057427 
-0.075384 0.060816 0.070686 
0.091311 -0.022053 0.043240 
0.054098 -0.001350 0.000000 
-0.078837 0.065872 0.065655 
-0.071935 -0.017621 0.030608 
-0.075260 -0.001671 0.026752 
-0.056902 -0.052715 0.035362 
0.058109 -0.018554 0.004409 
0.087654 0.028330 0.038969 
0.011548 0.069647 0.021531 
-0.008757 0.110915 0.089992 
0.041546 0.067902 0.016691 
0.012989 0.073795 0.029919 
0.055982 0.050487 0.030648 
-0.086816 0.020879 0.033103 
0.105846 -0.026843 0.084942 
-0.055491 -0.055521 0.038210 
0.022802 0.070576 0.023410 
-0.099565 -0.017835 0.060564 
0.060352 -0.070984 0.042162 
0.003403 0.070893 0.024050 
-0.021570 0.019394 0.003000 
-0.092685 -0.054297 0.091000 
0.088557 -0.063938 0.084171 
-0.048502 -0.065025 0.045213 
0.097102 0.021541 0.055461 
-0.006048 0.025838 0.000000 
0.081448 -0.059432 0.061525 
0.051080 0.066171 0.050168 
0.075044 -0.072064 0.069216 
-0.052102 -0.011854 0.003000 
-0.002543 0.111320 0.089675 
0.000535 -0.013752 0.000000 
0.032903 0.072685 0.016528 
-0.041955 0.017040 0.000000 
0.025996 0.013931 0.000000 
0.066760 -0.066248 0.069129 
-0.090011 -0.056517 0.075103 
0.032527 0.054528 0.009011 
0.007729 0.094521 0.071832 
0.087989 -0.021990 0.036130 
-0.032251 -0.103024 0.080999 
0.055597 -0.071667 0.064508 
-0.025983 -0.100870 0.069470 
0.032132 -0.062047 0.005173 
-0.024371 -0.075219 0.032583 
-0.069952 0.065466 0.048134 
0.033376 -0.070828 0.014230 
0.061051 -0.004257 0.000903 
-0.075815 -0.055461 0.053958 
-0.106394 -0.020293 0.081731 
0.062504 -0.069387 0.069108 
0.099186 0.003774 0.074433 
0.074575 -0.057585 0.064481 
-0.044257 -0.045134 0.007892 
0.029288 0.098852 0.080589 
0.016808 -0.101542 0.066612 
0.053352 0.042350 0.014311 
-0.041706 -0.056587 0.005332 
0.017598 0.096962 0.054037 
-0.075248 0.077963 0.081423 
0.015941 -0.092022 0.066778 
0.061404 0.018585 0.001959 
-0.085261 0.014950 0.028156 
0.063749 -0.076654 0.056681 
-0.029292 -0.058806 0.012051 
0.000423 0.043350 0.000000 
-0.078988 0.012933 0.041108 
0.081139 0.036970 0.060665 
0.101041 -0.023073 0.067738 
0.068266 0.084885 0.083511 
0.049521 0.058047 0.035128 
-0.026890 0.102523 0.088013 
0.020715 -0.062566 0.007844 
0.063500 -0.046336 0.022720 
0.009900 0.089312 0.035377 
0.063462 -0.000000 0.000758 
0.069010 -0.053327 0.050901 
-0.059633 -0.048897 0.032459 
0.060140 -0.055323 0.019863 
0.074061 -0.079530 0.082182 
-0.022471 -0.095169 0.073141 
-0.087038 0.058793 0.071416 
-0.050138 -0.064300 0.019430 
0.036922 -0.071323 0.041514 
-0.029539 0.025177 0.003000 
-0.078751 0.039449 0.030950 
0.017749 -0.068541 0.019295 
-0.047394 -0.029327 0.000000 
-0.013696 -0.051988 0.003000 
0.021450 0.011045 0.002821 
-0.063833 -0.058810 0.028388 
-0.000851 0.096205 0.075236 
-0.003241 0.043957 0.000000 
-0.022455 -0.043470 0.003000 
-0.111680 -0.001077 0.090358 
0.025663 -0.012432 0.003000 
-0.082587 -0.036973 0.036182 
0.071646 0.081568 0.081975 
-0.030372 0.093165 0.067416 
-0.045225 0.066960 0.018246 
0.048115 -0.078424 0.039810 
0.047221 -0.066705 0.046399 
-0.077654 -0.035223 0.052839 
-0.033986 -0.084785 0.037942 
-0.049549 0.068573 0.052224 
0.023016 0.079864 0.022352 
-0.091587 -0.010049 0.063771 
0.109807 0.003120 0.091000 
-0.085461 0.020228 0.058276 
-0.052130 0.022524 0.000000 
0.035375 0.062856 0.007196 
-0.059548 0.092627 0.086774 
0.066882 -0.073702 0.056340 
0.072663 -0.080630 0.081646 
-0.076186 -0.070701 0.068775 
0.008300 0.084666 0.051902 
-0.004783 -0.043449 0.000000 
-0.063779 -0.022869 0.003260 
0.084426 0.040280 0.069099 
0.008598 -0.082806 0.048141 
0.062881 0.052207 0.019844 
0.034402 0.074100 0.042991 
-0.068705 0.050135 0.041589 
-0.059744 -0.043655 0.016827 
0.056256 0.033624 0.001052 
-0.039145 -0.056099 0.003734 
0.022845 0.062078 0.009611 
-0.036590 -0.016794 0.003000 
0.076933 0.055964 0.051620 
-0.079523 -0.025485 0.022763 
-0.061808 0.075716 0.052266 
-0.081475 0.059588 0.071773 
0.097354 0.007328 0.052731 
0.042462 -0.048347 0.010937 
-0.062689 0.076474 0.080824 
-0.093286 -0.024466 0.076177 
-0.094323 -0.017188 0.048149 
-0.040621 -0.068503 0.041386 
-0.082823 -0.066683 0.089131 
0.104643 -0.004885 0.085668 
-0.001242 0.101947 0.062809 
0.035458 0.064326 0.008439 
0.058186 -0.002164 0.000000 
-0.046376 -0.034304 0.003000 
-0.057243 0.036946 0.014531 
-0.064933 0.035880 0.028631 
-0.033037 -0.102281 0.085159 
0.068944 -0.050325 0.034930 
0.033098 0.088689 0.065084 
0.070500 0.012886 0.024775 
-0.074415 0.018136 0.035559 
0.024182 0.039537 0.002338 
-0.077504 -0.077343 0.084694 
0.035216 0.069437 0.036407 
0.030655 -0.010659 0.003000 
0.073480 -0.052137 0.055483 
-0.003175 -0.012025 0.000000 
-0.007001 -0.103775 0.069647 
0.013324 -0.007995 0.002551 
0.046348 0.015473 0.003000 
0.025820 0.054059 0.000000 
-0.050529 -0.052323 0.027069 
0.006027 0.067755 0.017706 
0.015422 0.043362 0.000000 
0.097649 -0.020779 0.082223 
0.001607 -0.043253 0.000000 
0.080129 0.063302 0.063504 
-0.087221 -0.064975 0.082739 
0.072025 0.059143 0.042065 
-0.075045 -0.062562 0.073106 
-0.012132 -0.004996 0.000000 
-0.030149 0.051925 0.002925 
0.014711 -0.105889 0.078299 
-0.075516 0.068338 0.083037 
0.023157 0.096639 0.055420 
-0.057308 -0.055316 0.016491 
0.069270 0.082197 0.091000 
-0.062597 -0.042168 0.010164 
-0.072294 -0.047426 0.027838 
0.021655 -0.098615 0.059336 
-0.053002 -0.015517 0.003000 
0.006170 0.020427 0.000000 
0.084389 0.014218 0.026843 
0.023902 -0.073706 0.025320 
-0.056399 0.041665 0.005169 
-0.043102 0.098575 0.079710 
-0.004306 -0.069610 0.005143 
-0.017517 0.090627 0.040083 
0.063259 0.046145 0.022184 
0.049814 0.040733 0.000090 
-0.038642 0.093040 0.059961 
-0.029218 0.104991 0.084188 
0.014981 0.035118 0.000000 
0.030816 0.094447 0.059698 
0.101040 -0.016983 0.086377 
0.080531 -0.052531 0.049102 
-0.085779 0.065397 0.080325 
0.049172 0.012394 0.000000 
-0.029531 0.105303 0.091000 
0.053924 -0.006551 0.000000 
-0.005842 -0.102118 0.087194 
0.059336 -0.071676 0.041857 
-0.021690 0.098509 0.059052 
0.006209 0.033092 0.002241 
-0.058795 -0.016654 0.000000 
-0.059093 -0.094008 0.089150 
0.054935 0.087836 0.089936 
0.019071 -0.101733 0.067816 
-0.092511 -0.001862 0.060277 
-0.103503 -0.030677 0.081017 
-0.073982 -0.054080 0.048501 
-0.030809 0.095321 0.065750 
-0.063401 -0.038594 0.009149 
-0.086077 0.030402 0.065931 
0.000866 0.083831 0.050213 
0.036341 0.078543 0.052527 
-0.028204 0.063294 0.018021 
0.004282 -0.087687 0.058012 
0.030255 0.045703 0.000000 
-0.032395 -0.032172 0.003000 
-0.077313 -0.025142 0.045801 
-0.039955 0.023675 0.003000 
-0.075845 -0.026594 0.017777 
-0.066986 0.072515 0.079565 
-0.048741 -0.078424 0.040241 
0.035535 -0.058934 0.019759 
0.060160 0.061735 0.053883 
0.092064 -0.010034 0.064585 
0.033952 -0.053580 0.000000 
-0.041940 0.046274 0.003000 
-0.082997 -0.000000 0.027739 
0.025353 -0.077304 0.027505 
0.012036 -0.101956 0.066148 
0.071984 0.052279 0.043801 
-0.081013 0.046008 0.042411 
0.067873 0.032118 0.009819 
-0.018415 -0.096334 0.075498 
-0.065239 -0.057913 0.053796 
0.002115 -0.046914 0.000000 
0.057102 0.081542 0.056004 
0.059272 -0.076749 0.077166 
0.093016 0.019645 0.072605 
-0.030129 0.006967 0.003000 
-0.007376 0.095632 0.048841 
-0.029267 0.073095 0.015323 
0.097995 0.007792 0.054265 
0.019710 -0.074253 0.030845 
0.084741 -0.050551 0.076145 
-0.048721 0.039350 0.003889 
0.019823 -0.105682 0.091000 
0.062960 -0.067833 0.067135 
0.004583 -0.056707 0.003000 
-0.037212 0.052629 0.011564 
0.087767 0.046878 0.057083 
0.097889 0.015007 0.055536 
0.061952 0.076715 0.054150 
0.023887 -0.072770 0.019416 
-0.059546 0.081001 0.084389 
-0.020330 -0.057399 0.003000 
-0.004291 0.093524 0.069815 
-0.057637 -0.022109 0.005822 
0.058500 -0.055510 0.018136 
0.069629 0.077337 0.069020 
-0.001201 -0.085785 0.054165 
-0.093039 -0.011776 0.044151 
-0.086498 -0.049797 0.079116 
-0.069425 -0.069942 0.054406 
-0.073974 0.047722 0.030564 
-0.071152 0.051782 0.043653 
0.050766 -0.095040 0.080254 
-0.090171 -0.050212 0.086462 
0.027138 -0.083747 0.044799 
-0.068818 0.033131 0.011053 
-0.052924 -0.038679 0.002159 
-0.049859 -0.057571 0.010736 
0.052911 0.057850 0.014278 
-0.020368 -0.013438 0.000000 
0.059166 0.043103 0.010996 
0.014581 0.085396 0.028318 
0.029767 0.056373 0.008682 
0.033245 0.099689 0.072482 
-0.030026 0.039413 0.003000 
-0.009998 0.071700 0.007442 
0.019352 -0.078839 0.040119 
-0.086571 -0.000000 0.037209 
-0.104738 -0.000000 0.081687 
0.033402 0.017871 0.003000 
-0.033321 -0.071848 0.038041 
0.024481 -0.075099 0.026675 
0.060134 0.071601 0.042894 
-0.005484 0.087523 0.057680 
0.057155 0.015173 0.003000 
-0.036095 0.048198 0.003046 
0.106028 -0.000000 0.079655 
-0.083048 -0.044016 0.068804 
0.064861 -0.002334 0.007021 
0.076963 -0.041370 0.029486 
0.111196 -0.002270 0.091000 
0.058063 0.062970 0.053366 
0.053213 0.053261 0.031813 
-0.085418 -0.046139 0.074719 
0.009869 -0.108722 0.091000 
0.088446 -0.055394 0.086396 
0.065778 0.089798 0.090143 
0.006808 0.103890 0.069738 
-0.061793 -0.060635 0.028134 
0.080601 -0.072831 0.081873 
0.045256 0.085083 0.050038 
-0.050274 -0.069394 0.026212 
-0.038420 -0.070433 0.017612 
0.083451 -0.072153 0.087061 
-0.028882 0.103772 0.080327 
0.007314 -0.049919 0.000000 
0.048358 0.063209 0.042094 
-0.068918 -0.016474 0.024027 
0.068208 0.082794 0.078742 
-0.077588 0.074931 0.080038 
0.081680 -0.068213 0.090240 
0.089762 -0.046566 0.061769 
-0.093129 0.056353 0.082283 
-0.018336 -0.067465 0.017118 
0.096991 0.034509 0.066460 
-0.001765 -0.007189 0.002553 
-0.022078 -0.098016 0.057970 
0.047402 -0.019650 0.000000 
0.101768 0.018488 0.067763 
-0.066228 0.088439 0.087909 
0.073006 -0.059148 0.065127 
0.040050 -0.040665 0.003000 
0.071578 -0.052178 0.049138 
-0.052945 0.095929 0.091000 
0.014651 0.102062 0.087082 
-0.038778 0.057382 0.021143 
0.041782 0.029981 0.003000 
0.022636 -0.068589 0.009999 
0.057111 0.077678 0.076075 
0.107271 0.017569 0.083530 
0.020847 -0.089566 0.038950 
0.073376 -0.053484 0.041856 
-0.027273 -0.097831 0.061895 
-0.058576 -0.066706 0.032265 
-0.106242 0.010975 0.077466 
-0.033410 -0.102628 0.084313 
-0.093189 -0.000000 0.049801 
-0.002060 0.098781 0.080446 
0.109004 0.000675 0.082671 
-0.066167 0.048057 0.033106 
0.088596 0.064756 0.088294 
0.083523 -0.001319 0.042509 
-0.098190 -0.052290 0.089771 
-0.058609 0.078220 0.078753 
-0.082727 0.043746 0.067923 
0.071623 0.050802 0.029822 
0.032268 0.045140 0.000000 
0.025237 0.098265 0.079402 
0.110142 -0.000000 0.086201 
0.065419 0.069124 0.072183 
-0.091118 -0.051667 0.071554 
0.093134 -0.008698 0.043600 
-0.107151 0.007595 0.091000 
0.016875 -0.031423 0.000000 
0.041071 -0.009616 0.003000 
0.067062 0.043976 0.037951 
0.032025 0.095258 0.058803 
0.024374 0.031260 0.000000 
0.058332 -0.031022 0.012829 
-0.075832 0.001861 0.010846 
-0.012621 -0.064439 0.010998 
-0.003043 -0.004232 0.002614 
-0.034430 -0.026831 0.003000 
0.017795 0.097301 0.077452 
0.054977 -0.086517 0.065658 
-0.089695 -0.000000 0.039519 
0.027813 -0.058101 0.009132 
0.091574 0.036209 0.080306 
0.022234 -0.097538 0.077932 
0.024227 0.073966 0.030551 
-0.055467 0.081207 0.079824 
-0.078122 -0.013275 0.016230 
0.028418 -0.086990 0.037650 
-0.028829 -0.088088 0.044318 
-0.082845 -0.034585 0.034682 
-0.094025 -0.036256 0.060143 
0.061059 0.010987 0.005270 
0.005244 0.064000 0.001219 
0.009552 -0.000688 0.002502 
-0.053930 -0.046912 0.006452 
0.005628 -0.052313 0.000000 
-0.007377 -0.005750 0.002721 
-0.063849 -0.044725 0.032229 
0.040148 0.074840 0.051096 
0.046735 -0.085697 0.076616 
0.080080 -0.074770 0.084699 
-0.059459 -0.010790 0.000000 
0.008966 -0.080393 0.018695 
-0.037060 0.027249 0.003000 
-0.085297 0.062304 0.081836 
-0.090649 0.024728 0.071179 
-0.091132 -0.014026 0.040457 
0.000758 -0.068110 0.003767 
-0.035384 -0.028473 0.000000 
-0.084927 0.010148 0.050837 
-0.060731 0.020806 0.000863 
0.080755 -0.050129 0.068182 
0.077405 -0.065324 0.080420 
-0.021288 -0.036231 0.003000 
-0.062365 -0.083980 0.091000 
0.029315 -0.083456 0.052055 
0.030876 -0.065031 0.024048 
0.048370 -0.048900 0.004057 
0.034943 0.023439 0.003000 
-0.036016 -0.037152 0.003000 
0.041630 0.036602 0.000000 
-0.090480 -0.027319 0.072571 
-0.040352 -0.070195 0.018836 
-0.098019 0.029868 0.088715 
0.097844 -0.008877 0.054146 
-0.046671 0.098604 0.084471 
-0.088825 0.036652 0.075223 
-0.043751 -0.059151 0.029984 
0.021080 0.087179 0.056983 
-0.048667 0.086752 0.080647 
0.037600 -0.013490 0.000000 
0.023289 0.040543 0.000000 
-0.042772 0.025245 0.003000 
0.106272 0.006046 0.076198 
0.015928 0.082830 0.048189 
-0.001666 0.107201 0.091000 
-0.003441 -0.102080 0.063868 
0.043926 0.095254 0.072118 
-0.038744 0.006926 0.000000 
-0.017429 0.077921 0.038262 
0.055617 0.087509 0.069170 
-0.061584 -0.044930 0.018300 
-0.021519 0.062282 0.001595 
0.066997 0.048046 0.040401 
0.057309 0.047296 0.027074 
0.031338 -0.067084 0.027932 
0.063789 0.081818 0.068258 
-0.088390 0.044885 0.056086 
-0.106678 -0.029199 0.091000 
0.090472 -0.017007 0.065931 
-0.084771 0.029974 0.063131 
-0.080154 -0.058643 0.063831 
0.075778 -0.000000 0.024003 
0.031670 0.073746 0.017287 
-0.098556 -0.036507 0.073048 
-0.078193 -0.000000 0.023071 
0.059029 -0.034980 0.003876 
-0.015865 -0.018068 0.000000 
0.105428 -0.006975 0.088515 
-0.060754 -0.019370 0.000000 
0.033182 0.076538 0.045481 
-0.070899 0.051783 0.040256 
-0.050575 0.084639 0.054975 
0.006614 -0.094207 0.045477 
0.030307 0.101481 0.085906 
0.020266 0.061566 0.005683 
0.036191 -0.079683 0.029677 
0.057418 -0.017241 0.002239 
-0.057148 0.029704 0.000668 
0.053641 -0.084351 0.082729 
0.013195 -0.031158 0.002902 
0.023384 0.082633 0.047791 
0.053871 -0.048475 0.024853 
-0.077953 -0.069558 0.087945 
-0.038032 0.061250 0.007282 
0.054152 0.086701 0.064933 
0.059500 0.018425 0.003000 
-0.000798 0.008127 0.002437 
-0.059353 0.055334 0.042547 
0.059395 0.035425 0.017754 
-0.038420 0.054313 0.015742 
-0.074111 -0.034922 0.045814 
0.083754 -0.024350 0.028747 
-0.021848 0.019767 0.003000 
0.017457 -0.101235 0.085409 
0.058114 -0.086595 0.091000 
-0.078766 0.045076 0.061120 
0.092862 -0.000000 0.046315 
-0.072550 -0.000000 0.018067 
0.093779 -0.034088 0.083186 
-0.029330 0.090630 0.055386 
-0.067256 -0.007323 0.014903 
0.000666 -0.082873 0.022000 
0.019674 -0.049144 0.003000 
-0.081176 -0.005488 0.019374 
-0.086616 -0.059791 0.072091 
-0.061496 -0.072394 0.046163 
-0.058855 0.082172 0.059879 
-0.082048 -0.042048 0.040535 
-0.014037 -0.051793 0.000000 
0.028593 -0.088597 0.041836 
0.022853 0.070879 0.017467 
-0.068838 0.016012 0.023413 
0.083200 0.052853 0.054637 
-0.100455 0.008967 0.080152 
-0.038064 0.072657 0.045051 
0.072809 0.053010 0.038792 
0.056933 0.071187 0.065334 
0.060967 -0.022706 0.000755 
0.055192 0.061772 0.047973 
-0.000013 -0.088703 0.031584 
-0.069356 -0.050719 0.029524 
0.037749 -0.103213 0.087114 
-0.081310 0.061593 0.062797 
0.029383 -0.090413 0.054970 
0.038179 0.005748 0.000000 
-0.024576 -0.044098 0.000000 
0.041480 -0.065904 0.013679 
-0.070265 -0.051342 0.032403 
-0.076697 0.069099 0.066671 
0.108052 -0.009367 0.082149 
0.077621 -0.049845 0.061974 
0.070859 -0.016563 0.027675 
-0.016769 -0.061872 0.003000 
-0.036459 -0.002792 0.000000 
0.022066 -0.059187 0.003000 
0.024452 0.071461 0.026758 
-0.024739 -0.067451 0.007161 
-0.023154 0.070717 0.011844 
0.014599 -0.075880 0.034135 
0.026214 -0.097814 0.060938 
-0.049340 0.030230 0.000000 
0.033967 0.017163 0.003000 
0.082035 0.070017 0.080187 
0.015700 0.085565 0.053720 
-0.082132 -0.052452 0.072377 
-0.014978 0.089034 0.060736 
0.045637 0.039521 0.000460 
-0.051659 0.033816 0.001790 
0.006130 0.082252 0.047021 
-0.084121 0.068010 0.081361 
0.027024 0.010045 0.000000 
-0.069454 -0.004107 0.017082 
-0.064729 0.010527 0.001191 
-0.082416 -0.045431 0.044811 
-0.084106 0.048775 0.073787 
-0.023161 0.071590 0.018900 
-0.097069 -0.045547 0.091000 
0.016129 -0.091643 0.042039 
0.063297 -0.002789 0.004282 
0.046799 -0.000112 0.000000 
-0.022531 0.077418 0.018527 
0.018607 -0.075217 0.032794 
0.088596 0.006796 0.055881 
0.069014 -0.023891 0.028794 
0.028248 -0.096826 0.059857 
0.003899 0.108679 0.091000 
-0.059908 -0.013867 0.004899 
-0.039614 -0.097752 0.074056 
-0.036230 0.085508 0.041632 
0.072549 0.028247 0.038579 
-0.061019 -0.069287 0.040214 
-0.006646 0.085601 0.027371 
0.101431 0.029278 0.074150 
-0.078034 -0.023612 0.046223 
-0.038086 0.025890 0.003000 
-0.022031 -0.072147 0.026586 
0.004030 0.063079 0.002007 
0.073262 0.056449 0.061064 
0.031174 0.060311 0.016750 
-0.082375 0.070335 0.081501 
0.089496 0.022279 0.040004 
-0.050688 -0.004855 0.003000 
0.032449 0.102181 0.087322 
0.040669 0.089924 0.076183 
0.024906 0.108151 0.090031 
0.073523 -0.048361 0.030488 
0.069300 -0.045334 0.043087 
0.037358 0.053247 0.012741 
-0.063029 0.053355 0.043760 
0.079805 0.069838 0.074896 
-0.040253 -0.046325 0.000000 
0.050697 -0.037506 0.003277 
-0.098528 -0.031743 0.067718 
-0.026212 -0.080635 0.042255 
0.025282 0.082158 0.046831 
0.005232 -0.095313 0.073433 
-0.036883 0.082694 0.059910 
0.028091 -0.018393 0.000000 
0.026053 -0.094973 0.072745 
0.036372 -0.069892 0.015377 
0.020909 0.066575 0.005286 
0.067911 -0.049563 0.032687 
0.067407 0.054606 0.028261 
-0.012383 0.064264 0.010644 
0.085961 0.055470 0.064912 
0.103631 0.018916 0.073546 
-0.033397 0.086882 0.042097 
-0.062828 0.089790 0.085564 
0.086895 -0.023009 0.034280 
0.017326 0.068430 0.006096 
-0.012747 0.073717 0.029761 
-0.046607 0.014075 0.000000 
0.091083 -0.032384 0.076883 
-0.073026 -0.056518 0.060892 
0.008696 -0.062903 0.007892 
-0.033153 -0.009729 0.000000 
0.098096 0.016578 0.056317 
-0.025559 -0.099934 0.082778 
0.025131 -0.050995 0.000000 
0.036444 0.045421 0.003000 
-0.017168 0.002691 0.000000 
0.085629 0.065691 0.080568 
-0.012634 -0.107053 0.080462 
0.093996 0.000801 0.043692 
-0.062434 -0.045529 0.026432 
0.048198 -0.081765 0.071997 
0.015639 -0.108449 0.085805 
0.100494 -0.030408 0.072340 
-0.061241 -0.013180 0.007037 
-0.037787 0.067827 0.036886 
-0.049776 -0.095838 0.080414 
0.101369 0.016989 0.066135 
-0.077772 -0.020525 0.043766 
0.100877 0.008957 0.081003 
-0.058438 0.071476 0.040206 
-0.042797 -0.068046 0.043258 
-0.069301 0.076316 0.088511 
0.033084 0.102579 0.080443 
-0.028162 -0.079597 0.024462 
0.021181 -0.038468 0.003000 
-0.006506 0.040167 0.000000 
-0.071688 -0.071108 0.082931 
-0.006543 0.078915 0.040272 
0.003834 0.101665 0.086278 
-0.061903 -0.039921 0.025436 
-0.010438 0.091170 0.065055 
-0.075289 0.037953 0.024542 
-0.019454 -0.077372 0.037152 
0.063107 -0.079472 0.086188 
0.080250 0.048397 0.043742 
-0.051917 -0.074036 0.035605 
-0.073320 -0.072036 0.065712 
-0.080913 0.008545 0.042047 
-0.048902 0.084701 0.053135 
-0.034586 0.042109 0.003000 
-0.079877 0.057744 0.053416 
0.055160 -0.060005 0.019509 
0.079233 -0.036189 0.056358 
0.015171 0.069736 0.021711 
-0.083695 -0.000000 0.039103 
-0.036738 0.061639 0.006912 
-0.069866 -0.047816 0.045787 
0.057952 0.025620 0.008697 
0.008505 0.009918 0.002421 
-0.046500 0.036238 0.003000 
-0.052181 0.031113 0.000000 
0.030603 0.095120 0.061395 
-0.077429 -0.031306 0.022761 
0.082303 0.034192 0.033061 
0.091542 0.052517 0.090565 
0.026973 -0.005696 0.003000 
0.101973 0.004156 0.063657 
0.050473 -0.082033 0.049791 
0.088652 0.033506 0.045546 
0.043165 -0.093382 0.066219 
-0.080075 0.022095 0.022477 
0.028987 0.089542 0.049841 
0.057541 -0.014070 0.000000 
-0.099474 -0.016821 0.060054 
-0.010438 -0.065680 0.013508 
0.026517 0.090321 0.043668 
0.074561 -0.000000 0.012772 
0.073128 -0.028055 0.014801 
-0.043379 0.057823 0.007140 
-0.026935 -0.069793 0.009789 
-0.082046 0.063821 0.083557 
0.004423 0.012129 0.000000 
-0.049437 0.000046 0.000000 
0.031651 0.086111 0.059165 
-0.010356 -0.048576 0.000000 
-0.052866 -0.042404 0.003095 
-0.105568 -0.002949 0.073613 
0.062867 0.015892 0.011935 
0.100524 0.025181 0.090589 
-0.004427 -0.017157 0.000000 
-0.031932 0.068967 0.010603 
-0.006024 -0.056833 0.000000 
0.088541 -0.060943 0.079740 
0.066099 -0.037605 0.031980 
-0.044136 0.065160 0.040186 
0.006156 0.104990 0.072621 
-0.076605 0.020998 0.041617 
0.050418 -0.051850 0.026170 
0.101876 -0.005497 0.080700 
0.077034 -0.069463 0.086686 
-0.060570 0.019858 0.000000 
0.047317 0.061586 0.012943 
0.002635 0.077562 0.013698 
-0.024263 0.096171 0.075169 
-0.016612 -0.063266 0.008627 
0.041185 0.030783 0.000000 
-0.015569 0.057432 0.002508 
-0.021225 0.028535 0.000000 
-0.001865 -0.102602 0.088172 
-0.014294 0.086521 0.055653 
0.046745 -0.011706 0.003000 
-0.049422 0.071444 0.056728 
0.000062 0.035335 0.002224 
0.001402 0.059212 0.000428 
0.083460 0.023744 0.028070 
0.085875 0.038935 0.044684 
-0.086465 -0.010732 0.054295 
0.054773 0.032472 0.006964 
0.033653 0.104205 0.087072 
0.002263 -0.093670 0.043267 
-0.038302 -0.015780 0.000000 
0.067711 0.016556 0.021743 
-0.041106 -0.089985 0.055077 
-0.088210 -0.018262 0.034913 
0.058387 -0.083536 0.087108 
0.098202 -0.000000 0.056038 
-0.018217 -0.052609 0.003000 
-0.027623 -0.054763 0.003000 
0.078010 -0.015291 0.040713 
0.078341 0.074575 0.080831 
0.073482 -0.064728 0.052801 
0.087545 -0.046533 0.079023 
-0.086574 -0.024922 0.063523 
0.033736 0.091298 0.051413 
-0.087509 0.058448 0.086522 
-0.081300 -0.065694 0.085699 
0.053546 -0.080634 0.076588 
0.049695 0.060191 0.013694 
0.055677 -0.018942 0.003000 
0.021343 0.070177 0.022603 
-0.095641 0.012162 0.049939 
0.030580 -0.092296 0.050892 
-0.038156 0.100838 0.080734 
0.002607 0.095038 0.046422 
-0.105798 0.025920 0.091000 
0.099427 0.046584 0.086410 
0.053010 -0.081198 0.050916 
0.092993 -0.036975 0.083498 
-0.100410 0.009598 0.080466 
-0.028063 -0.086188 0.054761 
0.023649 -0.075500 0.033367 
-0.016772 -0.094341 0.048105 
-0.048876 -0.056639 0.009519 
-0.100981 -0.025836 0.069662 
-0.036437 0.039741 0.000000 
0.060382 0.041553 0.023534 
0.080921 -0.001158 0.037370 
-0.004515 -0.006879 0.002889 
-0.075958 -0.013964 0.013203 
-0.087983 -0.057997 0.072363 
-0.080760 -0.049171 0.045694 
-0.078673 -0.000000 0.028358 
0.039399 0.006279 0.000000 
0.029495 0.054837 0.000000 
0.018667 -0.032768 0.003000 
-0.049826 0.053448 0.028048 
0.020649 0.021642 0.000000 
0.061353 0.035920 0.021844 
0.043219 0.092090 0.082760 
-0.012193 -0.082941 0.048414 
-0.015588 -0.027447 0.003000 
0.060235 0.043546 0.024008 
-0.090595 -0.040989 0.081443 
-0.020146 0.060233 0.000000 
0.096343 0.050493 0.083171 
0.075620 -0.032044 0.020839 
0.053823 0.038823 0.008449 
-0.085205 -0.050516 0.056013 
-0.075579 0.021926 0.015652 
0.027539 0.085200 0.040971 
-0.023108 0.059964 0.002012 
-0.063188 -0.078480 0.059574 
-0.022733 0.096605 0.055169 
0.029803 0.038939 0.000000 
-0.017899 -0.014988 0.003000 
-0.049378 0.028957 0.003000 
0.013865 -0.045456 0.003000 
0.101321 -0.033238 0.091000 
-0.077758 -0.009394 0.014271 
-0.088251 0.055594 0.069712 
0.043875 -0.062407 0.010815 
-0.056924 -0.029767 0.003000 
-0.025604 -0.072297 0.029498 
-0.015934 -0.058183 0.003000 
-0.079654 -0.004910 0.016785 
0.003206 -0.061899 0.005861 
0.018166 -0.095536 0.073884 
0.045977 0.101409 0.090635 
-0.078553 -0.057550 0.050779 
-0.067871 -0.069149 0.050679 
0.035563 0.077436 0.025770 
-0.078495 0.020250 0.044802 
0.082326 0.045082 0.044026 
-0.044592 0.079796 0.038353 
-0.055034 0.075896 0.070690 
0.069225 0.057874 0.058522 
0.089733 0.003428 0.034755 
0.057015 -0.073319 0.041230 
0.048826 0.079907 0.069738 
-0.079618 -0.070416 0.075482 
-0.098457 -0.035238 0.091000 
-0.098169 -0.018023 0.056776 
0.096348 0.035747 0.089221 
-0.068717 -0.078699 0.070477 
-0.035349 0.101839 0.089115 
-0.012585 -0.059743 0.000000 
-0.005430 0.097573 0.078002 
0.007485 0.099395 0.057399 
0.028019 -0.026252 0.000000 
0.030404 -0.001458 0.000000 
-0.062540 0.074894 0.051963 
0.073239 -0.081130 0.083764 
-0.057133 -0.042342 0.006069 
0.028924 0.088773 0.053420 
0.074683 0.038907 0.049440 
-0.083037 0.069330 0.081234 
-0.053787 0.035319 0.001342 
-0.031008 -0.082780 0.031146 
-0.037895 0.045709 0.003000 
-0.037924 0.075641 0.049723 
-0.064776 -0.046292 0.035007 
-0.031478 0.097774 0.072489 
0.032407 0.054057 0.000000 
0.085357 0.056522 0.081171 
0.085633 -0.010227 0.052254 
0.070473 0.010193 0.006529 
0.104005 0.004761 0.069488 
0.090493 -0.043576 0.059375 
-0.041070 0.047122 0.003000 
-0.047527 -0.084470 0.051119 
0.018905 -0.099700 0.061590 
-0.033933 0.026617 0.000000 
0.055798 0.003592 0.000000 
0.043717 0.038048 0.003000 
0.041266 -0.088626 0.052637 
-0.067693 0.049181 0.035456 
-0.072771 0.052810 0.054581 
-0.009792 -0.071891 0.026068 
0.110071 -0.002581 0.091000 
-0.069927 -0.081670 0.079216 
-0.064465 -0.024979 0.020894 
0.004302 -0.075168 0.032695 
0.057172 0.084710 0.087552 
0.038376 0.069341 0.016031 
0.032819 -0.008872 0.000000 
0.109363 0.018173 0.089586 
0.059711 0.020110 0.000000 
0.086414 -0.018745 0.031235 
0.089778 0.033623 0.075207 
-0.056046 0.063736 0.052185 
0.108612 0.015582 0.091000 
0.074880 0.082283 0.091000 
-0.057665 -0.059688 0.022106 
-0.040381 -0.068018 0.040311 
-0.036791 -0.083817 0.038513 
-0.043957 0.024075 0.003000 
0.020183 0.091984 0.066701 
0.009611 0.014565 0.000000 
0.085725 0.041785 0.047236 
0.016567 -0.022557 0.000000 
-0.073929 0.051609 0.035043 
-0.029080 -0.089507 0.050985 
0.060796 0.004516 0.000000 
0.104010 0.012184 0.089087 
0.042358 -0.029995 0.003000 
0.054117 0.080430 0.076942 
-0.053027 0.077809 0.044346 
0.030346 -0.071131 0.033305 
0.068413 0.035845 0.035411 
-0.073299 0.074999 0.071596 
-0.022039 -0.010380 0.000000 
0.066179 -0.067149 0.044816 
-0.038941 -0.050910 0.010857 
0.068690 0.050095 0.025944 
-0.008903 0.002278 0.000000 
-0.073046 0.053260 0.051109 
-0.060511 0.065968 0.061168 
-0.010412 -0.007160 0.000000 
-0.011645 0.005614 0.002439 
0.032846 0.059196 0.016954 
0.053661 -0.096316 0.091000 
-0.034205 0.063062 0.006909 
-0.060453 0.006416 0.001138 
0.019781 0.010532 0.002585 
-0.055059 -0.083942 0.058985 
0.059676 -0.023973 0.001072 
0.095252 0.029623 0.056662 
0.078993 0.005726 0.036596 
0.015132 -0.062580 0.000176 
-0.090987 -0.036361 0.079272 
0.032279 0.014904 0.000000 
0.010787 0.074978 0.032311 
0.020355 -0.003395 0.003000 
0.006733 0.102099 0.087156 
-0.023676 0.044781 0.000000 
-0.064831 -0.087349 0.082741 
0.060683 0.093322 0.090106 
-0.014002 0.061275 0.000000 
-0.014899 0.012584 0.002571 
0.104357 -0.006083 0.071058 
0.007505 0.048708 0.000000 
-0.000695 -0.016635 0.002659 
-0.043027 0.012183 0.003000 
-0.037051 0.101811 0.082340 
0.050315 -0.036935 0.001893 
0.043785 -0.086719 0.051643 
-0.048167 0.090959 0.067133 
0.101750 -0.000000 0.067869 
0.008664 0.081430 0.020412 
0.012688 0.098987 0.057645 
-0.027696 0.001936 0.000000 
-0.046134 0.087744 0.056183 
0.050823 0.048185 0.020721 
0.060837 0.005799 0.000000 
-0.010260 -0.018308 0.003000 
0.058718 0.027731 0.011543 
0.051589 -0.043965 0.014808 
-0.003689 -0.091453 0.065627 
0.006017 0.104843 0.072174 
0.019030 0.090488 0.063676 
-0.082741 -0.060591 0.079161 
0.009666 0.021363 0.002330 
0.082894 0.022513 0.054900 
0.003767 0.022857 0.002321 
0.056027 -0.061142 0.047956 
-0.074415 -0.049867 0.034088 
0.086501 -0.056399 0.067700 
0.046470 -0.044327 0.000000 
0.020998 0.101202 0.066579 
-0.038230 0.077293 0.052770 
0.009957 0.085995 0.054589 
-0.078310 -0.074981 0.081583 
0.060005 -0.043709 0.012517 
0.071715 0.021322 0.032571 
0.066522 -0.048807 0.040591 
0.093451 -0.027735 0.051404 
-0.053748 0.062278 0.020762 
-0.071076 0.051873 0.033912 
0.006635 0.021694 0.002331 
0.074522 -0.078728 0.081499 
-0.108876 0.002654 0.091000 
-0.099172 0.025422 0.064138 
-0.085471 -0.000000 0.039342 
0.022587 0.070098 0.015504 
0.027634 0.063744 0.004593 
-0.061074 0.066325 0.035398 
-0.069640 0.000880 0.015351 
-0.031599 -0.040380 0.000000 
-0.081170 -0.058392 0.056673 
0.057746 0.062562 0.052323 
0.066591 0.047526 0.019764 
0.064990 -0.044976 0.015350 
0.003280 0.104599 0.070804 
0.043534 -0.021287 0.000000 
-0.001894 0.016518 0.002371 
-0.037518 -0.055318 0.002354 
0.022522 -0.100683 0.084293 
0.028428 -0.088172 0.055223 
-0.063299 0.064751 0.036432 
-0.069829 0.017527 0.007527 
0.009647 -0.044578 0.002843 
-0.068591 -0.049880 0.042864 
-0.052089 0.074820 0.065407 
0.035474 0.069521 0.036853 
-0.072376 0.084224 0.089177 
0.082513 0.036671 0.035741 
-0.082127 0.055140 0.074030 
0.088509 0.044108 0.055452 
0.012374 0.108483 0.084070 
-0.103227 -0.041618 0.091000 
-0.068125 -0.027663 0.029678 
-0.044118 0.019698 0.003000 
0.032736 0.002081 0.000000 
0.099991 -0.013250 0.081974 
0.065405 0.024139 0.022173 
-0.053754 -0.027474 0.001765 
-0.072237 -0.052856 0.046497 
0.018555 -0.031178 0.003000 
0.100959 -0.000000 0.066886 
-0.011537 -0.011781 0.003000 
-0.086134 -0.067701 0.085320 
-0.033286 0.103486 0.084018 
-0.046053 0.082863 0.046207 
-0.055309 0.052893 0.011240 
0.028045 0.085726 0.040693 
0.065334 -0.035083 0.009089 
-0.057278 0.023395 0.005914 
-0.064853 0.047205 0.017400 
0.069751 0.072112 0.082233 
0.026327 0.102766 0.088505 
0.050974 0.048021 0.005173 
-0.014887 0.102309 0.087581 
0.070814 -0.051817 0.043517 
0.068296 -0.079417 0.071351 
0.048971 -0.069000 0.024470 
0.086423 0.062272 0.076101 
0.082628 0.057475 0.059059 
0.022025 0.068314 0.013920 
-0.087466 0.038619 0.047682 
0.064638 0.061887 0.034010 
-0.034965 0.085059 0.039648 
0.077930 -0.001539 0.031820 
0.068667 -0.050033 0.031190 
-0.072591 -0.052013 0.033106 
-0.097998 -0.022537 0.084044 
-0.097098 0.043740 0.091000 
-0.012124 -0.054824 0.003000 
-0.037746 -0.006978 0.000000 
-0.027077 -0.004091 0.003000 
0.097099 0.026954 0.085105 
-0.009723 0.072579 0.027459 
0.010731 0.085937 0.054472 
-0.035650 0.102711 0.090892 
-0.068659 0.051706 0.026716 
-0.068820 -0.001155 0.013949 
-0.005240 -0.093788 0.070350 
-0.065137 0.063203 0.036892 
-0.053359 -0.096393 0.086205 
0.097787 -0.053646 0.090299 
0.060559 0.058382 0.048932 
-0.023771 0.098869 0.080623 
0.053830 -0.087860 0.067158 
-0.029594 0.094516 0.055104 
0.008050 0.071544 0.006979 
0.063004 -0.052997 0.020867 
-0.044838 0.074240 0.028244 
0.009328 -0.074823 0.010241 
-0.066676 -0.067058 0.070342 
0.039460 0.050640 0.003000 
-0.044902 -0.099458 0.084139 
0.006195 0.110584 0.088451 
-0.099927 -0.025056 0.065982 
0.006125 0.082337 0.021946 
0.020514 -0.071098 0.009374 
0.082909 -0.047337 0.070556 
0.009302 -0.068945 0.020110 
0.082937 -0.062414 0.068070 
0.039088 -0.047226 0.003000 
-0.032629 -0.091748 0.051427 
-0.081373 0.049513 0.047083 
-0.085877 0.032196 0.066685 
-0.078084 -0.076985 0.091000 
-0.052535 0.029518 0.003000 
0.024244 -0.073564 0.018036 
0.018686 -0.020843 0.000000 
0.049518 0.081712 0.073495 
-0.031061 -0.015291 0.000000 
0.095916 -0.016005 0.075836 
0.011745 -0.056815 0.000000 
0.075217 -0.052156 0.058833 
-0.016611 0.068148 0.018500 
-0.107958 -0.020220 0.086371 
0.090811 0.023390 0.043454 
-0.071673 -0.048563 0.027962 
0.102768 0.042373 0.090490 
0.026631 -0.047471 0.000000 
0.040078 -0.048302 0.008001 
0.036688 -0.077548 0.026919 
0.049129 -0.031978 0.000000 
0.047012 0.088954 0.060327 
-0.004930 0.100516 0.059812 
-0.061753 -0.014207 0.008691 
-0.034592 0.019715 0.000000 
-0.092315 -0.041191 0.060780 
-0.069601 -0.078012 0.070478 
0.012696 -0.097795 0.078453 
-0.045332 -0.081584 0.042807 
-0.005675 0.052213 0.000000 
-0.091652 -0.032967 0.051681 
0.016987 0.013729 0.002373 
0.046544 -0.046004 0.012048 
-0.052911 -0.004975 0.003000 
0.037996 -0.056188 0.003289 
0.013996 0.041486 0.002165 
-0.068403 0.050003 0.025496 
-0.076465 0.006367 0.011803 
-0.058205 0.015307 0.003000 
-0.060461 -0.080004 0.057634 
0.061547 0.009881 0.000000 
-0.074061 0.066621 0.078505 
-0.043550 0.058525 0.028728 
0.060181 -0.050124 0.014140 
-0.047086 0.049893 0.003869 
0.016348 0.101394 0.085730 
-0.086560 0.064371 0.089871 
0.015259 -0.021576 0.000000 
0.041732 0.045788 0.005916 
0.061219 0.008055 0.000000 
-0.057685 -0.041699 0.018069 
0.014633 -0.100438 0.083798 
0.055427 -0.069525 0.060830 
0.003105 0.054178 0.002077 
0.036887 0.072366 0.019107 
-0.016335 0.072548 0.027398 
0.064047 0.025325 0.004188 
0.110486 0.013321 0.091000 
0.088192 0.054732 0.069311 
-0.074403 -0.063723 0.074216 
-0.048384 0.037552 0.003000 
-0.017311 -0.079377 0.019654 
-0.003809 0.064169 0.010452 
-0.076458 0.049008 0.059202 
-0.065391 -0.040991 0.012608 
0.084006 0.009581 0.048791 
-0.039891 -0.065634 0.012043 
-0.020371 0.070342 0.008598 
0.084465 0.048895 0.052648 
-0.034744 -0.062603 0.006693 
0.001406 -0.015314 0.002619 
-0.080870 0.051091 0.047838 
0.060980 0.076556 0.052460 
-0.045325 -0.049968 0.017002 
-0.027344 0.036168 0.000000 
0.027759 0.078965 0.042901 
0.058335 -0.091181 0.081641 
0.034360 0.031246 0.003000 
-0.044228 0.038552 0.003000 
0.068722 -0.076246 0.087701 
-0.074647 -0.003125 0.009760 
-0.010974 0.074108 0.030552 
0.007790 -0.036631 0.002785 
-0.029120 0.077413 0.042018 
0.081089 -0.018436 0.048672 
-0.028110 -0.086944 0.055266 
0.029340 -0.090020 0.062543 
0.064482 -0.081509 0.091000 
0.051345 0.017692 0.003000 
-0.002084 -0.074821 0.009920 
-0.080546 0.035421 0.058410 
0.058755 -0.003111 0.003000 
-0.022844 -0.060127 0.006446 
0.006250 -0.105800 0.075130 
-0.026934 -0.077319 0.039241 
-0.069322 -0.075709 0.087551 
-0.091392 -0.039029 0.056178 
-0.010557 -0.090011 0.037099 
0.010656 0.087189 0.057004 
-0.067901 0.039249 0.036497 
-0.024437 -0.091204 0.044934 
0.001612 0.045402 0.000000 
0.033316 0.057090 0.001509 
0.007277 0.090125 0.062941 
0.057270 0.079096 0.078565 
0.095279 0.034621 0.061814 
-0.014837 -0.068134 0.018471 
-0.095201 0.028860 0.082618 
0.046655 -0.087781 0.056847 
-0.011730 -0.000176 0.000000 
0.079888 0.028167 0.052683 
0.077160 0.056180 0.049730 
-0.017715 0.066837 0.015848 
0.023966 -0.102476 0.072565 
-0.080299 0.060958 0.059274 
0.036537 0.078695 0.028424 
0.084704 0.057799 0.080720 
-0.072556 0.069613 0.059339 
0.018852 -0.092168 0.067074 
0.089812 -0.015128 0.037647 
0.057328 0.017135 0.002012 
-0.022797 0.080343 0.043160 
0.029810 0.095789 0.074396 
0.018813 -0.011769 0.000000 
-0.027704 0.072753 0.032759 
-0.076506 0.001458 0.029012 
-0.089401 -0.025822 0.041673 
0.019124 0.108215 0.091000 
0.047643 -0.022648 0.003000 
0.053109 -0.064150 0.049328 
0.064371 0.007343 0.000409 
0.072431 0.052670 0.053946 
0.073053 -0.071825 0.085733 
0.065617 0.047673 0.020058 
-0.073820 0.012831 0.031037 
0.027955 -0.102027 0.074468 
0.047725 -0.010289 0.000000 
-0.016201 0.099593 0.082088 
0.023277 0.005914 0.003000 
-0.054028 -0.086006 0.062918 
-0.026299 0.057807 0.006838 
0.064188 -0.045738 0.033519 
0.045513 0.051527 0.019754 
0.049667 -0.061713 0.015667 
-0.087504 0.049156 0.059661 
0.085258 -0.062462 0.080043 
-0.058094 -0.047872 0.028950 
-0.092628 0.003209 0.041136 
-0.003407 0.004950 0.002458 
0.076913 -0.036005 0.051749 
0.057352 0.046426 0.008571 
0.024042 0.107109 0.086268 
-0.090902 0.054027 0.073936 
-0.054722 0.083464 0.057231 
-0.023898 -0.074250 0.029195 
-0.066580 -0.065407 0.067549 
-0.033542 0.043521 0.003000 
0.095700 -0.008858 0.070877 
0.039705 0.091445 0.056844 
-0.038549 0.025527 0.003000 
0.025317 -0.077186 0.019564 
-0.029688 0.059284 0.013301 
-0.015562 0.076441 0.014719 
-0.044223 -0.018685 0.000000 
0.091882 -0.029926 0.076869 
-0.002080 0.085599 0.026565 
-0.038230 0.092230 0.076994 
0.009356 0.057692 0.002046 
-0.024175 0.078505 0.039443 
-0.083055 0.060793 0.071119 
-0.089545 0.057834 0.090074 
-0.029808 -0.009050 0.000000 
0.021186 0.002591 0.000000 
-0.039128 0.098743 0.075874 
-0.006458 -0.020103 0.002884 
-0.013737 0.009312 0.000000 
0.078965 0.022895 0.020967 
0.048513 -0.094388 0.076100 
0.051322 -0.084748 0.080587 
0.057214 0.021363 0.004520 
0.015293 0.089046 0.060759 
-0.099914 0.018355 0.085069 
-0.097043 0.016421 0.078282 
0.076357 -0.058698 0.068426 
0.020572 -0.086640 0.032583 
-0.077770 0.022317 0.044712 
0.021916 -0.062111 0.008549 
0.029968 0.091768 0.051348 
-0.059885 -0.023344 0.000835 
0.034389 -0.002669 0.003000 
-0.073898 0.072136 0.067069 
0.044728 0.031528 0.000000 
0.081720 0.059418 0.071031 
-0.050077 0.060890 0.014997 
0.088558 0.022284 0.037970 
0.017196 -0.107498 0.083968 
-0.003128 0.108743 0.082512 
0.051389 0.009099 0.000000 
0.072388 0.029917 0.039326 
-0.038915 0.041988 0.000000 
-0.076539 -0.066125 0.080677 
0.023510 -0.071095 0.012808 
0.063456 0.015582 0.001082 
-0.010452 -0.089124 0.035095 
0.074480 -0.019054 0.036269 
0.082682 0.070884 0.091000 
