
# .PCD v.6 - Point Cloud Data file format
FIELDS x y z 
SIZE 4 4 4 
TYPE F F F 
COUNT 1 1 1 
WIDTH 1648
HEIGHT 1
VIEWPOINT 0.000000 0.000000 0.000000 1.000000 0.000000 0.000000 0.00000
POINTS 1648
DATA ascii
0.043574 0.028789 0.028718 
0.069442 -0.000924 0.057385 
-0.056453 -0.026616 0.033609 
0.036612 -0.023801 0.005680 
-0.035828 -0.058167 0.078435 
-0.029324 -0.069054 0.082000 
-0.029211 0.059502 0.070602 
0.010778 0.043644 0.001861 
-0.022177 -0.065432 0.054696 
0.062050 0.026721 0.049556 
-0.009223 0.071772 0.082000 
0.029669 0.041147 0.029576 
-0.040176 0.041913 0.048609 
0.000106 -0.043899 0.008489 
0.025186 0.065536 0.059717 
0.051668 0.010684 0.009526 
-0.009607 -0.073753 0.078068 
-0.036524 0.022695 0.000000 
0.050494 -0.002427 0.007373 
0.062315 0.036233 0.068184 
-0.045381 -0.003022 0.009482 
0.018445 -0.056318 0.042910 
0.062116 0.027064 0.076494 
0.029105 0.046908 0.015607 
0.006173 -0.043502 0.007326 
-0.000909 -0.017549 0.003000 
0.036485 -0.046580 0.052478 
-0.050798 -0.013259 0.034360 
0.002424 -0.045000 0.001619 
0.049149 0.026259 0.016689 
-0.001369 0.051459 0.008168 
0.062261 -0.020638 0.071013 
-0.056851 -0.035384 0.069700 
0.004994 0.062036 0.061605 
-0.057293 -0.044079 0.081649 
-0.039240 -0.032958 0.026706 
0.015754 -0.058950 0.029842 
-0.045366 -0.035639 0.021693 
-0.041012 -0.028455 0.021620 
0.057968 -0.000000 0.022972 
0.032155 0.039037 0.028894 
-0.054879 0.012537 0.017519 
0.055373 -0.006578 0.039674 
-0.038778 0.009788 0.003000 
-0.036299 -0.036886 0.030808 
0.061426 -0.004278 0.031279 
-0.043727 0.026047 0.026752 
-0.065955 -0.000000 0.055888 
0.044538 0.030243 0.032537 
0.025220 -0.013021 0.000000 
0.037452 0.056013 0.049297 
-0.018606 0.039314 0.000000 
0.071102 0.000242 0.077049 
-0.018028 -0.062611 0.042851 
-0.009401 0.043817 0.000000 
-0.029127 0.027240 0.003000 
0.039462 0.024076 0.013715 
0.010537 0.024384 0.000000 
-0.033914 -0.028543 0.003000 
-0.042326 0.060216 0.082000 
-0.034407 0.046563 0.021848 
-0.009559 0.074774 0.081863 
-0.057115 -0.003671 0.020870 
-0.055747 0.039151 0.070026 
0.060201 0.002079 0.049063 
-0.034325 0.049425 0.056083 
0.025505 -0.061849 0.069565 
-0.007305 -0.061669 0.060530 
0.002713 0.060421 0.028262 
-0.047461 0.003416 0.015556 
-0.047495 0.032964 0.021482 
-0.016998 -0.066298 0.074088 
0.064614 0.030127 0.064623 
0.039465 -0.045008 0.026224 
0.033645 0.046406 0.048098 
0.008199 -0.073963 0.077597 
0.024485 0.024357 0.000000 
-0.044037 -0.060628 0.080959 
-0.003915 0.044213 0.000000 
0.051151 0.014348 0.036356 
-0.045796 0.034401 0.040755 
-0.030794 -0.034518 0.016289 
-0.013649 -0.054825 0.018468 
0.047392 -0.045228 0.067669 
-0.039226 0.053606 0.046167 
0.031808 0.062187 0.059102 
-0.030338 0.032826 0.000000 
-0.072789 0.011015 0.074021 
0.058068 -0.008618 0.023689 
-0.003863 -0.066246 0.073936 
0.044355 0.032004 0.015860 
-0.032050 -0.034888 0.019285 
0.051072 0.027677 0.047679 
-0.060409 0.043605 0.080211 
-0.027770 0.062681 0.053270 
-0.072002 -0.021795 0.080763 
-0.021879 0.037949 0.000000 
-0.069209 -0.029887 0.081206 
0.003134 -0.069129 0.055998 
0.069393 -0.019453 0.067176 
0.063326 -0.023561 0.076524 
-0.056876 0.036242 0.049381 
0.065206 -0.000000 0.045985 
-0.012494 0.057846 0.024138 
0.019467 -0.058968 0.034655 
0.047749 0.041431 0.037383 
0.010079 -0.067806 0.078503 
0.047336 0.046609 0.071050 
-0.024253 -0.032612 0.000428 
-0.051613 0.024082 0.046006 
-0.071751 0.000883 0.067610 
-0.051059 -0.013870 0.035675 
0.047172 -0.034604 0.041791 
0.060384 0.037098 0.063339 
0.020528 0.031247 0.000000 
0.015305 -0.067527 0.077686 
-0.029237 0.044132 0.010149 
-0.060092 -0.000000 0.043542 
-0.001971 -0.072664 0.071655 
0.036378 0.025914 0.000000 
0.020174 -0.043076 0.016894 
0.020268 0.063294 0.055656 
-0.015271 0.051387 0.030419 
0.029905 -0.050669 0.024190 
0.043931 -0.003970 0.003000 
-0.073165 -0.006663 0.073873 
0.062697 -0.028503 0.054459 
-0.044671 0.000824 0.005379 
0.018138 -0.023655 0.003000 
-0.067472 0.018245 0.058777 
-0.016730 0.044484 0.014563 
0.047681 0.037269 0.028323 
0.043643 -0.038643 0.022806 
0.043189 -0.030715 0.010037 
-0.040339 -0.060987 0.073225 
0.067235 0.029394 0.082000 
-0.068282 0.018430 0.061906 
-0.047285 -0.027033 0.013856 
0.049790 0.025457 0.017063 
0.070963 -0.010058 0.065555 
-0.054470 -0.014637 0.045426 
-0.046033 -0.044729 0.040828 
-0.001517 -0.059559 0.054350 
-0.004444 -0.066404 0.074398 
-0.028474 0.005209 0.000000 
-0.027908 -0.030054 0.000950 
-0.035756 0.052560 0.065562 
0.003678 -0.012452 0.000000 
-0.024554 -0.034597 0.005525 
-0.047586 -0.013379 0.025700 
0.027004 0.037826 0.001829 
0.023503 -0.060192 0.040879 
0.006081 -0.051070 0.029490 
0.009149 -0.036980 0.003000 
-0.022020 0.046090 0.027540 
-0.049609 -0.043028 0.045751 
-0.011068 -0.072808 0.082000 
0.015933 -0.050333 0.027332 
-0.070733 0.018333 0.071352 
-0.058593 -0.045872 0.078776 
0.040658 0.046980 0.033330 
0.019583 -0.053364 0.039852 
0.011359 -0.052278 0.033029 
-0.030982 0.063058 0.060298 
0.042673 -0.036502 0.017997 
0.046966 0.020263 0.030355 
0.063205 -0.011869 0.040585 
0.048793 -0.018212 0.032167 
-0.057185 0.040988 0.075436 
0.006253 -0.024910 0.003000 
0.000900 -0.048523 0.022031 
-0.013882 0.060394 0.056796 
-0.069264 0.000440 0.072221 
0.051462 -0.000198 0.023305 
-0.047922 -0.037602 0.029678 
0.067145 -0.027004 0.082000 
-0.052754 -0.038357 0.054352 
-0.061035 -0.000000 0.043210 
0.042622 0.033208 0.013111 
-0.055704 0.017664 0.023205 
0.044878 -0.018580 0.004904 
-0.037786 -0.001043 0.000000 
-0.029730 0.054962 0.061127 
-0.057444 -0.015899 0.054420 
-0.019793 -0.045710 0.006596 
-0.036407 -0.045306 0.050135 
0.039912 -0.012815 0.003973 
0.072675 0.007667 0.071702 
-0.001165 0.062375 0.062598 
0.000207 0.069685 0.058460 
0.028519 0.032057 0.006632 
0.002083 0.059794 0.055040 
0.034620 0.048464 0.054383 
-0.045034 0.031552 0.014787 
0.064394 -0.035874 0.075185 
-0.025194 -0.043734 0.027682 
-0.013670 0.061797 0.060905 
-0.074266 -0.002350 0.078751 
0.046187 -0.033567 0.023787 
0.010194 0.061600 0.060329 
0.018447 0.005188 0.000000 
-0.065097 -0.000000 0.050603 
0.048014 -0.033832 0.023586 
0.012668 -0.048148 0.005917 
0.037290 0.021795 0.005840 
-0.011743 -0.009504 0.003000 
0.032820 -0.062222 0.082000 
0.031823 0.046730 0.045843 
0.035630 -0.035907 0.026891 
0.020284 -0.024109 0.000000 
0.000273 0.073244 0.074223 
0.011138 0.011141 0.003000 
0.056838 0.049020 0.080261 
-0.029998 0.008588 0.003000 
0.012958 -0.014222 0.003000 
0.044840 -0.044761 0.062292 
-0.058088 -0.002459 0.043659 
0.048750 0.046832 0.073880 
0.007639 0.053119 0.035490 
0.039789 -0.015452 0.000000 
-0.001452 -0.072941 0.072881 
0.053582 -0.012723 0.014949 
-0.000151 -0.070567 0.062370 
0.034144 -0.053727 0.037757 
-0.013962 -0.063387 0.042407 
-0.026827 0.066376 0.066019 
0.053890 -0.051070 0.076730 
0.042253 -0.002942 0.000813 
-0.021871 -0.067455 0.064508 
-0.069908 -0.001376 0.059451 
0.042003 -0.046802 0.062273 
0.068521 0.006438 0.075669 
0.050122 -0.038968 0.058104 
-0.034450 -0.057603 0.074889 
0.012508 0.044203 0.009381 
-0.017114 -0.053192 0.026031 
0.027777 0.059880 0.069104 
-0.055980 -0.044797 0.068588 
0.002834 0.073044 0.073340 
-0.049574 0.039652 0.058904 
0.010823 -0.061547 0.060173 
0.036607 -0.026191 0.001041 
-0.061602 0.032725 0.058162 
0.046541 -0.033369 0.020150 
-0.054349 -0.041584 0.071141 
-0.015735 -0.022642 0.003000 
-0.061624 0.015787 0.065430 
0.030553 0.058235 0.044364 
0.063957 -0.026222 0.055469 
0.054266 0.039063 0.053522 
0.044838 0.039310 0.050346 
-0.047895 0.035164 0.025345 
0.014144 -0.043210 0.007068 
0.052153 -0.036092 0.037155 
0.007178 0.073606 0.075826 
0.046045 0.033230 0.039124 
0.046463 -0.036227 0.045867 
-0.021756 -0.038835 0.010373 
0.044659 -0.036196 0.020746 
0.032104 -0.031706 0.011646 
0.030130 -0.050134 0.023382 
-0.068603 0.019626 0.064144 
-0.032693 -0.062363 0.061501 
0.024948 -0.048439 0.037408 
0.025331 0.000505 0.000000 
-0.070871 0.014194 0.082000 
0.012122 -0.046937 0.017387 
-0.010127 0.038197 0.003000 
-0.024496 -0.006610 0.000000 
-0.034771 0.024880 0.000000 
-0.044851 -0.039169 0.025617 
0.010539 0.056420 0.045160 
-0.018178 -0.021480 0.003000 
-0.014455 -0.010654 0.000000 
-0.073575 -0.015183 0.079706 
0.038524 0.023634 0.001576 
-0.058941 -0.017838 0.032084 
0.041276 0.030386 0.013867 
-0.012126 0.057421 0.048090 
-0.033851 0.050371 0.028818 
0.025058 -0.040818 0.003633 
0.031814 -0.045371 0.041810 
-0.057009 -0.019307 0.056214 
-0.016392 -0.050882 0.019749 
-0.033502 0.046765 0.048682 
-0.018319 0.072862 0.080282 
-0.035100 -0.041912 0.015087 
0.040827 0.013685 0.007525 
-0.056139 -0.014314 0.021627 
-0.038474 0.008920 0.003000 
0.045126 0.054275 0.064154 
-0.052401 0.053107 0.078147 
0.034633 -0.025462 0.002004 
0.015766 -0.049559 0.022559 
-0.023122 -0.069227 0.071264 
-0.002037 0.054236 0.038763 
0.032277 0.019484 0.003000 
-0.061572 -0.032943 0.058455 
0.027099 0.038579 0.002653 
0.005885 -0.055813 0.043380 
0.047848 0.057162 0.078716 
0.036158 0.053945 0.069373 
-0.059804 -0.000000 0.037947 
-0.065020 -0.002463 0.062612 
0.059224 0.014815 0.029294 
-0.042577 -0.044182 0.031222 
0.020956 0.064783 0.050768 
0.004036 -0.015646 0.000000 
0.034792 0.033544 0.020733 
-0.065998 -0.032963 0.082000 
-0.036458 0.052958 0.067623 
-0.052362 -0.000000 0.020324 
0.051145 0.004334 0.008419 
0.028804 -0.033411 0.009855 
-0.040916 0.035785 0.035888 
-0.054014 -0.030764 0.058166 
-0.070165 -0.016970 0.069132 
-0.032521 -0.052242 0.059527 
0.005877 -0.052721 0.011533 
0.070174 -0.003282 0.077195 
0.005804 0.068472 0.053089 
0.045748 0.053542 0.063286 
-0.032656 -0.004633 0.000000 
0.009711 -0.030832 0.000000 
-0.065401 0.008203 0.068906 
-0.057257 0.018532 0.056200 
-0.015139 -0.053610 0.017061 
0.058732 -0.038707 0.061265 
-0.012474 0.041819 0.000000 
0.053566 0.024637 0.051676 
-0.062411 -0.021185 0.044199 
-0.032888 0.029421 0.000000 
-0.024719 -0.064863 0.056749 
0.032674 0.055193 0.066489 
0.061911 0.035794 0.065755 
0.049476 -0.035326 0.049996 
0.008196 0.011927 0.003000 
-0.014559 -0.049734 0.025579 
-0.022385 0.025176 0.000000 
0.062032 0.030862 0.056670 
-0.002732 -0.041411 0.003000 
-0.038784 -0.046875 0.057608 
0.003241 0.063552 0.066046 
-0.005022 -0.030722 0.003000 
0.065561 -0.013961 0.074091 
0.038634 0.009840 0.003000 
0.050124 0.036525 0.051630 
-0.027461 -0.064176 0.058532 
0.044911 0.044379 0.037295 
-0.031639 -0.033098 0.014502 
-0.000557 0.011911 0.003000 
0.040770 0.009377 0.000000 
-0.016517 -0.051492 0.025777 
-0.036022 0.030999 0.016964 
-0.008791 0.067990 0.052814 
-0.045840 -0.034820 0.021321 
0.024962 0.068739 0.071900 
-0.065597 -0.035852 0.079643 
-0.061252 -0.000000 0.047916 
-0.019123 -0.057554 0.029220 
0.016136 -0.028941 0.000000 
-0.001910 -0.010906 0.003000 
0.042311 0.030962 0.012980 
0.014870 -0.046403 0.011250 
-0.028350 0.043885 0.009250 
-0.047673 0.049126 0.077326 
0.004612 -0.044532 0.000000 
0.003127 0.072759 0.082000 
0.073362 -0.000000 0.080861 
-0.019818 -0.015002 0.000000 
-0.029111 0.054829 0.059810 
0.007766 0.052151 0.032657 
-0.002026 -0.025229 0.003000 
0.033525 0.034052 0.019806 
0.067761 -0.011411 0.077834 
0.068994 -0.020504 0.066772 
-0.034673 0.035834 0.025746 
0.028132 -0.021149 0.003000 
0.007895 0.042183 0.003463 
-0.031967 -0.006154 0.000000 
-0.003946 -0.067829 0.078571 
0.047018 -0.034527 0.031166 
-0.020742 0.067551 0.077758 
0.010195 0.029254 0.000000 
-0.062046 -0.035879 0.066412 
-0.038692 -0.049124 0.035207 
-0.002807 0.063128 0.036383 
-0.017761 -0.055367 0.030574 
-0.043053 -0.041378 0.026121 
-0.061994 -0.006104 0.057923 
-0.047986 -0.035032 0.040534 
-0.014084 0.055780 0.043283 
-0.066401 -0.033108 0.076784 
-0.050981 0.022604 0.043047 
-0.023001 0.060173 0.040243 
0.013132 0.055763 0.019921 
-0.016250 0.041466 0.006773 
0.039973 -0.051040 0.042300 
0.003272 -0.037445 0.003000 
-0.002826 -0.014744 0.000000 
-0.063117 -0.019600 0.072697 
0.029001 -0.007428 0.000000 
-0.067156 -0.028188 0.070942 
-0.038333 0.034643 0.029048 
-0.032113 -0.047546 0.020552 
0.024040 -0.040633 0.017804 
0.043844 0.032597 0.033446 
0.062097 -0.006742 0.058197 
-0.004872 -0.043751 0.000000 
0.043493 0.000366 0.000000 
-0.056222 -0.040973 0.068960 
0.028240 -0.067837 0.073615 
-0.015092 -0.046682 0.011164 
0.061672 -0.000000 0.043672 
-0.066911 0.026987 0.067751 
0.049439 0.019603 0.011825 
-0.012432 -0.064230 0.068031 
-0.027745 -0.038068 0.019112 
0.035784 0.016048 0.003000 
0.013477 0.042250 0.001881 
0.039848 -0.051477 0.069534 
0.040855 0.061422 0.076009 
0.015342 -0.000747 0.000000 
-0.020236 0.061055 0.057220 
-0.052255 0.037760 0.045426 
0.051502 0.004635 0.008987 
0.013430 -0.050491 0.027794 
0.057045 -0.033964 0.068614 
-0.043949 0.007773 0.000000 
0.007613 -0.070202 0.082000 
0.042307 -0.045819 0.060496 
-0.038627 0.008975 0.000000 
-0.061017 0.002717 0.030050 
0.066713 0.011566 0.051076 
0.066667 0.020219 0.082000 
0.036885 0.046521 0.025206 
0.024062 -0.064994 0.056153 
-0.044053 0.036010 0.041553 
-0.007992 -0.024854 0.000000 
-0.036679 0.030752 0.003817 
-0.065999 -0.015441 0.076754 
0.043750 -0.037119 0.020615 
0.047278 0.033874 0.022586 
-0.000753 -0.057666 0.048808 
-0.070950 -0.019169 0.074244 
-0.043213 -0.024701 0.024221 
-0.023222 -0.060007 0.040051 
-0.064822 0.035466 0.082000 
-0.018883 0.058582 0.041004 
0.051587 -0.039937 0.043415 
-0.040785 -0.027239 0.019966 
0.025923 -0.067541 0.069169 
-0.048591 0.019468 0.009972 
-0.022954 -0.068919 0.081279 
-0.055291 -0.050003 0.077717 
0.044049 0.051835 0.053740 
0.001731 0.020734 0.003000 
0.074132 0.002855 0.078155 
0.019581 0.061092 0.051658 
0.051756 0.044792 0.074177 
0.020125 0.054971 0.044661 
0.033677 0.007128 0.000000 
0.011107 0.062244 0.035903 
0.013173 -0.053344 0.036151 
-0.045901 0.012739 0.020463 
-0.040393 -0.029581 0.017705 
-0.023052 0.038961 0.002195 
0.001614 -0.051538 0.008509 
0.022690 -0.066424 0.059475 
0.035852 0.043401 0.018118 
-0.036831 0.044583 0.021981 
0.068915 0.029787 0.079938 
-0.055595 0.012247 0.018892 
0.071202 0.005336 0.081839 
-0.048651 -0.022602 0.036854 
0.044804 -0.001568 0.006327 
0.048714 -0.035118 0.032668 
0.063227 -0.000000 0.051735 
0.018751 0.068748 0.063820 
0.038542 0.045171 0.053333 
-0.045998 -0.024142 0.031137 
-0.009591 -0.072373 0.082000 
0.059365 -0.037218 0.077852 
0.027874 0.062096 0.051156 
-0.018991 0.058952 0.042515 
-0.042972 -0.037492 0.020141 
0.014558 -0.044948 0.002879 
0.028517 0.038361 0.021143 
-0.053851 -0.039475 0.047346 
-0.044451 -0.047068 0.042648 
0.016152 -0.049997 0.018651 
0.002642 0.052429 0.033471 
-0.041116 -0.014143 0.000000 
0.007650 0.042755 0.000000 
-0.058806 -0.018571 0.060349 
0.049378 0.035823 0.039207 
-0.037843 0.046655 0.055561 
0.054786 -0.045749 0.081315 
0.072130 -0.018827 0.077652 
-0.071739 0.016959 0.074052 
-0.012496 -0.046267 0.015425 
0.048518 0.006956 0.021926 
-0.008291 0.017136 0.000000 
-0.000495 -0.068200 0.051884 
-0.024560 -0.016084 0.000000 
0.049924 0.007149 0.025959 
-0.033381 0.029274 0.008702 
0.049054 -0.040045 0.058686 
0.057971 0.040120 0.061913 
0.017727 -0.053081 0.017820 
-0.049649 0.055530 0.082000 
-0.032474 0.034466 0.002940 
-0.057689 0.014152 0.024946 
-0.043308 0.012461 0.000390 
0.029165 -0.065853 0.067367 
0.002841 0.049627 0.006375 
0.061155 0.015557 0.063984 
0.012227 -0.064091 0.043044 
0.037538 -0.064315 0.082000 
-0.006432 -0.072089 0.069108 
-0.034746 -0.059028 0.052878 
-0.039990 0.009951 0.001566 
-0.023172 -0.054769 0.049539 
-0.041433 0.013010 0.008519 
0.013224 0.056565 0.045582 
0.044961 0.019889 0.024701 
-0.017800 0.055138 0.032150 
0.044639 0.050502 0.075473 
0.056726 -0.000886 0.038305 
-0.048372 -0.000000 0.005019 
-0.027078 0.043535 0.030530 
-0.045462 0.019792 0.025950 
0.066849 0.006924 0.047603 
0.007694 -0.038401 0.003000 
-0.040393 0.034882 0.012167 
0.071218 0.003405 0.080210 
0.020644 0.067833 0.062183 
-0.051160 -0.022221 0.017277 
0.063791 -0.007123 0.038911 
-0.061078 0.005360 0.054688 
0.037201 0.003231 0.003000 
0.066912 0.028694 0.070734 
0.027038 0.058907 0.040991 
0.014396 0.040941 0.002314 
0.004304 -0.023943 0.003000 
0.039756 -0.021340 0.011560 
-0.041327 0.005817 0.001150 
-0.008604 -0.044384 0.009911 
-0.004654 0.015176 0.000000 
-0.000895 -0.016142 0.000000 
0.008863 0.048592 0.022234 
0.052631 -0.046428 0.062003 
-0.039787 0.017335 0.008275 
0.018895 -0.040226 0.008229 
0.038673 0.042116 0.020492 
0.038010 -0.045292 0.024597 
-0.003986 0.052360 0.010060 
-0.043787 0.038423 0.046604 
-0.057478 -0.003543 0.021641 
0.058952 -0.042898 0.072237 
-0.030202 -0.033132 0.012060 
-0.058683 -0.017767 0.031162 
-0.054590 -0.032101 0.036832 
0.043888 0.029046 0.029775 
0.056526 0.014651 0.022735 
-0.014828 0.025785 0.000000 
-0.051830 -0.048131 0.063817 
-0.038900 -0.019288 0.000000 
-0.003452 0.012118 0.000000 
-0.059653 -0.009189 0.054485 
0.004045 0.058115 0.022994 
0.031490 -0.057301 0.069038 
0.030403 -0.027978 0.000524 
-0.048628 -0.026168 0.015523 
0.019479 -0.070068 0.071376 
0.029877 -0.004531 0.000000 
-0.035954 0.060621 0.061459 
-0.057871 -0.008705 0.023297 
-0.069293 -0.014093 0.063006 
0.018819 -0.066100 0.054356 
-0.003452 0.032778 0.003000 
-0.056675 -0.031448 0.041398 
0.044065 0.026825 0.008468 
0.054444 -0.033730 0.061439 
0.051380 -0.015794 0.012786 
-0.013219 -0.006836 0.000000 
-0.039020 -0.060202 0.067270 
0.019877 -0.056182 0.046906 
0.020917 -0.044590 0.021670 
0.039722 -0.059379 0.066000 
-0.012899 0.043220 0.000738 
0.000513 -0.020373 0.000000 
0.013737 -0.035285 0.003000 
-0.054012 -0.028659 0.056339 
-0.043026 -0.047850 0.041101 
-0.058192 -0.026526 0.038201 
0.060628 -0.006892 0.029537 
-0.030485 0.044922 0.013265 
-0.047110 0.025237 0.035040 
-0.048421 -0.038760 0.054982 
0.008396 0.051467 0.030652 
-0.042128 0.028005 0.006968 
0.039119 -0.018423 0.003000 
0.000881 -0.031389 0.003000 
0.031244 -0.009479 0.000000 
0.063574 0.023186 0.077013 
0.009398 0.054173 0.038577 
-0.007046 0.054107 0.038385 
-0.006073 -0.046656 0.016564 
0.018466 0.056509 0.042961 
-0.023542 0.013781 0.003000 
-0.004817 0.065756 0.072500 
0.021605 0.066122 0.061190 
-0.050332 -0.036690 0.052535 
-0.056992 0.041416 0.071557 
0.034874 0.066734 0.081813 
0.030914 0.052557 0.057603 
0.021225 -0.045871 0.025170 
0.018736 0.051858 0.016121 
-0.063498 0.025159 0.052050 
-0.045618 -0.000000 0.004424 
0.061015 -0.011426 0.059410 
-0.051579 0.021401 0.043596 
-0.021664 -0.067160 0.061294 
0.055332 0.026358 0.057857 
0.051439 0.047532 0.061258 
-0.051416 -0.032836 0.029854 
-0.046659 -0.034089 0.037695 
0.050999 -0.028467 0.023112 
0.006590 0.020615 0.003000 
0.070655 -0.004686 0.079761 
-0.023111 0.038565 0.003000 
0.016246 0.058991 0.029971 
-0.060426 -0.000000 0.037579 
-0.044405 0.059939 0.079675 
-0.022021 -0.067977 0.073969 
0.011092 0.042866 0.005466 
0.015918 0.073494 0.080064 
0.049919 -0.045285 0.051528 
0.039477 -0.011937 0.002018 
0.049322 0.006731 0.006174 
0.036094 -0.056342 0.074547 
-0.035374 0.018320 0.000000 
0.000136 0.054295 0.038936 
0.036420 -0.033274 0.022395 
0.005799 -0.053414 0.013004 
-0.055685 0.047250 0.071522 
0.029835 0.067181 0.073325 
0.069077 0.030261 0.081235 
-0.000100 0.020885 0.000000 
-0.053827 0.009184 0.014438 
0.027353 0.045981 0.011604 
-0.064512 0.007797 0.041055 
-0.059293 -0.016854 0.060160 
0.058811 -0.010631 0.025879 
0.018304 0.008110 0.000000 
0.011818 -0.067280 0.076962 
0.046671 -0.058660 0.080488 
-0.043022 0.028413 0.026925 
0.057213 0.021828 0.058935 
-0.063668 0.002899 0.059345 
0.062967 -0.022903 0.074959 
-0.043971 0.032074 0.028426 
-0.017802 -0.040672 0.000000 
0.003044 -0.060592 0.028775 
0.050534 0.030579 0.024737 
-0.055184 -0.000676 0.015578 
-0.044943 -0.013904 0.018991 
-0.037325 -0.060262 0.063443 
-0.021175 0.049330 0.012833 
-0.060585 -0.003220 0.028756 
0.032102 0.025841 0.003000 
0.030772 -0.066863 0.073936 
-0.015000 0.058970 0.029084 
-0.063143 0.006560 0.061484 
0.053092 0.023285 0.021942 
-0.040079 -0.019181 0.000000 
-0.020321 0.045379 0.022923 
0.027533 0.034303 0.010075 
0.036271 0.041279 0.040752 
0.062602 -0.005913 0.034806 
0.018612 0.069259 0.065657 
-0.014126 -0.066467 0.052818 
-0.040861 -0.030176 0.011384 
0.024787 -0.061003 0.044566 
-0.048441 0.044478 0.068018 
0.026425 -0.070364 0.080658 
0.024590 -0.013485 0.003000 
0.020761 0.032153 0.003000 
0.031223 -0.056044 0.039416 
-0.042138 -0.030949 0.013682 
-0.048975 0.049534 0.080395 
0.067929 -0.012530 0.056456 
0.052332 -0.033631 0.055844 
0.048500 -0.011128 0.024938 
0.011273 -0.042856 0.000000 
-0.018748 0.017732 0.003000 
0.043663 0.010993 0.000073 
0.014588 0.050415 0.009807 
-0.029994 -0.066533 0.071180 
-0.018119 0.055092 0.039513 
0.029714 -0.045010 0.012507 
-0.012321 -0.054364 0.016305 
-0.040135 0.003557 0.003000 
0.039539 0.021653 0.001793 
0.042139 0.030971 0.022222 
0.012966 0.052471 0.033593 
-0.048321 -0.002273 0.016781 
-0.044369 0.047305 0.043018 
0.028345 0.064957 0.081586 
-0.071169 0.003759 0.080387 
-0.047100 0.037748 0.027796 
-0.038978 0.038542 0.038975 
0.015292 -0.012119 0.003000 
-0.040368 -0.043377 0.025061 
-0.056487 0.040670 0.060938 
-0.061751 -0.001395 0.032253 
-0.042762 -0.006326 0.000000 
-0.039772 0.028920 0.006173 
-0.067118 -0.000000 0.054223 
0.015305 -0.062295 0.040298 
0.043802 -0.001874 0.003859 
0.034911 -0.015896 0.003000 
-0.019762 0.067597 0.061296 
0.012681 -0.051090 0.029550 
0.062669 0.013046 0.065835 
0.047153 -0.016134 0.025946 
-0.016946 -0.057013 0.025571 
-0.009541 0.049292 0.024283 
-0.040825 -0.039346 0.019536 
-0.021409 -0.041476 0.015846 
-0.036186 0.038954 0.035326 
0.045522 0.037880 0.025005 
-0.054242 -0.039242 0.048849 
-0.018711 0.072045 0.082000 
0.047363 0.012390 0.024117 
-0.063585 -0.020183 0.074444 
0.029468 -0.005406 0.000000 
-0.014997 -0.049180 0.023957 
0.024215 0.037511 0.000000 
0.032980 0.037598 0.026975 
0.022583 0.070799 0.076596 
-0.036028 0.049858 0.059864 
0.052019 0.001344 0.025975 
0.020021 -0.022178 0.000000 
0.012688 0.042132 0.003315 
-0.004854 0.050982 0.008313 
-0.008645 0.041798 0.002337 
0.063018 -0.040503 0.082000 
0.046818 -0.030798 0.038825 
0.045399 0.047775 0.070519 
-0.065200 0.003366 0.042601 
0.038866 0.028645 0.012506 
-0.056887 -0.042472 0.064514 
0.034446 -0.025994 0.002953 
-0.052275 -0.000506 0.025849 
-0.019991 -0.053493 0.041023 
-0.002733 0.054590 0.039800 
0.003568 -0.063595 0.066171 
-0.021215 0.052909 0.041825 
0.037335 -0.005996 0.003000 
0.027293 -0.045834 0.011234 
0.051603 -0.052632 0.074858 
-0.019074 0.071881 0.077513 
0.021784 -0.055350 0.025526 
0.045026 0.056303 0.070054 
0.021325 0.065725 0.072408 
0.064409 0.015435 0.046344 
0.055098 0.006950 0.039906 
-0.030081 0.045439 0.040047 
-0.049569 0.046168 0.052903 
0.037357 -0.016873 0.000000 
-0.018545 0.067776 0.061320 
-0.028857 0.054130 0.030938 
-0.031477 0.011641 0.003000 
0.061262 -0.021758 0.069279 
-0.027827 -0.032463 0.006353 
0.005973 -0.043428 0.007112 
-0.010908 0.022635 0.003000 
0.064647 0.026014 0.082000 
-0.017276 -0.066470 0.074592 
-0.018618 -0.035571 0.000000 
0.043056 -0.013722 0.000267 
-0.006986 0.010182 0.003000 
0.021072 0.056925 0.028846 
-0.001122 -0.049679 0.025416 
0.061439 0.040391 0.082000 
-0.063835 -0.000289 0.057234 
0.032466 -0.054808 0.064876 
-0.016739 -0.052423 0.029406 
0.069115 -0.027037 0.076517 
-0.037783 -0.046000 0.025685 
-0.031709 0.054226 0.062704 
-0.035395 -0.052961 0.037862 
0.054816 0.025726 0.055938 
-0.065549 -0.020163 0.079644 
0.029333 0.062877 0.056829 
-0.042243 0.036633 0.039996 
-0.032397 -0.051085 0.056691 
-0.030001 0.039136 0.025529 
0.016134 0.049672 0.025461 
-0.019633 -0.059934 0.051086 
0.064160 0.026434 0.056873 
-0.017123 -0.021039 0.003000 
0.005468 -0.054220 0.014717 
-0.005451 0.061137 0.058974 
-0.024216 0.059621 0.040078 
-0.063624 -0.008087 0.064084 
-0.023263 0.057848 0.033807 
-0.058195 0.037446 0.056340 
-0.000205 -0.056609 0.045713 
0.042405 -0.053123 0.077664 
0.055928 0.004993 0.018348 
-0.044614 -0.053966 0.082000 
-0.023061 -0.065168 0.055148 
-0.063193 0.017465 0.071051 
-0.045029 0.059992 0.081175 
0.037610 0.005009 0.000000 
-0.071550 0.005218 0.082000 
0.045928 -0.033690 0.019387 
0.053663 -0.024314 0.050784 
-0.005444 0.062320 0.062436 
-0.055954 0.003568 0.038919 
-0.056596 0.047557 0.075479 
-0.057586 -0.000888 0.040741 
0.055519 0.035420 0.066193 
-0.006431 0.026885 0.000000 
0.040325 -0.005515 0.000000 
-0.042270 0.004110 0.003000 
-0.009704 0.060197 0.029441 
-0.067758 -0.027597 0.072395 
0.072359 0.006829 0.070306 
0.034267 0.039685 0.009952 
0.037973 0.024369 0.001413 
0.062834 0.012664 0.065945 
0.028709 -0.033185 0.000000 
0.070970 0.004482 0.064151 
0.014951 -0.040942 0.000000 
-0.070096 0.012054 0.063804 
-0.016836 0.060336 0.035556 
0.067673 -0.004137 0.050019 
-0.074371 -0.003080 0.079216 
-0.007102 -0.045156 0.012172 
-0.013232 0.070452 0.066307 
0.053467 -0.038731 0.058795 
0.047946 -0.016528 0.007637 
-0.051922 0.045083 0.056179 
-0.033385 -0.066678 0.078587 
-0.032219 0.026562 0.000472 
0.000582 -0.005406 0.003000 
-0.025148 0.024289 0.003000 
0.003207 0.041215 0.000000 
0.032226 0.023314 0.003000 
-0.049984 -0.047797 0.058186 
-0.072447 -0.011614 0.072857 
0.050151 0.029667 0.046952 
0.028036 0.053218 0.027108 
0.012095 0.015309 0.003000 
-0.026048 0.061070 0.068971 
0.043454 0.005562 0.003000 
0.047926 -0.032154 0.021370 
0.044845 -0.025607 0.028817 
-0.030327 0.051347 0.053889 
-0.018585 0.057737 0.040950 
-0.058395 0.013760 0.055096 
0.034070 -0.035601 0.023582 
0.068402 -0.003693 0.072719 
0.051689 -0.046610 0.078113 
-0.063360 0.026455 0.053608 
0.024913 0.054396 0.051734 
0.021304 0.066316 0.068092 
-0.049025 0.043082 0.044309 
-0.011341 -0.043654 0.007774 
0.015536 -0.031228 0.003000 
0.034500 0.024460 0.000000 
-0.022186 -0.009177 0.003000 
-0.001257 -0.068130 0.079452 
-0.022178 0.034785 0.000000 
0.058598 0.021900 0.034103 
-0.023526 0.041286 0.019121 
0.014289 0.027541 0.000000 
-0.001443 0.068868 0.081615 
0.048352 0.035387 0.033699 
0.063649 0.006268 0.037947 
-0.026791 -0.051123 0.021932 
0.059535 0.039323 0.080239 
0.033700 0.057106 0.072526 
-0.019946 -0.067082 0.059216 
-0.007244 0.029416 0.003000 
0.054816 0.027305 0.057303 
-0.054160 -0.052119 0.082000 
-0.072699 -0.015868 0.077158 
0.039258 -0.055752 0.078493 
0.050994 0.014424 0.036006 
-0.017449 -0.012016 0.000000 
0.000622 -0.030998 0.000000 
0.053077 -0.010274 0.036687 
0.041238 0.030271 0.020167 
0.057276 -0.041468 0.069688 
0.058872 -0.031264 0.071207 
-0.057738 -0.026064 0.063997 
0.021712 0.049915 0.035806 
-0.036858 0.024445 0.007114 
0.005650 -0.052863 0.011834 
0.036031 -0.054010 0.069013 
0.028370 0.037877 0.019769 
0.056667 0.033562 0.044374 
-0.012384 0.062045 0.061633 
-0.065503 0.033327 0.073893 
0.055764 -0.040959 0.056342 
-0.034885 0.049530 0.057242 
0.009694 0.071997 0.069855 
-0.058789 0.002798 0.024058 
0.068309 0.008028 0.053563 
0.027647 -0.042894 0.007747 
0.062438 -0.024843 0.075240 
-0.056871 0.035323 0.069702 
-0.017221 -0.051784 0.032230 
0.016091 -0.051267 0.030067 
0.020279 -0.063214 0.050580 
-0.056298 -0.049683 0.080064 
-0.054152 -0.000013 0.030495 
-0.036498 -0.007199 0.003000 
0.034771 0.060473 0.058199 
0.055067 -0.000778 0.033675 
-0.005530 0.013651 0.000000 
-0.055195 -0.004299 0.016790 
-0.050566 -0.013703 0.034164 
-0.044081 -0.014531 0.017254 
-0.058035 0.004823 0.045843 
0.025043 -0.014232 0.003000 
0.042354 0.049785 0.044132 
0.014986 0.042507 0.002130 
-0.041775 0.022384 0.003084 
0.006402 -0.018550 0.003000 
0.038102 0.063772 0.077853 
0.050843 0.041828 0.065938 
-0.002261 -0.066792 0.075534 
-0.012220 -0.000278 0.000000 
0.016067 0.047410 0.020137 
-0.045936 -0.028019 0.034327 
-0.033646 -0.029504 0.003000 
0.070302 0.009006 0.063235 
0.047134 -0.018066 0.007386 
0.044444 -0.000000 0.003355 
-0.043654 -0.001230 0.002999 
-0.067964 0.009394 0.053343 
-0.016764 0.059634 0.033182 
0.043723 0.021073 0.004819 
-0.041161 -0.030155 0.010877 
0.017944 0.063578 0.066121 
0.005333 -0.032609 0.003000 
-0.003812 0.000943 0.000000 
0.036376 -0.013830 0.000000 
-0.022826 -0.039070 0.002485 
0.061024 -0.000000 0.041865 
-0.042278 -0.018335 0.001722 
-0.068619 0.017354 0.062590 
0.060095 -0.045024 0.081478 
0.019716 -0.040007 0.000000 
0.008043 -0.059450 0.026452 
-0.014100 -0.018489 0.000000 
-0.054517 -0.003683 0.015176 
0.016779 -0.059878 0.055286 
0.040016 -0.052915 0.046486 
0.013925 0.043607 0.007427 
-0.027125 -0.060285 0.044981 
-0.022834 -0.060743 0.041594 
0.058957 0.045643 0.079379 
-0.048446 -0.007074 0.004923 
0.063844 0.001357 0.038532 
-0.053611 0.051704 0.077647 
-0.025735 0.042884 0.026675 
0.036128 0.036332 0.029266 
0.067037 0.029232 0.082000 
0.040489 -0.029716 0.008630 
0.010157 0.057704 0.023028 
-0.027253 -0.058494 0.040046 
-0.057238 -0.000000 0.032263 
-0.066887 -0.021479 0.059319 
0.032386 0.055892 0.040610 
-0.044265 -0.032162 0.019288 
-0.057486 0.042985 0.079480 
0.016851 -0.072947 0.079071 
0.012543 0.058118 0.050132 
-0.019247 0.059498 0.038418 
-0.039721 -0.009652 0.000000 
0.024380 -0.006591 0.003000 
-0.032530 0.055390 0.066702 
0.015135 -0.047610 0.017451 
-0.049356 -0.049873 0.061923 
0.036814 0.043535 0.046775 
0.051410 0.052581 0.082000 
-0.037461 0.045048 0.051280 
0.047575 0.009891 0.004468 
-0.017668 -0.054962 0.029489 
0.041268 -0.001405 0.000000 
-0.020649 0.047558 0.028514 
-0.058184 -0.009752 0.051070 
-0.051877 0.037810 0.056148 
0.043285 0.050460 0.047987 
0.036872 0.064143 0.076494 
0.057990 -0.006871 0.047086 
0.050985 0.037190 0.049901 
0.058181 0.010701 0.051883 
0.072021 -0.021074 0.079834 
0.043582 -0.003644 0.000000 
-0.049460 -0.054667 0.082000 
-0.016515 -0.051465 0.017569 
-0.029106 -0.000017 0.003000 
-0.041639 0.003289 0.000000 
-0.018312 -0.040875 0.001222 
0.030831 -0.041392 0.008384 
-0.016108 0.049136 0.011248 
-0.064804 0.004199 0.041411 
-0.006624 -0.049021 0.023490 
0.055122 -0.000000 0.023233 
-0.044816 -0.032731 0.024424 
-0.021765 -0.050296 0.015204 
0.003004 -0.051060 0.029461 
0.046645 0.036072 0.045951 
0.051601 0.052221 0.073792 
0.030265 -0.005410 0.003000 
0.065922 0.017797 0.078589 
0.063832 0.001397 0.058314 
0.039133 -0.021630 0.000000 
0.039972 0.038734 0.017271 
-0.030476 0.044609 0.038808 
0.054834 0.005317 0.037579 
0.026017 0.062438 0.049883 
-0.042650 -0.034664 0.015634 
-0.000850 -0.047183 0.002729 
-0.014013 -0.043725 0.004450 
0.031128 -0.010868 0.000000 
0.015265 0.048477 0.021896 
0.002653 -0.008667 0.003000 
0.062893 0.004093 0.035679 
0.030437 0.005550 0.003000 
-0.063738 0.032421 0.082000 
-0.010588 -0.066023 0.047864 
0.037148 0.020962 0.004630 
0.035082 0.030914 0.001996 
0.052769 0.032957 0.033493 
0.043052 0.039538 0.047933 
-0.043272 0.054050 0.058197 
0.020564 -0.048428 0.030011 
0.018709 0.047570 0.008273 
-0.041394 0.059190 0.069313 
-0.003998 0.018614 0.003000 
0.046079 -0.033920 0.037005 
-0.042421 -0.050672 0.072216 
0.020045 0.050295 0.033754 
-0.001710 0.007192 0.003000 
-0.015489 0.047870 0.007640 
-0.026124 0.034212 0.007394 
0.004329 0.013553 0.003000 
0.005222 0.011849 0.000000 
0.053191 0.040477 0.066722 
0.043216 -0.058786 0.072289 
-0.033916 0.038471 0.030499 
-0.060871 0.036067 0.080974 
-0.029102 0.028151 0.000000 
-0.042525 -0.053059 0.052810 
0.041610 0.008119 0.000000 
0.067889 0.003036 0.071017 
0.053660 0.017809 0.046019 
0.016813 -0.052116 0.015062 
-0.048413 -0.028536 0.041357 
0.016365 -0.016962 0.003000 
0.006172 0.059058 0.052884 
0.043491 0.011543 0.002680 
0.015160 0.052489 0.033645 
-0.029564 -0.018265 0.003000 
-0.057687 -0.041548 0.067512 
0.018051 0.055184 0.041033 
-0.030120 -0.032416 0.003000 
0.011417 0.008205 0.000000 
0.070336 -0.010685 0.063256 
-0.011941 -0.031548 0.003000 
-0.012938 0.014067 0.000000 
0.023469 -0.012457 0.000000 
-0.040146 0.047433 0.061113 
0.034198 -0.025619 0.001705 
0.034429 -0.035374 0.005803 
-0.018182 0.054571 0.021287 
0.067643 0.012073 0.078210 
0.013664 0.042533 0.001533 
-0.014137 0.061723 0.060689 
-0.012973 0.014724 0.003000 
-0.044621 0.056346 0.069310 
0.034598 0.052414 0.063328 
-0.038297 0.002364 0.000000 
-0.009132 0.005782 0.000000 
0.058204 0.035694 0.073565 
0.034956 -0.030300 0.013343 
-0.002454 -0.061193 0.059137 
-0.017455 0.053745 0.024548 
0.014860 0.049408 0.024622 
-0.031370 -0.027366 0.000833 
-0.004215 0.031340 0.000000 
0.033270 0.051196 0.030087 
0.003312 0.027972 0.000000 
0.037692 -0.041711 0.043213 
-0.060232 -0.003785 0.050825 
0.049900 -0.023016 0.015350 
0.003154 -0.044733 0.000000 
0.005161 0.042440 0.004217 
-0.020944 0.048655 0.031557 
-0.000987 0.053371 0.036231 
-0.023476 -0.066115 0.059587 
0.051691 -0.036676 0.036858 
0.062766 0.026713 0.077916 
0.044861 -0.033250 0.036577 
0.052669 -0.018814 0.017665 
-0.018624 0.057316 0.042129 
-0.021152 0.065880 0.061342 
0.001064 0.028928 0.000000 
0.017991 -0.055813 0.040927 
-0.062044 0.006226 0.058179 
-0.058668 0.031095 0.045961 
-0.051297 0.007500 0.030059 
-0.015084 0.058739 0.028418 
0.058080 0.046998 0.079654 
-0.028842 0.053390 0.028897 
-0.070294 0.007006 0.080872 
0.007859 0.036799 0.003000 
-0.034996 -0.023242 0.000994 
0.018755 0.068842 0.064176 
0.061702 0.012758 0.035962 
0.054299 -0.029754 0.032494 
-0.017107 0.052861 0.024818 
-0.027316 -0.015787 0.000000 
0.005103 0.022169 0.000000 
-0.045669 -0.041472 0.032137 
0.015247 -0.066936 0.075956 
0.024488 -0.068273 0.069812 
-0.027094 0.068529 0.074615 
-0.066494 0.024223 0.061811 
-0.038281 0.014551 0.000000 
-0.051726 -0.004579 0.028358 
-0.038548 0.042876 0.048125 
0.013731 0.057128 0.023389 
-0.050973 0.040005 0.062003 
0.073207 0.006255 0.074058 
-0.039858 0.024685 0.015291 
0.060459 0.003699 0.028376 
-0.012480 0.044717 0.010887 
-0.050540 -0.000000 0.006941 
-0.067105 -0.013066 0.077639 
0.028518 -0.011811 0.000000 
0.023082 -0.009474 0.003000 
0.067126 -0.008902 0.073867 
0.060266 0.030978 0.074963 
-0.049686 -0.042729 0.045316 
-0.047604 -0.034663 0.040393 
-0.043848 0.009760 0.002100 
0.062061 0.007927 0.059792 
-0.004634 0.006158 0.000000 
-0.031474 -0.058843 0.046990 
-0.020795 0.064021 0.067419 
-0.051966 0.052969 0.076666 
-0.028934 0.063964 0.059867 
0.034310 0.035801 0.025074 
0.067891 -0.000000 0.057328 
-0.064856 0.018854 0.076671 
-0.065498 -0.000000 0.043817 
-0.004822 0.067229 0.048688 
0.012928 0.044329 0.009749 
0.032378 0.063816 0.082000 
0.018544 0.061362 0.059631 
0.053127 -0.050016 0.082000 
0.019010 -0.059377 0.047388 
0.032092 -0.057334 0.044015 
0.069006 0.021610 0.068416 
0.065640 0.019605 0.052877 
-0.015715 0.063774 0.045262 
-0.045257 0.019506 0.005894 
0.050401 0.042965 0.047435 
-0.040229 0.033385 0.029301 
0.053154 -0.001034 0.028673 
0.059263 -0.037003 0.059100 
-0.069306 -0.000675 0.072566 
-0.039763 -0.015360 0.006268 
-0.055214 0.002727 0.015671 
-0.025188 -0.006879 0.000000 
-0.014699 0.023046 0.003000 
0.006826 -0.003997 0.000000 
0.024012 0.047352 0.011101 
-0.021024 0.058805 0.034242 
-0.001157 0.053061 0.035321 
-0.058185 0.042475 0.079467 
-0.032603 0.067000 0.077943 
-0.027709 -0.037009 0.001533 
-0.003512 -0.062646 0.063392 
-0.027359 0.059590 0.043378 
-0.035098 -0.050697 0.031531 
0.065962 -0.015461 0.051639 
0.040382 0.037059 0.037908 
0.016502 0.065492 0.071728 
0.043981 -0.048031 0.043830 
0.010965 0.044346 0.009800 
0.020303 0.063473 0.054989 
0.022901 -0.042981 0.004807 
-0.031394 0.052003 0.029238 
0.013910 -0.058168 0.025827 
-0.034123 -0.036875 0.027210 
0.029095 -0.034604 0.000004 
-0.037340 -0.049589 0.033390 
-0.021293 0.066212 0.059848 
-0.044863 -0.016840 0.021662 
0.021824 0.066627 0.072360 
0.015661 -0.054156 0.018335 
0.055905 -0.031804 0.063578 
0.034383 -0.047733 0.023747 
0.047966 -0.035238 0.043672 
0.063397 0.038912 0.078443 
-0.016541 -0.051378 0.016007 
-0.072415 0.011387 0.082000 
-0.050164 0.022455 0.040748 
-0.046342 -0.052968 0.062835 
0.039724 -0.011917 0.000000 
0.017266 -0.053088 0.031510 
0.028474 0.005236 0.003000 
0.003568 0.042363 0.000000 
-0.006735 0.024593 0.003000 
0.064500 -0.010754 0.068336 
-0.025234 -0.034315 0.000000 
0.050650 -0.035285 0.053015 
-0.041416 0.045617 0.031879 
-0.068953 -0.001596 0.055221 
0.053708 0.002719 0.031943 
-0.065206 -0.000000 0.058837 
0.036686 0.018790 0.001231 
-0.016651 -0.033798 0.000000 
0.027213 -0.033428 0.007209 
0.049935 -0.047011 0.056027 
-0.009315 -0.031969 0.000000 
0.018975 0.058729 0.039875 
-0.017170 0.052820 0.022312 
-0.062137 -0.024311 0.074168 
-0.026624 0.004412 0.003000 
-0.058153 -0.033671 0.048332 
-0.041810 -0.030492 0.011235 
0.008609 -0.065139 0.070694 
-0.039494 -0.060862 0.082000 
-0.021637 -0.029187 0.003000 
-0.059293 -0.014280 0.029357 
-0.014822 0.031562 0.000000 
0.041640 -0.045895 0.059551 
0.021312 -0.024415 0.000000 
0.053293 -0.044705 0.060289 
-0.004500 0.039062 0.000000 
-0.022385 0.069630 0.076395 
-0.042383 0.005235 0.003465 
0.034876 -0.022085 0.000000 
-0.048226 -0.034503 0.025198 
0.055514 0.009630 0.043680 
-0.034557 0.032530 0.018040 
-0.056879 0.010165 0.021633 
0.023810 -0.045521 0.008348 
-0.038031 0.050092 0.035442 
-0.028776 0.059682 0.045853 
-0.033620 0.025674 0.000887 
0.029417 0.006142 0.003000 
0.036186 0.057133 0.076669 
-0.040385 0.004777 0.000000 
-0.021572 -0.065115 0.069276 
0.031049 -0.045881 0.015891 
0.056859 -0.009422 0.021364 
0.023221 0.032815 0.000000 
0.053197 0.048683 0.068772 
-0.038324 0.036838 0.011795 
0.046731 0.034121 0.034952 
0.045712 0.003092 0.010455 
0.068385 0.016516 0.062225 
0.006113 -0.053588 0.013410 
0.042000 -0.006543 0.000000 
-0.000267 -0.063288 0.036864 
0.010832 0.065784 0.072582 
-0.045603 0.022484 0.028653 
-0.062082 -0.039024 0.074003 
0.061563 0.016386 0.065788 
-0.049144 -0.043650 0.045836 
0.009384 0.065728 0.045760 
0.061289 0.000092 0.030868 
-0.057181 -0.047482 0.077985 
-0.013411 0.015676 0.000000 
-0.072964 0.013026 0.082000 
0.044159 0.045212 0.037492 
-0.038729 -0.050903 0.066679 
-0.029327 -0.008229 0.003000 
0.013779 0.062887 0.040436 
0.043007 -0.044746 0.033607 
-0.042372 -0.015256 0.002496 
0.039731 -0.007301 0.000000 
0.046148 -0.051005 0.079028 
-0.048090 -0.028183 0.016880 
-0.009477 0.063621 0.066248 
-0.030263 0.015709 0.000000 
-0.038144 0.055930 0.077151 
0.055013 -0.012387 0.043859 
-0.016278 -0.055448 0.021775 
0.019834 -0.060143 0.055870 
0.047863 -0.058157 0.081706 
0.065423 0.030528 0.068316 
-0.007368 -0.041978 0.000000 
-0.048484 -0.003298 0.004466 
0.046210 0.032496 0.018313 
0.000309 -0.053084 0.010329 
0.004322 -0.071733 0.067531 
0.012002 -0.055981 0.019669 
-0.041020 -0.032022 0.027500 
-0.064453 -0.013970 0.045905 
-0.009434 -0.071627 0.069393 
-0.026410 0.059124 0.040783 
-0.054255 0.019559 0.049113 
-0.014503 -0.070500 0.068147 
-0.014039 -0.027396 0.003000 
0.051087 0.044581 0.053070 
-0.050224 0.038847 0.038064 
0.013090 0.047507 0.005311 
0.051315 0.003540 0.026212 
-0.010098 -0.046683 0.016644 
-0.058812 -0.009157 0.025434 
0.033294 -0.034391 0.003686 
-0.002270 0.009461 0.003000 
0.021142 0.043196 0.004211 
0.072623 -0.000000 0.076200 
-0.034735 0.027569 0.000000 
-0.020830 -0.064134 0.050265 
-0.050625 0.046637 0.076516 
0.059276 0.044700 0.078311 
0.020329 0.046972 0.008396 
-0.039843 0.057574 0.059832 
0.012792 -0.061638 0.060440 
0.070895 -0.001983 0.063818 
0.046762 0.033015 0.040844 
-0.046409 0.037629 0.026171 
0.008190 0.046109 0.014962 
0.022781 0.002729 0.003000 
-0.017273 0.048388 0.024503 
-0.067967 0.013299 0.080132 
-0.059209 -0.037886 0.061013 
-0.011791 0.044140 0.009195 
0.047418 0.027654 0.014878 
0.035739 -0.043670 0.044449 
0.034816 0.025583 0.002009 
0.029632 0.042836 0.033389 
0.049035 -0.048158 0.077254 
0.017477 0.038401 0.001869 
-0.037471 -0.016473 0.000000 
-0.021110 -0.064927 0.055920 
-0.035995 -0.006348 0.000000 
-0.042627 0.032352 0.011665 
0.031636 0.032364 0.002249 
-0.041387 -0.055354 0.056396 
-0.066778 0.007383 0.047560 
0.043352 -0.031231 0.030204 
0.040178 0.048767 0.064200 
0.026761 -0.056105 0.032895 
-0.044710 0.032218 0.016489 
0.052695 -0.030703 0.029890 
-0.020970 -0.039519 0.010568 
-0.057739 0.008022 0.048181 
-0.000760 0.018982 0.000000 
0.052184 -0.024191 0.046631 
0.037660 0.049080 0.032300 
-0.011270 0.044897 0.011412 
-0.069869 0.015804 0.066441 
-0.020066 0.052373 0.018286 
-0.015011 -0.058957 0.029053 
-0.032850 -0.037552 0.026657 
0.037865 0.005933 0.000000 
0.064428 -0.005951 0.063867 
0.014336 0.044306 0.009954 
0.029437 -0.005760 0.000000 
0.029114 -0.064892 0.063629 
-0.073977 0.007698 0.077469 
-0.006461 0.058434 0.023673 
-0.013065 0.031548 0.003000 
0.061795 -0.020107 0.069267 
-0.017395 0.070778 0.082000 
-0.050432 0.044822 0.072070 
0.017941 0.038399 0.000000 
-0.037833 0.042594 0.019963 
-0.050701 -0.000000 0.012607 
-0.036551 0.026296 0.007900 
-0.009230 0.020968 0.003000 
0.015814 -0.005132 0.003000 
-0.047487 0.036558 0.048439 
-0.012180 0.009580 0.000000 
-0.009291 0.003247 0.003000 
0.048529 0.035398 0.038276 
0.050162 -0.040017 0.040482 
0.034548 -0.056629 0.072617 
0.050773 0.034440 0.052734 
-0.023237 0.035683 0.000000 
-0.056812 -0.026186 0.033883 
-0.054542 0.032372 0.060961 
0.051297 -0.039679 0.061658 
0.015939 -0.063620 0.044907 
-0.050068 -0.002599 0.006513 
0.058617 -0.013480 0.026526 
0.033975 0.028812 0.008629 
0.039344 0.011396 0.000000 
0.063536 0.032107 0.064815 
-0.041071 0.057345 0.061942 
0.017625 -0.033013 0.003000 
0.058392 -0.000000 0.029469 
-0.015705 0.048092 0.017251 
0.045958 0.016381 0.024205 
-0.019003 -0.059237 0.043886 
-0.010770 0.045836 0.002607 
0.030933 -0.020429 0.003000 
0.047365 0.055930 0.082000 
-0.038044 -0.011426 0.003000 
-0.034435 -0.031203 0.014821 
0.016642 -0.051269 0.028145 
0.050891 0.037079 0.043115 
-0.008992 -0.072319 0.071797 
0.050789 -0.012802 0.032682 
0.023817 0.070918 0.078898 
-0.027743 0.064211 0.078899 
-0.048599 0.022881 0.013023 
0.015898 0.040875 0.004796 
-0.013307 0.045531 0.002890 
0.014503 0.043925 0.001444 
-0.032772 0.005816 0.003000 
-0.008199 0.072531 0.071367 
0.060962 0.034377 0.079754 
0.060972 0.010698 0.059293 
-0.039935 0.011984 0.000000 
-0.030679 0.059972 0.049164 
-0.043355 0.006687 0.007550 
0.058708 -0.001190 0.043996 
0.040503 -0.014881 0.003000 
-0.033848 -0.027385 0.000000 
0.050709 0.036310 0.034634 
-0.070353 -0.019695 0.072627 
0.065417 -0.008758 0.069066 
0.016046 0.069379 0.064735 
-0.005930 0.023167 0.000000 
0.014592 -0.046410 0.015843 
-0.054902 -0.047013 0.070109 
-0.039240 -0.051634 0.069180 
-0.073382 -0.001232 0.074833 
0.023641 0.044623 0.027005 
0.027524 -0.018973 0.003000 
0.054783 0.018769 0.049834 
0.021191 0.066276 0.063938 
0.068959 -0.026732 0.075432 
-0.050782 -0.000000 0.013028 
0.052670 0.017386 0.043021 
0.035643 -0.031525 0.003191 
-0.055548 -0.031343 0.038253 
-0.046582 -0.035357 0.023374 
-0.074214 -0.000000 0.078780 
-0.003575 -0.048996 0.023415 
-0.020307 -0.051720 0.017118 
-0.064731 0.033523 0.071421 
0.054689 0.027432 0.030132 
0.028498 -0.054409 0.057276 
0.057625 0.001834 0.021953 
-0.046549 0.034117 0.033629 
-0.026851 -0.018684 0.000000 
-0.006811 -0.055161 0.041470 
0.011787 -0.011970 0.003000 
-0.006997 0.039441 0.000000 
0.001119 0.070289 0.082000 
0.052347 0.017650 0.016233 
0.015229 -0.028622 0.000000 
0.064281 0.010921 0.068280 
-0.052414 0.037814 0.047916 
-0.013360 0.063638 0.066296 
0.011584 0.070320 0.064127 
0.029869 -0.048575 0.019909 
-0.067825 0.011149 0.077894 
0.022507 0.004462 0.003000 
0.009851 0.064867 0.069896 
0.053939 -0.033900 0.038269 
-0.042663 0.061233 0.079643 
0.016663 -0.029550 0.000000 
0.052295 0.009797 0.010626 
0.038939 0.057619 0.057838 
-0.019742 0.017845 0.000000 
-0.011190 0.044769 0.001436 
0.024743 -0.012715 0.000000 
0.001808 0.042153 0.003000 
-0.050771 0.000990 0.007419 
-0.041533 -0.050258 0.069816 
-0.068153 -0.025969 0.071569 
-0.022114 -0.068523 0.068267 
0.052246 -0.051945 0.082000 
0.040461 0.009926 0.002827 
-0.034877 -0.032651 0.018842 
-0.057280 -0.000000 0.028130 
-0.058279 0.004095 0.045791 
-0.052744 0.051134 0.073935 
-0.064256 -0.017385 0.047349 
0.056410 -0.040796 0.065543 
0.068567 0.007040 0.076312 
0.048453 -0.011988 0.025572 
-0.040491 -0.029655 0.018643 
-0.008051 0.072374 0.070603 
0.008905 -0.060303 0.029115 
-0.021439 -0.061941 0.043223 
0.032397 -0.006967 0.000000 
0.001093 -0.049513 0.005869 
0.023185 0.050800 0.040426 
-0.066477 -0.007594 0.071237 
0.038991 -0.026790 0.002833 
-0.014190 -0.055375 0.020137 
0.063372 0.000426 0.037116 
-0.050610 0.009374 0.030025 
-0.020977 -0.064512 0.054745 
-0.032152 -0.009317 0.000000 
0.070929 -0.012243 0.067009 
-0.060065 -0.028086 0.045864 
-0.050999 -0.023472 0.017883 
0.066845 0.019238 0.082000 
-0.004870 -0.002946 0.000000 
-0.065013 -0.009209 0.068744 
-0.047301 0.049199 0.054874 
-0.051775 0.004672 0.028583 
0.057580 -0.041566 0.068936 
0.053520 0.045181 0.061998 
0.057059 0.046581 0.075678 
-0.055238 -0.008294 0.041611 
0.039776 0.051414 0.069559 
-0.028324 -0.012860 0.000000 
0.002828 0.020413 0.000000 
-0.019714 0.065512 0.071784 
-0.066618 0.020934 0.057545 
0.011944 0.044259 0.009545 
0.026454 0.034241 0.008039 
-0.021291 0.032592 0.003000 
-0.018267 0.055500 0.026080 
-0.028133 0.057904 0.065196 
-0.052753 0.009313 0.011829 
0.038500 -0.041024 0.018537 
0.033203 0.009899 0.003000 
0.057422 -0.037963 0.073203 
0.010938 -0.060462 0.030441 
0.062962 -0.038967 0.077017 
-0.014991 0.005631 0.003000 
-0.029585 0.045668 0.013681 
-0.022955 0.057048 0.031099 
-0.011181 -0.056913 0.021523 
-0.049992 0.033094 0.026693 
0.055827 -0.031979 0.063520 
-0.039182 -0.061417 0.072005 
-0.049716 -0.020847 0.038168 
-0.057928 -0.035204 0.050306 
-0.001622 -0.020308 0.000000 
0.056408 -0.041283 0.073828 
0.000151 0.044462 0.010139 
0.037994 -0.024341 0.000407 
-0.049708 -0.036350 0.036472 
-0.032384 0.031744 0.012684 
-0.053504 -0.017716 0.018687 
0.003492 0.029929 0.000000 
-0.058265 0.042164 0.067955 
-0.017205 -0.027348 0.000000 
-0.017155 0.053081 0.035380 
-0.015356 -0.042612 0.000341 
0.044991 -0.006022 0.010833 
-0.039855 -0.019760 0.010848 
0.022485 0.020868 0.003000 
-0.057825 0.041871 0.065687 
0.052527 0.052030 0.082000 
0.028111 -0.014713 0.003000 
0.071810 -0.003653 0.067874 
-0.013073 -0.031005 0.003000 
0.051870 -0.018320 0.040549 
0.016794 -0.051995 0.022051 
-0.015744 -0.060859 0.058158 
0.038160 0.028206 0.009777 
-0.041424 0.018620 0.014015 
-0.023823 0.052415 0.045261 
0.003231 0.037453 0.003000 
-0.034746 0.040047 0.011349 
0.033328 0.065228 0.082000 
0.031775 0.043721 0.038922 
-0.039863 0.061398 0.073559 
-0.064235 -0.008069 0.040978 
-0.004308 -0.049037 0.023537 
0.055607 -0.040399 0.054905 
0.012662 0.071781 0.070529 
-0.059195 -0.024690 0.039276 
-0.039672 -0.002247 0.003000 
0.015466 0.065939 0.051556 
-0.014181 -0.070674 0.068648 
0.022593 -0.006062 0.003000 
0.060839 0.042392 0.077591 
-0.048766 0.022359 0.012860 
0.036729 -0.002695 0.003000 
0.052757 0.012929 0.013169 
-0.048406 -0.015724 0.030249 
0.052255 -0.028531 0.050863 
-0.039767 0.016947 0.007839 
0.011024 0.054757 0.016440 
0.001508 -0.039161 0.000000 
0.014417 -0.061478 0.036656 
-0.018280 -0.068975 0.066183 
0.063850 0.025516 0.054099 
0.013392 0.065112 0.070614 
-0.070943 -0.005080 0.080928 
0.041616 0.031219 0.008835 
0.011174 -0.048836 0.006275 
-0.059105 -0.045437 0.079383 
-0.053967 0.039606 0.066014 
0.013498 -0.071827 0.071555 
0.032669 -0.061299 0.057330 
-0.066250 -0.018804 0.054983 
-0.066843 0.026657 0.066964 
0.065428 0.009815 0.070370 
0.023251 -0.020229 0.000000 
-0.060138 0.035452 0.058533 
-0.030567 0.049773 0.023181 
-0.035250 -0.045595 0.048891 
0.037025 0.054892 0.072950 
0.001850 -0.058986 0.052673 
-0.050460 0.047525 0.058712 
0.033877 -0.052675 0.034663 
0.018503 -0.027749 0.000000 
0.011417 0.053436 0.013492 
-0.018992 -0.038399 0.000000 
-0.012927 0.029249 0.000000 
-0.011188 0.041347 0.001015 
0.015780 0.048836 0.011436 
-0.054864 -0.037460 0.046296 
-0.015272 -0.045765 0.014954 
0.011508 0.047770 0.019826 
0.022723 0.013154 0.000000 
0.069259 -0.018618 0.065662 
0.055903 0.047462 0.082000 
-0.058262 -0.042353 0.073379 
0.056674 0.001213 0.019414 
-0.010097 0.011379 0.000000 
0.009116 0.061233 0.031947 
-0.011341 -0.042599 0.000000 
0.005420 -0.045278 0.012529 
0.056330 -0.000000 0.018432 
-0.051217 0.047182 0.059780 
0.039886 0.050533 0.040060 
0.045493 0.009598 0.016259 
-0.038767 -0.034794 0.030103 
-0.023952 0.052007 0.044549 
