
# .PCD v.6 - Point Cloud Data file format
FIELDS x y z 
SIZE 4 4 4 
TYPE F F F 
COUNT 1 1 1 
WIDTH 1647
HEIGHT 1
VIEWPOINT 0.000000 0.000000 0.000000 1.000000 0.000000 0.000000 0.00000
POINTS 1647
DATA ascii
0.057411 -0.002859 0.031408 
0.000797 -0.041731 0.003000 
0.044000 -0.000720 0.002524 
0.037055 0.036991 0.017193 
0.035372 -0.053881 0.060949 
0.007946 0.033431 0.003000 
0.018940 0.052420 0.026231 
-0.013622 -0.048177 0.031123 
0.048260 0.011410 0.033035 
-0.026924 0.045166 0.045242 
-0.034615 0.001685 0.000000 
0.051822 -0.007987 0.042289 
0.025604 -0.049682 0.055112 
-0.007620 -0.050194 0.037963 
0.035395 0.024651 0.005305 
0.041922 -0.011086 0.014042 
0.052003 -0.021674 0.057464 
0.002874 -0.014424 0.000000 
0.036694 -0.037119 0.042556 
-0.044964 -0.034162 0.028648 
0.003997 -0.061368 0.075856 
0.061448 -0.024711 0.069706 
-0.017575 0.058601 0.066472 
-0.036246 -0.033115 0.030324 
0.039219 0.034603 0.016843 
-0.004080 -0.059563 0.069737 
0.002239 0.060590 0.043595 
0.019867 -0.037385 0.009308 
-0.015927 0.028650 0.003000 
-0.046889 -0.034018 0.035802 
-0.033030 -0.048515 0.037000 
0.003380 0.004888 0.000000 
-0.026899 -0.044024 0.042017 
-0.064446 0.003309 0.060823 
-0.001348 0.008338 0.003000 
0.049269 -0.035681 0.046355 
-0.017185 -0.046945 0.009717 
-0.024046 -0.060976 0.078000 
0.008106 -0.055391 0.025349 
-0.001013 -0.003172 0.003000 
0.002182 -0.038609 0.003000 
-0.010880 0.038179 0.003000 
-0.020856 0.051360 0.025053 
0.007688 -0.039966 0.003275 
0.030773 0.001408 0.000000 
0.007358 -0.035563 0.003000 
-0.024168 -0.048497 0.021760 
-0.058178 0.014392 0.068958 
0.041751 -0.012072 0.003000 
-0.041621 0.038423 0.056196 
0.006362 0.049065 0.008896 
-0.047371 0.027001 0.048138 
0.056052 -0.002343 0.049461 
-0.047282 -0.038838 0.068779 
0.051443 0.044303 0.075604 
-0.022946 -0.044665 0.035817 
0.004091 -0.025182 0.003000 
-0.045010 0.022004 0.035237 
0.039740 -0.028772 0.013369 
0.048040 0.035348 0.060473 
-0.026482 -0.053862 0.068494 
0.057074 -0.012533 0.034221 
-0.015172 0.062584 0.078000 
-0.042481 -0.009747 0.003000 
0.056142 -0.026078 0.047950 
-0.043640 -0.024390 0.032046 
-0.051698 0.019555 0.024798 
0.008583 -0.035121 0.003000 
-0.011911 -0.052344 0.045254 
0.017645 -0.063080 0.064783 
0.064905 0.008744 0.064565 
-0.046880 0.010149 0.029178 
0.041528 -0.029910 0.023140 
0.065622 0.011831 0.070031 
0.002826 -0.012382 0.003000 
-0.044563 0.040866 0.044482 
-0.060337 -0.006138 0.066319 
0.013596 0.040857 0.002657 
-0.018972 0.062914 0.066237 
0.001756 -0.041468 0.008369 
-0.044632 -0.006201 0.016975 
0.033468 0.005634 0.000000 
0.018661 -0.048067 0.014225 
-0.005720 0.055261 0.024029 
-0.058735 0.005671 0.061386 
0.054675 -0.023263 0.067496 
0.054521 0.006987 0.022679 
-0.054219 0.028804 0.046112 
0.030024 -0.049952 0.064789 
-0.007345 0.060291 0.072204 
0.022872 -0.033308 0.003845 
-0.006722 -0.050700 0.039677 
-0.006885 -0.030146 0.000000 
0.002564 0.048676 0.032815 
-0.034542 0.058514 0.077481 
0.019428 0.060436 0.058099 
-0.039568 -0.006377 0.001336 
-0.058773 0.000304 0.055775 
-0.007349 -0.007914 0.000000 
0.016388 0.050747 0.034648 
0.020000 0.061359 0.060710 
-0.055314 -0.020691 0.066173 
-0.016328 -0.049972 0.025810 
0.049842 0.009833 0.012058 
0.013468 -0.010568 0.003000 
0.029293 -0.039936 0.035503 
0.037793 -0.031110 0.009107 
0.010215 -0.064749 0.064822 
0.038417 -0.016113 0.007151 
-0.013193 0.051906 0.019844 
0.056044 -0.014860 0.033864 
-0.018028 0.048705 0.037100 
0.051258 -0.012499 0.016896 
-0.005900 0.063720 0.057315 
0.014738 -0.044465 0.009739 
-0.017169 0.053145 0.031554 
0.059805 -0.005580 0.064628 
-0.044349 -0.018358 0.006468 
0.043350 -0.051316 0.072515 
0.044860 0.042389 0.049723 
0.055640 -0.009208 0.055505 
-0.036137 -0.034449 0.011042 
0.044821 0.020516 0.031571 
0.047148 0.022111 0.040991 
-0.049063 0.018753 0.017059 
-0.018938 0.052738 0.027326 
-0.036699 0.047839 0.044023 
-0.017602 0.055721 0.056705 
0.048699 -0.045230 0.069095 
-0.047933 0.014959 0.037598 
0.015783 -0.048832 0.019455 
0.035325 -0.049972 0.075548 
0.060157 -0.023125 0.061236 
0.020565 -0.023739 0.000000 
0.002094 0.041846 0.000000 
-0.048583 0.047414 0.078000 
0.011462 0.005406 0.000000 
-0.058140 -0.022841 0.050831 
-0.042108 -0.013339 0.015594 
-0.054970 0.019667 0.035865 
0.058255 0.024994 0.054778 
0.056306 0.011122 0.030419 
0.015093 0.045664 0.011307 
0.061019 0.000000 0.057819 
-0.006435 0.057364 0.062279 
0.049209 0.027992 0.029694 
0.014736 0.044745 0.019125 
0.002016 -0.049965 0.037184 
-0.049969 0.033552 0.063376 
0.057402 0.032720 0.068016 
-0.037338 -0.052691 0.062301 
0.016140 -0.010532 0.003000 
-0.018010 0.055742 0.040510 
0.039954 0.016816 0.000000 
0.010457 -0.059658 0.042464 
0.063762 0.003763 0.074883 
-0.015162 -0.046526 0.007798 
0.055144 0.012805 0.027674 
0.037049 -0.051964 0.078000 
-0.004594 -0.048984 0.033859 
-0.004060 0.059079 0.068092 
0.013680 0.048792 0.011564 
0.046184 -0.048891 0.078000 
0.044469 0.045059 0.056331 
-0.045597 -0.041814 0.073640 
-0.019928 0.038929 0.003000 
-0.050555 0.005828 0.036033 
0.049940 -0.027069 0.030074 
0.035918 0.019397 0.001794 
0.061993 0.003640 0.068943 
0.046596 0.046455 0.066549 
0.065305 0.011851 0.068549 
-0.003943 -0.042362 0.000000 
0.060806 0.027937 0.072531 
-0.058895 0.033686 0.076830 
0.054157 0.017254 0.058523 
0.029819 0.038513 0.032609 
0.043322 -0.039356 0.036575 
-0.044614 -0.014945 0.004675 
-0.061273 0.022801 0.064397 
-0.017072 -0.052121 0.035331 
0.038213 0.016387 0.003000 
0.038055 -0.019995 0.009757 
-0.056155 0.030539 0.057585 
0.045106 -0.001710 0.014635 
-0.030014 0.035682 0.024992 
0.016315 -0.031462 0.000000 
0.018261 0.039237 0.011282 
-0.021670 -0.042595 0.006467 
-0.016094 -0.026606 0.000000 
0.048354 -0.009881 0.033491 
-0.008522 -0.064843 0.064125 
0.046565 0.033794 0.042232 
-0.020120 0.044279 0.029035 
0.034273 -0.056157 0.066976 
0.066148 0.008221 0.078000 
0.036011 -0.017660 0.000546 
-0.060608 -0.022357 0.060861 
0.045382 -0.032564 0.042935 
-0.008189 0.058554 0.066313 
-0.009681 0.045371 0.021605 
0.044414 0.009772 0.019545 
-0.038800 0.031897 0.011945 
0.044474 0.032152 0.023675 
0.063027 -0.003898 0.072885 
-0.001538 -0.041989 0.010136 
-0.042598 0.011010 0.002081 
-0.029404 -0.004977 0.000000 
0.061920 -0.026895 0.075657 
0.017023 0.052832 0.041723 
-0.016681 0.051409 0.028686 
0.024329 -0.018463 0.003000 
0.033588 0.027931 0.000000 
-0.020214 0.062499 0.069343 
0.017657 -0.051627 0.044468 
0.045445 -0.013567 0.005416 
-0.036233 -0.025866 0.009791 
0.010258 -0.005252 0.000000 
0.052469 0.032333 0.069902 
0.065671 0.018317 0.077559 
0.038176 0.027632 0.005491 
-0.013807 -0.025496 0.000000 
0.038755 -0.023009 0.015092 
0.000457 0.047167 0.005278 
-0.002254 -0.060672 0.073495 
0.028229 -0.022930 0.003000 
0.041121 -0.039514 0.030703 
-0.044288 -0.012522 0.003213 
0.041167 -0.029937 0.015996 
0.054362 -0.024524 0.067864 
-0.012946 0.028025 0.000000 
0.047853 -0.043470 0.061538 
0.042022 0.004383 0.007178 
0.064433 -0.001240 0.074435 
-0.028556 0.017206 0.003000 
-0.040149 0.012529 0.009472 
-0.018502 -0.057024 0.061158 
0.016680 0.005690 0.003000 
-0.055991 -0.011858 0.058484 
0.013155 -0.005325 0.000000 
0.016713 -0.010677 0.000000 
0.017038 -0.050082 0.038925 
0.058229 -0.021363 0.076557 
-0.019382 -0.003286 0.003000 
0.010315 -0.002593 0.003000 
-0.061253 0.004041 0.067503 
-0.008796 -0.005160 0.000000 
0.043322 -0.004435 0.000000 
0.049426 -0.023459 0.051328 
-0.004621 -0.018383 0.000000 
-0.024556 -0.031302 0.001573 
0.056370 -0.006736 0.027839 
-0.020934 0.038637 0.000148 
0.017329 0.053013 0.036230 
0.024244 -0.043953 0.011176 
0.028329 -0.056908 0.056017 
-0.057755 -0.029936 0.063383 
-0.006723 -0.018130 0.000000 
-0.045793 0.014225 0.030136 
0.051858 -0.025734 0.033367 
-0.060155 -0.023536 0.060659 
-0.005030 0.059687 0.070155 
-0.009042 -0.026579 0.000000 
-0.007388 -0.050378 0.012139 
0.005622 0.005660 0.000000 
0.002366 -0.058093 0.034023 
0.038117 -0.002263 0.000000 
-0.035728 0.035625 0.036377 
-0.046399 0.017515 0.035506 
-0.010708 0.059985 0.071166 
0.026285 -0.047353 0.050020 
-0.046536 -0.040506 0.049452 
-0.058589 0.032888 0.073688 
-0.011242 0.024714 0.000000 
0.014565 -0.045663 0.009757 
-0.013642 -0.059325 0.068929 
0.013595 -0.053358 0.048691 
0.004252 -0.059397 0.039023 
0.040838 -0.043949 0.042639 
0.051181 -0.036771 0.068147 
-0.017967 -0.056356 0.047131 
0.044784 -0.027673 0.040060 
0.041573 -0.004221 0.006097 
-0.006760 -0.061403 0.075975 
0.014620 -0.064907 0.069163 
-0.049108 -0.034966 0.043655 
-0.011302 0.039021 0.000000 
0.046114 0.033226 0.045047 
-0.016989 0.036858 0.001999 
0.059188 0.000000 0.055122 
-0.060783 -0.015526 0.051860 
-0.052893 0.004418 0.017715 
0.031845 -0.051663 0.073216 
-0.025831 0.023879 0.000000 
-0.010213 0.056675 0.031137 
0.012730 -0.051177 0.041295 
0.014331 0.052830 0.023088 
0.023582 0.034762 0.000000 
-0.036309 -0.042120 0.025202 
0.018493 -0.057854 0.052498 
0.023843 -0.056931 0.047430 
0.065411 0.012488 0.069481 
0.029657 0.034543 0.002908 
-0.018141 0.047637 0.012465 
0.001063 -0.001071 0.000000 
-0.055325 -0.010813 0.026475 
0.001850 0.002051 0.000000 
0.022898 0.056884 0.046182 
0.043520 0.042549 0.046322 
-0.010927 0.055301 0.026455 
0.036924 0.024152 0.001338 
-0.020264 0.053309 0.030821 
-0.031110 0.026340 0.000780 
-0.037259 -0.049367 0.050323 
0.037499 0.055363 0.072595 
0.001100 0.040158 0.003927 
-0.052711 0.002366 0.017228 
-0.029025 0.047213 0.055164 
0.056613 0.036583 0.075485 
0.024129 -0.054448 0.065369 
-0.059762 -0.000000 0.056080 
0.003341 -0.051115 0.041084 
-0.047505 0.034414 0.048225 
0.007821 -0.046511 0.025471 
0.012155 0.018360 0.003000 
-0.021925 0.004625 0.003000 
0.046283 0.046014 0.064360 
-0.044492 0.027105 0.038513 
0.047288 0.002446 0.021845 
-0.050342 -0.012351 0.040515 
-0.049951 0.005637 0.010196 
0.030709 -0.039386 0.011335 
-0.057518 0.006946 0.058951 
0.044054 -0.011022 0.021182 
-0.018103 0.050959 0.043512 
-0.050337 0.036183 0.064808 
0.033767 0.026568 0.000000 
0.018466 0.035999 0.002555 
0.050774 0.012572 0.042180 
-0.051134 0.025557 0.030919 
0.032167 0.026702 0.003000 
0.013629 0.060922 0.049573 
-0.000950 0.052970 0.047375 
0.002259 0.043763 0.016151 
-0.014289 0.055640 0.056430 
-0.005399 -0.048890 0.033539 
-0.009840 0.052209 0.044795 
-0.027014 0.002513 0.000000 
-0.055635 -0.020578 0.067098 
0.035263 -0.055505 0.078000 
0.066263 -0.002628 0.069606 
0.038734 -0.024070 0.016064 
-0.065524 -0.000000 0.067289 
-0.016707 0.040263 0.010992 
0.051362 -0.016195 0.020594 
0.016092 0.046711 0.027655 
-0.022993 0.021194 0.003000 
0.030155 0.043842 0.019804 
0.040109 -0.002038 0.000000 
-0.029616 0.017726 0.003000 
0.001092 0.003210 0.000000 
-0.058946 -0.000000 0.045874 
0.003582 0.062884 0.053273 
-0.019421 -0.049243 0.018134 
-0.022460 -0.034440 0.006215 
-0.021859 0.032835 0.000461 
0.015448 -0.047212 0.026425 
-0.019875 0.039253 0.014586 
-0.018178 -0.045932 0.029705 
-0.019188 -0.006390 0.000000 
-0.051858 0.027972 0.037328 
0.011832 -0.056461 0.059215 
-0.050542 0.036190 0.067878 
-0.025062 -0.051496 0.059057 
0.045639 -0.033123 0.036066 
0.048299 0.006471 0.007655 
0.062051 0.021067 0.065270 
-0.060297 -0.024629 0.063476 
0.029753 -0.019079 0.000000 
-0.037395 -0.031151 0.008583 
-0.019428 -0.059535 0.052041 
0.015125 -0.045837 0.018062 
0.034726 0.005853 0.000000 
0.058664 0.017720 0.046369 
0.017019 -0.052205 0.044780 
0.003265 -0.058787 0.067103 
-0.048481 -0.034707 0.058860 
0.002722 0.050340 0.010908 
0.044068 0.051700 0.075956 
0.032878 0.042664 0.050315 
0.036182 -0.026136 0.000529 
0.021377 0.016453 0.000000 
0.012051 0.061203 0.049318 
-0.006136 -0.059640 0.040041 
-0.065975 -0.016939 0.077182 
0.066001 0.000000 0.074303 
-0.022039 0.063374 0.072553 
-0.003864 0.005674 0.000000 
-0.061088 0.022345 0.062934 
0.040196 0.009357 0.006006 
0.062010 -0.017954 0.060578 
-0.017272 -0.053272 0.046404 
-0.061814 0.003071 0.048286 
0.002209 -0.018193 0.003000 
-0.037384 -0.023116 0.010105 
-0.041355 -0.044506 0.072550 
0.035591 0.041284 0.022455 
0.057794 0.010310 0.035555 
-0.035811 0.003524 0.000000 
0.035897 -0.034866 0.034575 
0.042053 -0.008513 0.011946 
-0.043572 -0.006714 0.002508 
0.003120 -0.044532 0.000887 
-0.058737 -0.009474 0.064812 
0.047203 0.045667 0.066025 
-0.051933 0.015878 0.022173 
0.057849 -0.025485 0.053886 
-0.044421 0.032123 0.028434 
-0.035784 0.025485 0.004668 
-0.046614 0.046986 0.068140 
0.048361 -0.041386 0.058111 
-0.064761 -0.019814 0.075452 
-0.057456 -0.010127 0.033995 
0.038442 -0.004861 0.003000 
-0.010094 -0.047292 0.007275 
0.043794 -0.017781 0.026967 
0.021183 -0.055076 0.061162 
0.055831 0.023397 0.070902 
-0.038245 -0.017877 0.000000 
0.001556 0.061614 0.076692 
0.034916 -0.035036 0.033071 
0.045970 0.004052 0.003284 
-0.042406 -0.047950 0.059047 
0.019473 0.054593 0.034339 
0.035090 -0.011460 0.000000 
0.006371 0.041188 0.000000 
-0.045472 0.032413 0.047056 
0.030312 -0.052173 0.071537 
-0.010189 0.029765 0.003000 
-0.014898 -0.054512 0.052605 
0.065921 0.000000 0.071607 
-0.063563 -0.023766 0.076839 
0.057115 0.000000 0.042249 
0.020319 -0.037871 0.000000 
-0.007401 0.042704 0.012562 
-0.045636 -0.004725 0.018765 
-0.060377 0.027956 0.070662 
0.038561 0.033332 0.035616 
-0.054594 0.028537 0.046906 
-0.044980 0.038487 0.063157 
-0.014413 -0.038986 0.000000 
0.029338 -0.057340 0.078000 
0.031275 -0.050260 0.068170 
-0.027807 -0.047394 0.053210 
0.039976 -0.011354 0.000000 
0.000748 -0.034388 0.003000 
0.013475 -0.062141 0.054889 
0.029937 -0.041861 0.042146 
-0.045657 0.030638 0.045931 
-0.033272 -0.058768 0.075341 
-0.004733 -0.054595 0.022254 
0.014213 -0.045343 0.005460 
-0.019068 -0.022572 0.000000 
0.009043 -0.064639 0.063510 
0.007218 0.056315 0.027986 
-0.014645 0.039905 0.005833 
0.023394 0.046165 0.015180 
0.054242 -0.030627 0.049247 
-0.042543 0.004127 0.000000 
-0.056815 0.032159 0.064143 
-0.029444 0.058696 0.066482 
0.033706 0.044662 0.026629 
0.060341 -0.017857 0.053175 
-0.022343 -0.051006 0.025431 
0.019315 0.059689 0.056563 
-0.029539 0.030219 0.008580 
-0.049521 0.019214 0.047093 
-0.032390 -0.004428 0.003000 
0.030531 0.055004 0.052431 
-0.028624 0.057865 0.060942 
-0.035239 0.050039 0.075561 
-0.027325 -0.031080 0.006541 
0.049937 0.019182 0.046849 
-0.055954 0.014332 0.032381 
-0.058753 0.005036 0.060765 
0.012544 -0.027095 0.003000 
0.001747 0.007993 0.000000 
0.025477 0.025035 0.000000 
-0.048224 -0.034666 0.053708 
0.034672 0.030355 0.019335 
0.028724 -0.050113 0.062610 
0.059428 -0.002851 0.039139 
-0.004606 -0.044151 0.017467 
0.050399 0.027556 0.032677 
0.023860 -0.010896 0.000000 
-0.002306 0.055175 0.023799 
0.039044 0.042110 0.061230 
0.005634 -0.003066 0.003000 
0.037938 -0.026216 0.015492 
0.017160 -0.058292 0.044441 
-0.022349 0.032592 0.000000 
0.030118 0.044124 0.020366 
-0.042692 0.033935 0.022787 
-0.035166 0.020843 0.003000 
-0.030417 0.045551 0.053364 
-0.038095 0.038901 0.050402 
0.022429 0.034204 0.003000 
-0.019022 -0.058683 0.063042 
0.023074 0.044772 0.011450 
0.029870 0.053102 0.073224 
0.035709 -0.030831 0.022779 
-0.038778 0.023382 0.015536 
-0.028465 0.031275 0.000000 
0.060780 -0.007932 0.070180 
-0.029956 0.037356 0.029612 
0.011926 -0.060915 0.074319 
0.008552 0.056241 0.028555 
0.030812 -0.047654 0.060001 
0.038244 -0.015212 0.000000 
0.032756 -0.014186 0.000000 
0.052334 0.036784 0.074453 
0.012725 -0.049064 0.034131 
-0.051606 0.010052 0.016540 
0.062778 0.000000 0.059679 
-0.056717 0.011129 0.060918 
-0.018674 0.059052 0.068004 
0.035176 0.052861 0.056787 
0.045559 -0.033159 0.033721 
0.036531 -0.032268 0.028506 
0.062953 -0.016321 0.062388 
-0.047305 0.034318 0.046088 
-0.019002 -0.012474 0.000000 
0.017326 0.053553 0.031557 
-0.027982 0.000001 0.000000 
0.031804 0.046356 0.027881 
0.059532 -0.011072 0.069639 
-0.023251 0.041164 0.026709 
-0.003200 0.060844 0.044568 
0.048753 0.028083 0.028434 
0.047659 0.000000 0.020368 
-0.011383 -0.038177 0.003000 
0.052704 -0.004788 0.017212 
0.011080 -0.000971 0.003000 
-0.019650 0.007191 0.000000 
0.006782 -0.008189 0.000000 
0.001002 0.066891 0.072640 
0.006088 0.063572 0.078000 
-0.057925 -0.030283 0.078000 
-0.054769 -0.025306 0.069561 
0.018054 -0.040955 0.015635 
0.020075 0.049217 0.042658 
-0.003501 -0.064597 0.061553 
-0.010311 -0.063680 0.078000 
-0.031134 -0.032092 0.017101 
0.027885 0.036764 0.003785 
0.058429 -0.019959 0.075683 
0.031889 -0.036846 0.032074 
-0.048257 0.034558 0.039995 
-0.001359 0.050125 0.010333 
-0.023372 0.053112 0.033714 
0.001836 0.053478 0.049099 
-0.040467 0.040707 0.032249 
0.053416 -0.015854 0.025884 
-0.048951 -0.033043 0.038386 
0.051274 -0.035129 0.069338 
-0.022155 -0.011030 0.000000 
0.032615 0.025699 0.002008 
0.031934 0.049318 0.066886 
-0.058143 -0.034615 0.076308 
0.045187 -0.032720 0.026064 
-0.013765 0.013692 0.000000 
0.017997 -0.062393 0.062304 
-0.002471 0.056768 0.028945 
0.010567 0.031660 0.000000 
-0.066060 -0.008608 0.069924 
0.058096 0.018877 0.045739 
-0.038608 0.016577 0.008253 
0.067207 0.000000 0.074996 
-0.040329 0.053245 0.072191 
-0.056458 0.009924 0.058822 
-0.023525 -0.051746 0.056648 
-0.049354 0.034965 0.044417 
-0.020354 0.048961 0.042509 
0.063137 0.007528 0.055398 
-0.052313 0.030341 0.042860 
-0.063762 -0.017676 0.068344 
-0.014468 0.019821 0.003000 
-0.012147 0.061501 0.050788 
-0.019160 0.049401 0.018324 
-0.022829 -0.051043 0.025962 
-0.038969 0.020062 0.001267 
0.018811 0.055585 0.057787 
-0.053490 -0.015244 0.025414 
-0.014162 0.042557 0.002711 
-0.052337 -0.001442 0.016233 
0.048183 -0.024092 0.048016 
-0.054452 0.013733 0.056630 
0.026741 -0.021417 0.000000 
0.014501 0.014633 0.000000 
0.038511 0.019000 0.003000 
0.014016 0.048577 0.011127 
0.031241 0.029488 0.009951 
-0.048679 -0.022627 0.046589 
-0.049104 0.017343 0.043796 
0.007606 -0.044851 0.019843 
-0.041880 0.040549 0.062621 
0.041833 -0.014328 0.000000 
-0.040700 0.049487 0.059461 
-0.034501 0.027288 0.000000 
-0.008708 0.058867 0.067376 
-0.054491 -0.015437 0.057581 
-0.044758 0.032490 0.028395 
-0.006954 0.040372 0.004654 
-0.037614 -0.043977 0.034010 
0.043164 -0.002446 0.000000 
-0.016226 0.063885 0.067063 
-0.052721 0.039996 0.069928 
-0.029306 -0.034353 0.019804 
0.047900 0.005206 0.026264 
-0.042549 0.001089 0.003000 
0.019928 -0.061622 0.076805 
-0.019083 -0.035181 0.001489 
-0.033401 0.024942 0.000000 
-0.024624 0.035173 0.012664 
0.043171 0.039168 0.035600 
-0.020381 0.063382 0.070078 
-0.035327 -0.041565 0.022620 
0.012600 0.040036 0.000000 
-0.014949 0.017226 0.000000 
0.000579 -0.061408 0.075992 
-0.042065 0.015318 0.018697 
-0.018921 -0.059070 0.057189 
0.042444 0.030515 0.030099 
-0.065141 0.008291 0.065375 
-0.045350 0.022135 0.011484 
-0.028716 0.042270 0.040815 
-0.056342 -0.030178 0.057614 
0.033926 -0.049298 0.042418 
0.017125 0.062847 0.063017 
0.038677 0.033124 0.035263 
-0.011542 -0.021507 0.000000 
-0.011851 -0.051755 0.043256 
0.027626 0.033591 0.014253 
-0.054870 -0.023586 0.067963 
-0.020736 0.061138 0.077091 
-0.048179 0.015201 0.010716 
0.065023 0.000000 0.069591 
-0.056924 -0.010402 0.032183 
0.049557 0.033566 0.061737 
0.006924 0.043856 0.016469 
0.016259 -0.029352 0.003000 
0.057013 -0.000988 0.029883 
-0.040002 0.049894 0.058973 
-0.051504 -0.009847 0.041734 
0.018482 -0.063649 0.068470 
-0.013177 -0.027832 0.003000 
0.020015 -0.002737 0.003000 
-0.059181 -0.000000 0.046630 
0.057012 -0.023216 0.046988 
0.046925 0.038427 0.045379 
0.044982 0.019453 0.030907 
-0.040673 0.029093 0.024656 
-0.062329 0.000822 0.067424 
-0.028217 -0.026922 0.000000 
-0.031532 -0.039159 0.037866 
0.064875 -0.017381 0.078000 
0.008295 -0.043138 0.014035 
-0.046222 -0.024385 0.040504 
0.015282 -0.042350 0.013908 
0.051568 -0.037338 0.058331 
-0.003092 0.000563 0.003000 
-0.017083 0.037454 0.003875 
-0.008491 0.052386 0.017712 
-0.045384 0.024052 0.038519 
0.029399 -0.045357 0.050767 
-0.066643 0.003225 0.071442 
-0.011659 0.051618 0.042793 
-0.051911 0.039946 0.066924 
0.045344 -0.025477 0.039786 
-0.010693 -0.022440 0.000000 
-0.032028 0.044341 0.053257 
0.020989 0.030521 0.003000 
-0.012699 -0.064359 0.064653 
-0.046197 -0.017407 0.032596 
0.011758 0.045542 0.022187 
0.015163 -0.046016 0.020619 
0.034391 -0.037942 0.014147 
-0.004927 0.041564 0.000000 
-0.058064 -0.030347 0.065674 
-0.021700 0.049586 0.021074 
-0.014543 -0.053686 0.025182 
0.046679 0.047903 0.070988 
-0.015957 0.043229 0.017716 
0.050675 -0.039102 0.060161 
-0.023351 -0.051030 0.026710 
-0.043196 -0.037095 0.055628 
-0.052746 0.038105 0.072396 
-0.051182 0.006808 0.039035 
0.049035 -0.008701 0.034357 
-0.000903 -0.045452 0.021882 
0.066178 0.000000 0.074625 
0.013006 -0.064186 0.064047 
-0.043473 0.031075 0.037408 
0.024845 0.032655 0.005986 
0.035885 0.029225 0.004362 
0.042425 0.045418 0.051445 
-0.045503 0.007108 0.021635 
0.043454 -0.051051 0.071773 
-0.041306 -0.030100 0.014954 
0.021145 0.050263 0.022386 
0.043427 0.030786 0.019533 
0.030174 0.042635 0.017220 
0.020061 0.039086 0.000166 
0.006997 0.000706 0.000000 
-0.047444 0.023750 0.018692 
-0.004191 -0.028510 0.003000 
-0.017801 -0.037109 0.004353 
-0.037542 0.050477 0.054694 
-0.048354 0.034896 0.053950 
-0.004576 0.019156 0.003000 
0.040904 -0.051201 0.065909 
-0.027632 -0.043153 0.041080 
0.065410 -0.014632 0.078000 
0.022093 -0.059790 0.057802 
-0.024848 0.058050 0.076822 
-0.053890 0.034760 0.059249 
-0.033973 0.028316 0.000362 
0.029697 -0.056090 0.055416 
-0.057929 -0.028457 0.060854 
0.042842 0.013518 0.001203 
-0.062115 -0.006639 0.049972 
-0.018691 -0.064072 0.078000 
-0.025042 0.063058 0.077034 
-0.044896 -0.042773 0.050938 
-0.031795 0.039301 0.012794 
0.039262 0.050613 0.060398 
0.046086 0.011372 0.026217 
0.041710 0.000924 0.003055 
-0.021606 0.037547 0.013282 
-0.020117 0.053785 0.055426 
0.016692 -0.051473 0.021447 
-0.029060 0.032940 0.000721 
-0.007851 -0.044974 0.020261 
0.014620 -0.029285 0.003000 
0.051770 -0.010327 0.017088 
-0.039769 -0.027361 0.022686 
0.020689 -0.036410 0.000000 
-0.002382 0.038582 0.000000 
0.062746 -0.012886 0.057166 
-0.048170 -0.043293 0.061942 
-0.038854 0.043811 0.065568 
-0.019206 -0.007128 0.003000 
0.027058 -0.057858 0.057417 
0.007465 -0.066436 0.078000 
0.043106 -0.046340 0.056092 
-0.004754 -0.027712 0.003000 
0.060489 0.008994 0.070019 
0.042002 -0.041145 0.037920 
-0.002222 -0.044000 0.002314 
0.002409 -0.021738 0.000000 
-0.058113 -0.014502 0.068408 
0.042617 0.032045 0.040171 
-0.016066 -0.049459 0.022739 
0.051945 0.037612 0.061784 
0.060750 0.007063 0.068708 
-0.053617 -0.027156 0.067859 
0.021891 0.025524 0.003000 
-0.042683 0.030490 0.034202 
0.034411 -0.012705 0.000000 
0.056057 0.016335 0.035781 
-0.046440 -0.043162 0.056545 
-0.014103 -0.042678 0.012030 
-0.067121 -0.000441 0.078000 
-0.013545 0.064895 0.078000 
0.061473 0.015312 0.054411 
0.014217 0.041154 0.003000 
0.011934 -0.046580 0.025707 
0.011486 -0.058521 0.038814 
0.060086 0.001349 0.041663 
0.041667 0.027574 0.029146 
0.052811 -0.037263 0.062513 
0.016070 0.057697 0.041135 
0.054790 0.012488 0.025958 
0.039747 0.050072 0.059858 
-0.022837 -0.024940 0.003000 
-0.055360 -0.034231 0.064458 
-0.037961 0.038021 0.047669 
-0.054405 -0.033194 0.077217 
0.033508 -0.047875 0.036755 
-0.025678 0.034457 0.003000 
-0.054602 0.008154 0.051143 
-0.044983 -0.009637 0.021197 
-0.013392 -0.030542 0.000000 
-0.025722 -0.045397 0.043454 
-0.010762 0.043691 0.001682 
0.060525 -0.009805 0.071383 
0.049845 0.018671 0.045976 
0.006146 0.017128 0.000000 
0.010458 0.017460 0.000000 
-0.029614 -0.008854 0.000000 
-0.044526 0.042528 0.073460 
0.038971 0.008750 0.000000 
0.046795 -0.032682 0.031426 
0.064290 0.004949 0.077945 
-0.006552 -0.015400 0.003000 
-0.040688 -0.029482 0.012695 
-0.019284 -0.038291 0.003000 
-0.040086 -0.013057 0.000000 
-0.051330 -0.036032 0.054112 
0.031469 0.049172 0.035593 
-0.043354 0.031055 0.035867 
-0.020968 -0.047150 0.014074 
-0.012918 0.040219 0.004133 
0.010185 0.061642 0.050130 
-0.011961 0.006959 0.000000 
0.020525 0.043133 0.026672 
-0.014925 -0.016512 0.003000 
-0.063711 -0.002466 0.073262 
0.020672 0.053788 0.056555 
-0.029548 -0.056768 0.058112 
0.066473 0.001926 0.070621 
-0.059633 -0.032567 0.077625 
-0.020333 0.050784 0.047529 
-0.043499 -0.032506 0.022256 
-0.017496 0.031685 0.000000 
0.028293 0.044083 0.044997 
-0.063187 0.002450 0.054735 
-0.051529 -0.000000 0.018191 
-0.054209 -0.018773 0.032208 
0.061215 -0.004945 0.045989 
0.034902 0.002370 0.000000 
-0.016043 0.048898 0.029985 
0.012107 0.043586 0.001947 
0.058568 0.024774 0.055788 
0.013909 -0.042230 0.008900 
-0.043480 0.015783 0.023935 
-0.048305 0.032499 0.056713 
0.010091 -0.061804 0.050834 
-0.019467 -0.060570 0.066504 
-0.016686 -0.028432 0.000000 
-0.022288 0.056056 0.042625 
0.036424 0.047762 0.071632 
0.032500 -0.046651 0.030569 
-0.044476 -0.047845 0.064432 
0.063061 -0.006542 0.054375 
0.026757 -0.025853 0.000000 
0.007948 -0.037730 0.000000 
-0.047469 -0.034380 0.048193 
-0.019460 0.059302 0.050979 
0.041175 0.039410 0.030558 
0.052158 0.021298 0.028038 
-0.048332 -0.026825 0.025121 
-0.027944 -0.058757 0.078000 
-0.042081 -0.003961 0.000000 
-0.022242 0.060783 0.078000 
-0.036357 0.054023 0.078000 
0.051661 -0.005945 0.039606 
-0.044414 0.047933 0.064505 
0.023103 0.043934 0.009700 
-0.058342 0.011585 0.066471 
-0.018984 -0.038143 0.009668 
-0.019744 -0.059867 0.071559 
-0.066399 0.003754 0.070262 
-0.049650 -0.003979 0.030610 
-0.032783 -0.009786 0.003000 
-0.031759 -0.041273 0.044194 
0.028220 -0.015963 0.000000 
0.004594 0.034286 0.000000 
-0.002523 -0.036223 0.000000 
0.018764 0.043677 0.005856 
0.049985 -0.032999 0.042385 
-0.017640 -0.039099 0.009647 
0.009929 -0.040766 0.005989 
0.018315 0.043681 0.023731 
0.006390 -0.042739 0.012679 
-0.024997 -0.019958 0.003000 
0.067072 0.003074 0.078000 
-0.010646 -0.052660 0.019473 
0.041835 0.042146 0.066964 
-0.044608 0.043674 0.052718 
0.000030 -0.010741 0.000000 
-0.035051 0.036625 0.037842 
-0.041028 0.029619 0.018349 
0.003199 -0.067813 0.077094 
-0.014047 0.059468 0.069413 
0.007746 0.057900 0.034401 
-0.025257 -0.041879 0.032746 
0.044157 -0.028007 0.016966 
-0.051526 -0.000271 0.014069 
-0.067266 0.005916 0.074454 
0.006679 -0.058230 0.034920 
0.039459 -0.046245 0.073548 
0.039393 -0.054426 0.074253 
-0.037510 0.027088 0.005538 
0.037454 0.043610 0.032409 
0.021678 0.042622 0.027579 
0.042412 -0.034551 0.046848 
-0.062325 -0.002763 0.050570 
0.001692 0.066335 0.069954 
0.001745 0.064185 0.059563 
0.052585 -0.041243 0.078000 
-0.045053 0.040901 0.045994 
0.033670 -0.044815 0.057888 
-0.044583 -0.002738 0.013670 
-0.009005 0.057287 0.062016 
-0.006067 0.012756 0.003000 
0.029599 0.028667 0.004310 
0.052473 0.000000 0.029439 
-0.006318 -0.056450 0.059178 
-0.040919 0.047816 0.054641 
0.035264 0.022215 0.000000 
0.033276 -0.047993 0.065916 
0.040610 -0.005726 0.004327 
0.037288 -0.022699 0.000000 
-0.060635 -0.023878 0.063554 
0.036746 -0.030467 0.006922 
-0.006165 -0.056818 0.029242 
0.048050 -0.045306 0.067431 
-0.044822 -0.044374 0.055368 
-0.018315 0.056449 0.048472 
0.052659 0.027588 0.065203 
0.033488 0.045712 0.060009 
-0.007557 0.056842 0.030109 
0.039322 -0.037333 0.048473 
0.037942 -0.036342 0.042884 
-0.044771 -0.002549 0.014086 
-0.026195 0.057179 0.052465 
0.052962 -0.028639 0.067890 
-0.038065 0.050140 0.054774 
0.036283 0.046935 0.040176 
-0.046351 0.033620 0.052173 
0.036453 -0.025093 0.002185 
-0.012985 0.054685 0.026267 
-0.039108 0.042727 0.063071 
0.025823 0.042844 0.011017 
-0.000795 -0.045545 0.002575 
0.048824 0.030417 0.032706 
0.025424 0.043270 0.011299 
-0.005827 -0.062257 0.050243 
-0.053558 0.007311 0.020230 
0.001214 -0.053733 0.019956 
0.046000 0.019854 0.034696 
0.023707 -0.004476 0.000000 
0.030526 -0.043316 0.047376 
0.036516 0.026382 0.001670 
-0.025031 0.043550 0.011339 
-0.031642 0.037569 0.033624 
0.038720 0.006816 0.000000 
-0.011448 0.053809 0.050222 
0.026737 -0.029642 0.003000 
-0.013489 -0.042502 0.000645 
0.058619 -0.001855 0.056951 
0.057758 0.025168 0.052830 
-0.019981 -0.040267 0.001796 
0.003756 0.057474 0.062650 
-0.043012 -0.022581 0.008001 
-0.004254 -0.045942 0.003236 
-0.003465 -0.061241 0.075426 
0.018548 0.002243 0.003000 
0.049523 -0.035833 0.047523 
-0.010407 -0.029087 0.000000 
-0.017220 0.026950 0.003000 
0.014778 -0.046209 0.012893 
0.046511 0.041198 0.073777 
-0.035243 0.040382 0.020128 
0.038339 -0.038392 0.049482 
0.014604 -0.044159 0.013547 
-0.017590 -0.026350 0.003000 
-0.065195 -0.008376 0.065685 
0.044462 0.032157 0.032629 
-0.018976 -0.059218 0.058248 
0.044339 -0.041122 0.044575 
-0.020540 0.048847 0.018073 
0.021703 -0.056923 0.044944 
-0.047627 -0.015001 0.034585 
0.011499 0.054891 0.053893 
0.019697 0.041751 0.003713 
0.060598 0.008437 0.069752 
-0.049260 -0.033392 0.040217 
0.065016 0.011681 0.067070 
0.035830 0.008002 0.000000 
0.053825 0.036766 0.065402 
-0.050669 -0.028975 0.035680 
0.056131 0.002660 0.026503 
-0.048823 -0.000000 0.021969 
0.061801 0.021792 0.065232 
-0.006008 0.054990 0.054227 
0.043570 0.052538 0.077715 
0.032785 -0.040854 0.045103 
0.039008 -0.053556 0.070036 
0.051651 -0.024577 0.059463 
0.033841 0.034718 0.008200 
0.031587 0.049236 0.065958 
0.011419 0.056735 0.060146 
-0.039735 0.025063 0.005026 
-0.053725 0.021185 0.033315 
-0.060249 0.030571 0.075924 
-0.061323 0.001419 0.046405 
-0.025338 0.035752 0.015742 
-0.051669 0.010400 0.044387 
-0.015933 -0.049239 0.029635 
0.049352 -0.010779 0.011271 
0.023444 -0.045945 0.040376 
0.014118 0.058019 0.039895 
-0.052611 -0.030572 0.068393 
-0.048706 0.035326 0.051198 
0.051969 -0.029474 0.040310 
0.039483 0.014556 0.000000 
0.003799 -0.044936 0.020131 
-0.059711 -0.031144 0.074800 
0.011879 -0.055514 0.027842 
0.033936 0.032613 0.024237 
-0.041317 0.029831 0.019508 
-0.053180 0.002705 0.018481 
0.008297 0.041712 0.000000 
0.053351 0.025885 0.065560 
0.042779 -0.035601 0.050560 
-0.003098 -0.007460 0.000000 
-0.021775 0.041892 0.025750 
-0.020857 -0.050619 0.048129 
-0.042879 -0.030877 0.028014 
0.055161 0.012149 0.026792 
0.030072 0.055187 0.052224 
0.022265 0.051189 0.052555 
-0.066769 0.007897 0.072794 
0.045182 -0.033033 0.028921 
0.017957 0.009999 0.000000 
-0.053558 0.001153 0.019487 
0.014465 -0.043744 0.013560 
-0.016748 0.062561 0.061866 
0.007084 -0.054547 0.052723 
-0.038802 -0.052989 0.067498 
0.020431 -0.056719 0.042775 
-0.027621 0.050633 0.061826 
-0.044935 -0.006804 0.018468 
0.052476 -0.017133 0.054091 
0.010014 -0.054542 0.052708 
0.057200 -0.022761 0.047115 
0.055790 0.007822 0.026361 
-0.041904 -0.042428 0.041329 
-0.044600 0.040097 0.042380 
0.036445 0.028208 0.003790 
-0.018900 -0.053729 0.052812 
0.060321 -0.016841 0.051616 
0.061565 -0.000335 0.047333 
-0.002682 -0.051230 0.013279 
-0.055787 0.024321 0.072096 
-0.019958 -0.049953 0.020503 
0.012870 0.023930 0.003000 
0.010384 0.051252 0.015822 
0.032542 0.050893 0.043177 
-0.007049 0.012819 0.000000 
0.046491 0.014782 0.030614 
-0.052581 -0.041696 0.073125 
-0.002671 -0.056930 0.029564 
-0.049950 0.011498 0.013646 
-0.062188 -0.000915 0.066940 
0.006428 0.064451 0.060857 
0.022946 -0.037733 0.000375 
0.029302 0.031762 0.000000 
0.021040 -0.041665 0.023635 
0.004872 0.059509 0.039453 
0.030531 -0.033680 0.020375 
-0.025464 0.062801 0.076683 
0.059308 0.030738 0.078000 
-0.017274 0.039214 0.000000 
-0.044314 -0.031930 0.043274 
0.019523 -0.046955 0.035261 
-0.026417 0.008975 0.000000 
0.030523 -0.034853 0.023677 
-0.045145 -0.011929 0.023789 
-0.027909 -0.030235 0.005330 
-0.032567 -0.019146 0.000000 
0.042875 0.015332 0.002201 
0.051328 -0.007688 0.014664 
-0.017601 -0.055693 0.056611 
0.040455 -0.038342 0.053617 
0.021469 -0.038093 0.000000 
0.050355 -0.045489 0.074648 
-0.003390 0.061881 0.048545 
-0.044866 -0.007171 0.018588 
0.013628 0.065429 0.070332 
0.044000 0.000241 0.000761 
-0.044989 -0.013889 0.025083 
0.060280 0.001224 0.061269 
-0.016173 -0.050307 0.023723 
0.022223 0.035136 0.000000 
-0.005412 -0.067564 0.075891 
-0.039720 -0.012221 0.007126 
-0.002438 0.063924 0.058298 
0.044175 0.035199 0.052243 
-0.063014 -0.006166 0.075125 
-0.016099 -0.049169 0.023280 
-0.023982 0.053082 0.061281 
0.046810 -0.035246 0.057701 
0.048681 0.028094 0.028233 
-0.030319 -0.045526 0.023454 
0.028988 -0.027767 0.000529 
-0.056056 0.027038 0.049334 
0.065878 0.013352 0.072266 
-0.027134 -0.038054 0.004647 
-0.031629 0.046911 0.029210 
0.038156 -0.032282 0.031828 
-0.023173 -0.006453 0.003000 
0.041593 0.039471 0.059048 
0.062409 -0.015609 0.058939 
-0.038900 0.028116 0.011334 
-0.020375 -0.061225 0.060903 
-0.014018 -0.051357 0.018176 
0.048172 0.034751 0.042060 
-0.045900 -0.033347 0.031997 
0.042093 0.046147 0.052594 
-0.013962 -0.018118 0.000000 
-0.005150 0.055123 0.054677 
-0.000249 0.066763 0.072023 
0.012066 0.050715 0.039731 
-0.019469 0.059636 0.070364 
0.047908 -0.011111 0.033412 
0.067172 -0.007443 0.074392 
-0.048714 -0.035221 0.046280 
-0.059441 0.017769 0.076503 
-0.042345 0.020333 0.005017 
-0.047004 -0.017616 0.035478 
0.058294 -0.009715 0.064327 
-0.052803 -0.008239 0.018673 
-0.005877 0.003498 0.000000 
-0.009461 -0.060772 0.073834 
0.002402 0.066304 0.069800 
-0.064383 -0.007325 0.061141 
-0.008948 0.020643 0.000000 
-0.005845 -0.044569 0.018887 
-0.008659 -0.049762 0.036497 
0.030311 0.027562 0.002624 
0.027075 -0.030063 0.003160 
-0.051340 -0.039972 0.078000 
0.057297 0.015219 0.038777 
0.048132 0.029894 0.029740 
0.044510 0.016236 0.025750 
-0.061960 0.011309 0.077466 
-0.051907 0.037685 0.064341 
0.002475 -0.019175 0.003000 
0.006775 0.039358 0.000000 
0.015837 -0.064778 0.070169 
-0.034798 0.043869 0.026716 
-0.038178 0.010201 0.003000 
0.005064 0.004454 0.003000 
0.004647 0.060180 0.071827 
-0.004035 -0.066929 0.072823 
-0.004676 -0.012942 0.000000 
0.032158 0.034783 0.026783 
0.040600 -0.033276 0.039578 
-0.009033 -0.061618 0.049241 
0.022830 0.043888 0.033421 
0.024011 -0.059290 0.058474 
-0.013368 0.044864 0.019886 
-0.018449 -0.056929 0.041220 
-0.019955 0.053649 0.054721 
-0.009107 0.063671 0.058983 
0.010137 0.063235 0.057623 
0.041039 0.033424 0.040883 
-0.049210 -0.000000 0.017546 
-0.060163 0.017868 0.078000 
-0.056680 -0.022961 0.073195 
0.035149 -0.031793 0.024367 
0.013903 -0.042883 0.005416 
-0.047577 0.042334 0.057584 
-0.023876 -0.054746 0.039929 
-0.010049 -0.049090 0.010250 
0.047610 0.009947 0.029676 
0.038421 -0.030978 0.028675 
0.060112 0.028241 0.070113 
0.059375 -0.011978 0.042302 
0.015319 -0.046408 0.017604 
-0.009475 0.026649 0.003000 
0.001407 -0.059191 0.038234 
0.034529 -0.041018 0.020329 
0.053796 0.000000 0.022145 
-0.019981 0.034486 0.001337 
0.023695 0.026118 0.003000 
0.043039 -0.013762 0.001598 
-0.039100 -0.023227 0.002786 
-0.024954 -0.061647 0.078000 
-0.019771 0.046057 0.033270 
0.060747 -0.013366 0.075876 
-0.044144 0.027955 0.016863 
0.042174 0.004150 0.000000 
0.003290 0.047527 0.028916 
-0.032147 -0.034775 0.026738 
0.016944 0.000494 0.000000 
0.025177 0.061665 0.070872 
-0.061869 0.001466 0.066677 
0.016043 0.004138 0.000000 
-0.033853 -0.031668 0.021396 
-0.039317 -0.030761 0.011274 
-0.050859 -0.000472 0.012290 
0.016840 -0.050424 0.018717 
-0.016555 0.065568 0.074904 
0.039038 0.027432 0.020369 
-0.062791 -0.007890 0.076328 
-0.065391 -0.005836 0.065392 
-0.010226 0.056684 0.059971 
-0.038161 -0.027465 0.010849 
-0.007909 0.057483 0.032729 
0.052923 -0.034135 0.073634 
0.006040 -0.043681 0.015875 
-0.048669 0.032849 0.037029 
-0.049535 0.018963 0.018504 
0.010019 -0.038568 0.000000 
-0.037515 -0.020610 0.000000 
0.042308 0.007842 0.000000 
0.064268 -0.012029 0.063773 
0.041750 -0.031889 0.037978 
-0.005615 0.030821 0.000000 
-0.055302 -0.000000 0.031517 
0.012363 0.058224 0.065194 
-0.067501 0.009633 0.077419 
-0.033450 0.036682 0.034768 
-0.053855 -0.002716 0.042579 
0.062076 0.000580 0.066285 
0.030588 0.035962 0.026945 
-0.000225 -0.013042 0.000000 
0.026702 -0.008988 0.003000 
0.064467 -0.003804 0.060926 
-0.014081 0.058114 0.064820 
0.022077 -0.043654 0.031253 
-0.033727 -0.057279 0.070117 
0.025082 -0.028772 0.000000 
0.014229 0.043850 0.009578 
-0.008882 0.067220 0.078000 
0.011911 -0.042373 0.011439 
0.015661 0.055281 0.032272 
0.050576 -0.019898 0.051114 
-0.002918 0.052604 0.046136 
0.053897 -0.018815 0.031181 
-0.000783 0.051628 0.014341 
-0.038549 -0.012775 0.003000 
-0.010298 -0.063959 0.078000 
0.009107 -0.053745 0.021612 
-0.037133 -0.044967 0.065304 
-0.044532 0.029538 0.020012 
-0.005094 -0.051781 0.014749 
-0.022106 0.015287 0.000000 
-0.061324 -0.020472 0.061246 
0.007881 -0.039260 0.000880 
-0.058875 -0.008888 0.064609 
0.060128 0.015710 0.076370 
-0.020306 -0.043755 0.027957 
0.043620 -0.040841 0.066946 
0.018519 -0.025072 0.000000 
-0.042241 -0.048275 0.059794 
-0.017805 0.053178 0.027539 
-0.018210 0.056273 0.044324 
-0.004070 -0.039829 0.000000 
0.006825 -0.044049 0.017123 
-0.027784 -0.055129 0.047428 
-0.012719 0.025096 0.000000 
0.041080 0.027820 0.010391 
-0.036597 0.035352 0.013464 
-0.052385 0.027163 0.037449 
0.046907 -0.020631 0.040294 
0.010536 0.044929 0.020107 
-0.034263 -0.033300 0.026841 
-0.052525 0.025678 0.063365 
0.011616 -0.048320 0.031608 
0.056643 0.024897 0.075246 
-0.044649 -0.019024 0.029336 
-0.037106 0.001184 0.003000 
-0.035634 -0.029860 0.019880 
-0.029322 0.005974 0.000000 
-0.032819 -0.026666 0.005154 
-0.004818 -0.051949 0.015196 
0.020052 -0.064188 0.073094 
0.014071 -0.062747 0.058474 
-0.020412 0.012213 0.000000 
0.013372 0.019578 0.003000 
0.050465 0.000000 0.026923 
0.024252 0.017830 0.003000 
0.054152 0.040997 0.077361 
-0.018255 -0.045736 0.008498 
-0.016314 -0.055523 0.056035 
0.011005 0.025743 0.003000 
-0.058477 -0.004684 0.058790 
-0.040291 -0.029050 0.010657 
-0.058880 0.011165 0.067703 
0.052288 -0.025020 0.061924 
-0.064595 -0.002204 0.061544 
0.021689 -0.049302 0.046153 
0.046009 -0.027032 0.043566 
0.006660 -0.062178 0.050284 
0.045752 0.048394 0.069724 
-0.054570 -0.006206 0.047987 
-0.043331 0.048870 0.078000 
-0.041913 0.033449 0.042722 
-0.057940 0.032230 0.069323 
-0.049353 -0.038797 0.072847 
-0.002738 0.038497 0.003000 
0.033795 0.044242 0.056549 
-0.022776 0.039404 0.020863 
0.019864 0.030518 0.003000 
0.045137 0.000000 0.008291 
0.013190 0.043647 0.015758 
-0.047353 -0.025093 0.020373 
0.036464 0.039725 0.021004 
0.002227 -0.046736 0.026234 
0.053413 0.026637 0.066609 
-0.035348 0.054169 0.078000 
0.053417 -0.015138 0.054898 
-0.063030 0.022212 0.071307 
0.028856 0.059861 0.070366 
0.038615 0.052291 0.078000 
-0.045060 -0.027721 0.040437 
-0.047639 -0.034702 0.038421 
0.040241 0.004429 0.000000 
0.059088 0.014336 0.071417 
-0.057029 0.005073 0.029944 
-0.014357 -0.000676 0.003000 
0.047284 -0.040769 0.052886 
0.044955 -0.048248 0.078000 
0.015691 -0.063054 0.062025 
0.007359 0.057621 0.033084 
-0.028556 0.004134 0.003000 
-0.023711 0.059378 0.057476 
0.044789 -0.003842 0.001314 
-0.014225 -0.044455 0.005929 
-0.031900 -0.051925 0.074054 
0.032624 -0.040775 0.044558 
-0.004692 -0.046510 0.025467 
-0.008718 -0.046726 0.005919 
0.021634 -0.034237 0.003973 
0.013828 0.054810 0.027945 
-0.060210 -0.024956 0.063724 
0.043075 0.044936 0.051931 
0.052385 0.037662 0.073682 
0.023025 0.040784 0.025198 
-0.039373 -0.029711 0.027015 
0.020345 0.062874 0.071716 
0.041570 0.010021 0.010898 
-0.038620 -0.028510 0.022093 
-0.009291 0.054520 0.023584 
-0.037212 -0.023252 0.009691 
-0.047646 -0.021056 0.041439 
-0.028832 -0.061458 0.078000 
-0.026187 -0.061288 0.078000 
-0.052766 -0.007489 0.043526 
-0.015129 -0.048133 0.011555 
-0.043165 0.039634 0.036920 
-0.058366 -0.021163 0.049379 
-0.067832 0.003109 0.078000 
0.021626 0.061066 0.061793 
-0.025689 0.039652 0.027435 
0.059687 0.000000 0.043906 
-0.018103 -0.056538 0.040342 
0.030118 0.027269 0.001403 
-0.053221 -0.011288 0.048762 
0.048708 -0.023811 0.049466 
0.055471 0.008208 0.052686 
-0.002646 -0.066940 0.072877 
-0.046751 0.013716 0.032582 
-0.057898 0.000660 0.033274 
0.048551 -0.035147 0.060938 
-0.045252 -0.000000 0.005835 
-0.040454 -0.008894 0.000000 
-0.044496 0.016430 0.005688 
0.016535 -0.056019 0.057716 
0.043684 0.044582 0.077464 
-0.029604 -0.003922 0.000000 
-0.052686 0.001351 0.017162 
0.049548 -0.037141 0.050627 
0.019504 0.060265 0.068405 
-0.044137 0.015127 0.025508 
-0.002328 -0.053683 0.019820 
-0.036848 0.040636 0.023305 
0.058154 0.015864 0.070069 
-0.023830 -0.050216 0.025327 
0.015098 -0.025520 0.003000 
0.040118 0.023504 0.004478 
-0.016088 0.036724 0.003000 
0.040544 0.023461 0.020851 
0.008499 -0.014114 0.000000 
0.001290 0.039620 0.002102 
0.062511 0.005942 0.073226 
-0.040907 -0.040725 0.033566 
0.031212 0.022784 0.003000 
0.001163 -0.067997 0.077986 
-0.024518 -0.018025 0.003000 
-0.010382 0.045585 0.022333 
0.057357 0.019844 0.044304 
-0.013983 -0.038555 0.000728 
-0.041325 0.029790 0.023940 
-0.012915 0.048030 0.030623 
-0.008284 -0.037593 0.000000 
-0.040104 -0.051825 0.067066 
-0.038325 0.027292 0.016103 
-0.026921 -0.055452 0.047069 
-0.006303 0.059217 0.068563 
-0.037634 0.014887 0.003299 
-0.047312 -0.034170 0.039493 
0.018107 -0.056152 0.045489 
0.045229 0.019065 0.031280 
0.014108 -0.017562 0.000000 
-0.052621 -0.038109 0.064426 
-0.044888 -0.018390 0.007262 
-0.047814 0.007645 0.007328 
0.024587 0.031692 0.002739 
0.019298 0.055667 0.037844 
-0.016163 -0.052550 0.023836 
0.024864 -0.039402 0.025077 
0.015072 0.048598 0.011814 
0.038416 0.015867 0.006375 
-0.050413 -0.044833 0.073099 
-0.019878 0.041290 0.020248 
0.014940 -0.028394 0.003000 
-0.039224 -0.028458 0.009788 
-0.020639 -0.063859 0.075705 
0.028394 0.040301 0.034700 
-0.040301 0.045361 0.045177 
-0.052738 -0.009256 0.018974 
-0.019652 0.026811 0.000000 
0.056144 0.008462 0.028126 
-0.037193 0.030798 0.007667 
-0.014886 0.055702 0.056643 
0.003144 0.043211 0.014281 
-0.000501 -0.048408 0.007346 
-0.027249 0.062279 0.077802 
-0.046210 0.023768 0.015813 
0.064450 -0.014196 0.066494 
0.041872 0.024021 0.007478 
0.017013 -0.052446 0.043384 
-0.016905 0.056086 0.036310 
-0.030466 -0.034901 0.004287 
0.022503 0.020994 0.003000 
-0.054364 -0.032174 0.054106 
-0.025418 -0.038524 0.003435 
-0.012726 0.062633 0.056525 
-0.038032 0.040629 0.055074 
0.016037 -0.018063 0.003000 
0.041660 -0.011173 0.013242 
0.036262 -0.014288 0.000000 
-0.047211 -0.015446 0.033721 
0.039886 0.039899 0.056791 
0.001033 0.032826 0.003000 
-0.033762 0.028573 0.012457 
-0.031385 0.047063 0.029227 
0.046456 0.007233 0.023605 
-0.044402 -0.048998 0.078000 
-0.000831 -0.058031 0.064541 
0.018877 -0.058631 0.047662 
-0.001343 -0.047593 0.029141 
-0.027247 -0.060650 0.070297 
0.043907 -0.038006 0.034662 
-0.032883 0.050760 0.043610 
-0.046337 0.000891 0.017603 
-0.039266 0.012829 0.006785 
-0.018977 -0.031707 0.003000 
0.040817 0.017037 0.000480 
0.053467 0.032595 0.051913 
-0.017311 -0.054545 0.036384 
0.027962 -0.032067 0.010622 
-0.037530 -0.026854 0.010547 
0.018084 0.051804 0.023775 
0.044346 -0.010551 0.021699 
-0.006727 -0.052122 0.044501 
0.009175 -0.060897 0.046509 
0.044947 0.023273 0.035079 
-0.020262 0.036100 0.000000 
0.005520 0.009242 0.003000 
0.000849 -0.057602 0.063085 
0.054434 -0.006876 0.049253 
-0.047581 0.034336 0.039916 
0.005888 0.043118 0.000000 
0.041220 0.037863 0.026238 
0.048223 0.046135 0.078000 
-0.000763 0.051556 0.014149 
-0.044378 0.023414 0.011003 
-0.054177 -0.002311 0.043216 
-0.015999 0.010212 0.000000 
0.049158 -0.042733 0.078000 
-0.041515 -0.019054 0.019091 
-0.052230 -0.000000 0.032975 
0.047861 0.009696 0.008056 
0.016733 -0.059292 0.068818 
0.040211 0.033506 0.017180 
-0.036678 -0.054175 0.065682 
0.029157 -0.050666 0.035909 
-0.059937 0.012187 0.044583 
0.039937 -0.029708 0.028144 
-0.007453 -0.028876 0.003000 
0.046657 -0.033547 0.047247 
0.019641 0.039934 0.016006 
-0.023516 0.036048 0.012899 
-0.010142 0.017489 0.000000 
0.023659 -0.063717 0.077392 
-0.037992 -0.034709 0.038363 
0.011877 -0.019922 0.000000 
0.053375 0.038545 0.075359 
-0.018802 -0.042417 0.004025 
-0.006956 -0.045695 0.003640 
-0.031482 0.033104 0.003233 
-0.041697 0.010224 0.000000 
0.036282 -0.029648 0.005383 
0.034842 -0.016411 0.000000 
0.024427 -0.019148 0.000000 
0.056570 0.000000 0.046420 
-0.020071 -0.002305 0.003000 
0.057912 -0.024128 0.052002 
0.025202 -0.041603 0.008282 
-0.038013 0.016885 0.000000 
-0.001471 -0.045172 0.020931 
-0.045546 -0.016876 0.029867 
-0.045082 0.040189 0.068089 
0.033400 0.030356 0.016770 
0.020707 -0.059441 0.053884 
0.048018 0.035004 0.040343 
0.030389 0.037027 0.029556 
-0.019796 0.008759 0.000000 
0.031746 -0.059884 0.078000 
-0.028340 -0.039751 0.008810 
0.033016 0.044400 0.024824 
0.014208 -0.024707 0.000000 
-0.032940 0.011316 0.000000 
0.024907 0.038528 0.022727 
0.065933 0.000000 0.070252 
-0.006505 0.036537 0.000000 
-0.052597 -0.015641 0.023387 
0.012515 -0.066436 0.074336 
-0.062534 -0.009273 0.077038 
-0.038442 -0.015400 0.003000 
0.044321 0.013295 0.022461 
-0.011387 -0.027918 0.000000 
-0.060317 -0.010196 0.044845 
-0.017516 0.051511 0.022461 
-0.020710 -0.059810 0.073352 
-0.015523 0.047155 0.027740 
0.045940 0.033126 0.043905 
-0.008744 -0.066851 0.073753 
0.036856 -0.018572 0.004300 
0.021954 -0.060579 0.061031 
0.046116 0.007365 0.022664 
0.020331 0.035734 0.003000 
-0.049996 0.035244 0.047106 
0.046615 0.028589 0.023573 
0.006988 -0.067472 0.075501 
-0.023710 -0.056429 0.045545 
0.056323 -0.017323 0.066297 
-0.008387 -0.059204 0.039807 
-0.032213 0.035882 0.030003 
0.009771 0.054195 0.022948 
0.031118 -0.045952 0.055892 
-0.029873 0.023762 0.000000 
0.010067 -0.060023 0.071296 
-0.029769 0.053045 0.044185 
-0.016855 0.025310 0.003000 
-0.031166 -0.051953 0.072653 
0.039245 0.016474 0.009514 
0.051527 0.033204 0.046794 
0.047002 0.017760 0.010292 
-0.002257 -0.055915 0.057364 
-0.053935 -0.039049 0.076225 
0.066599 0.000140 0.078000 
-0.024631 -0.053149 0.035740 
-0.032025 -0.012856 0.003000 
-0.006589 0.037349 0.000000 
-0.038629 -0.033367 0.035853 
0.059636 -0.025794 0.063021 
-0.046529 -0.033577 0.043174 
0.039946 0.011560 0.003000 
-0.006664 -0.027291 0.003000 
-0.001221 -0.060064 0.071434 
-0.052137 0.023119 0.059425 
-0.044857 0.043099 0.075714 
0.017326 0.038258 0.006642 
-0.034510 0.046875 0.035582 
0.000466 -0.006145 0.000000 
0.042365 -0.039167 0.033278 
-0.033102 -0.037793 0.011738 
0.015075 -0.045790 0.021988 
-0.052492 0.029367 0.067200 
0.040486 -0.017029 0.000534 
-0.060670 -0.015685 0.078000 
0.056275 0.035329 0.071045 
0.003801 0.059612 0.039847 
0.000236 -0.039827 0.002806 
-0.054698 -0.018581 0.033677 
-0.023847 -0.017810 0.003000 
0.057781 0.007308 0.059250 
0.051315 -0.001471 0.033752 
-0.043726 -0.001249 0.000000 
-0.027197 0.057353 0.055475 
0.001288 -0.055806 0.025483 
0.043355 0.038194 0.059058 
-0.042900 0.007262 0.013578 
0.052319 -0.037663 0.072626 
-0.011744 -0.052768 0.046692 
0.021995 -0.019725 0.000000 
0.051784 -0.037232 0.070262 
-0.007735 0.036479 0.003000 
-0.054114 -0.008374 0.022134 
-0.054166 -0.024209 0.038429 
-0.048184 -0.045505 0.068399 
0.037914 -0.027145 0.010482 
0.064147 -0.019376 0.071936 
0.030042 -0.050141 0.065352 
-0.040774 -0.032232 0.036976 
0.022467 -0.045545 0.012413 
0.060932 -0.013733 0.049766 
0.006201 0.062781 0.052822 
0.045991 -0.038467 0.065144 
0.014219 -0.066869 0.078000 
0.001483 0.055281 0.055213 
-0.028850 0.044191 0.046420 
-0.020627 -0.063813 0.075361 
0.023139 0.049972 0.050942 
0.058162 -0.030028 0.078000 
0.057936 -0.032750 0.070463 
0.027266 0.005556 0.000000 
0.015096 0.015072 0.000000 
0.014973 0.065264 0.071275 
-0.026207 -0.039704 0.028625 
0.052914 0.031020 0.045832 
-0.025816 0.054985 0.070266 
-0.019873 -0.059661 0.071249 
-0.019566 -0.062310 0.064221 
-0.038987 0.028155 0.007366 
-0.005322 0.048763 0.008073 
0.018595 -0.002869 0.000000 
-0.040066 0.038451 0.053133 
0.022538 -0.035915 0.000000 
0.055286 0.009133 0.053117 
0.030376 0.053661 0.075801 
-0.055361 -0.015948 0.061006 
-0.043880 0.023786 0.010357 
0.000144 0.047204 0.027821 
-0.023515 -0.060932 0.065353 
0.061030 0.026950 0.078000 
-0.046838 0.038775 0.046072 
0.035886 0.036707 0.039760 
0.053062 -0.013438 0.051977 
0.064401 0.016833 0.069746 
0.056238 0.014026 0.061724 
-0.008058 -0.040683 0.000000 
-0.007437 -0.041772 0.009402 
0.028382 0.028406 0.001113 
0.017097 -0.052432 0.044468 
0.013633 0.042478 0.011795 
0.049203 -0.008601 0.009876 
-0.022033 -0.043341 0.030295 
-0.015008 -0.016526 0.000000 
