
# .PCD v.6 - Point Cloud Data file format
FIELDS x y z 
SIZE 4 4 4 
TYPE F F F 
COUNT 1 1 1 
WIDTH 1649
HEIGHT 1
VIEWPOINT 0.000000 0.000000 0.000000 1.000000 0.000000 0.000000 0.00000
POINTS 1649
DATA ascii
-0.036748 -0.044519 0.019760 
0.064197 0.051946 0.046012 
0.064282 0.000454 0.012050 
0.068602 -0.008832 0.019250 
0.084404 -0.031695 0.065746 
0.009482 -0.036771 0.000000 
-0.030075 -0.058936 0.014293 
-0.036105 -0.074674 0.045565 
0.035779 0.013637 0.003000 
0.053492 -0.065422 0.050636 
-0.009544 -0.081349 0.043082 
0.052513 -0.042562 0.017016 
0.087168 0.028525 0.069153 
-0.041589 -0.058077 0.046449 
-0.021225 -0.002419 0.000000 
0.041663 -0.028667 0.000000 
-0.037825 -0.009343 0.003000 
0.015285 -0.048501 0.003000 
-0.046440 0.021915 0.000000 
-0.053680 -0.072182 0.064972 
0.016009 0.092244 0.075483 
0.018472 -0.016836 0.000000 
0.055644 0.040329 0.030889 
-0.001321 0.082225 0.067573 
0.003189 -0.084303 0.048799 
0.025991 0.063460 0.037196 
0.054661 -0.060537 0.065310 
-0.061560 -0.010819 0.028032 
0.024621 -0.084064 0.058217 
0.075441 0.007825 0.051424 
-0.067259 -0.009402 0.017333 
-0.013893 -0.081389 0.065923 
0.014412 0.038404 0.000000 
0.072129 -0.010781 0.047385 
0.051052 0.004693 0.004824 
0.043193 0.063777 0.034138 
-0.072442 -0.020226 0.029578 
0.065361 -0.067079 0.077000 
0.034184 -0.046530 0.019855 
-0.046675 0.057686 0.052187 
0.048811 -0.018971 0.002966 
0.019561 -0.064882 0.033331 
0.038958 -0.033583 0.003000 
-0.036356 0.045599 0.021785 
0.094493 0.004253 0.077000 
0.077999 0.021089 0.041485 
-0.051882 -0.057394 0.057127 
-0.048409 -0.069521 0.072478 
0.019567 -0.060716 0.016530 
0.089324 -0.030520 0.077000 
-0.051455 -0.060610 0.061761 
-0.048696 -0.050134 0.042019 
0.091027 0.001704 0.066526 
-0.026289 0.050143 0.003910 
0.021306 0.066511 0.030369 
0.054301 -0.060245 0.064433 
-0.000060 -0.080541 0.041082 
0.062866 -0.063193 0.063581 
-0.028005 0.086774 0.068692 
-0.056803 -0.000000 0.005620 
-0.054553 -0.010895 0.015235 
0.064034 -0.000000 0.018769 
0.014493 0.020452 0.003000 
-0.069468 -0.050345 0.058293 
-0.014441 0.079736 0.062658 
0.012690 -0.000116 0.003000 
0.016515 0.045780 0.000000 
-0.000023 -0.009794 0.003000 
-0.023998 -0.074005 0.036031 
0.046428 0.056575 0.049586 
-0.058559 0.027803 0.012302 
-0.062451 -0.025593 0.038770 
-0.076012 -0.000000 0.035905 
-0.026698 -0.082364 0.055835 
0.090902 -0.021655 0.075014 
-0.060366 0.044234 0.037036 
-0.081499 0.019934 0.069986 
0.064165 -0.017319 0.036872 
0.030780 0.059185 0.015655 
-0.032750 0.038733 0.000000 
0.041099 -0.060532 0.049800 
0.065759 -0.036627 0.051478 
-0.074805 0.056164 0.074815 
0.076541 -0.030916 0.067627 
-0.078245 -0.011913 0.037468 
-0.057891 -0.060805 0.049345 
0.014617 0.072300 0.026485 
0.006678 -0.066288 0.015262 
-0.029642 -0.078229 0.047197 
0.026079 0.080284 0.049302 
-0.006279 0.004202 0.000000 
-0.064892 0.064867 0.070735 
0.017707 0.042733 0.003000 
0.009020 -0.022076 0.000000 
0.051403 -0.057655 0.056994 
0.064115 -0.058762 0.073289 
0.075045 -0.030493 0.041744 
-0.060991 -0.071291 0.076107 
-0.078170 -0.019810 0.063855 
-0.010940 0.078723 0.060658 
-0.090011 -0.001109 0.074054 
0.071101 -0.045503 0.049346 
-0.011948 -0.089842 0.066285 
-0.054978 0.065705 0.073974 
-0.020665 -0.044539 0.000000 
0.012827 -0.079916 0.041447 
0.070323 0.060304 0.072882 
-0.006920 0.077598 0.035195 
0.088544 -0.010182 0.061692 
-0.043080 0.074371 0.074177 
-0.032890 -0.039433 0.007617 
0.072939 0.054280 0.067606 
-0.058190 -0.042305 0.024847 
-0.019406 -0.043226 0.000000 
0.006857 0.035454 0.000000 
0.051266 0.066725 0.071290 
-0.011717 0.001189 0.000000 
0.015630 -0.045192 0.003000 
0.001810 0.055464 0.014736 
0.022175 -0.069526 0.040420 
-0.004978 0.064441 0.012305 
-0.031369 -0.086099 0.069711 
0.061341 -0.000000 0.019710 
0.022487 0.072450 0.030752 
-0.005181 0.088515 0.059904 
0.076021 -0.048435 0.065192 
0.041287 0.041305 0.005728 
0.059229 -0.072540 0.077000 
0.023389 -0.043034 0.000000 
-0.060708 0.040465 0.044617 
0.055111 -0.049402 0.048294 
0.067584 -0.029654 0.050569 
0.024928 -0.062127 0.033857 
-0.020429 0.048229 0.002552 
0.064765 -0.000000 0.017028 
-0.036827 -0.032020 0.000000 
-0.071286 -0.052328 0.068085 
-0.079775 -0.018778 0.044145 
0.051725 -0.037702 0.014487 
0.071960 0.021185 0.053207 
-0.089394 0.024359 0.077000 
-0.025365 -0.042945 0.004274 
0.009403 -0.071431 0.046262 
0.046078 0.036468 0.018306 
0.019965 -0.061639 0.016069 
-0.044785 0.032494 0.006784 
0.047432 -0.023973 0.000894 
0.050253 -0.071605 0.058038 
0.011957 -0.031414 0.000000 
-0.031790 -0.040444 0.000000 
-0.040259 -0.059204 0.023623 
0.007897 -0.060514 0.024708 
0.052000 0.003219 0.000825 
0.018060 -0.036022 0.000000 
0.031754 -0.059552 0.016162 
-0.014359 -0.080522 0.064209 
-0.011357 -0.068603 0.040678 
0.087201 0.002274 0.056438 
-0.038998 -0.078982 0.059309 
-0.020522 0.078291 0.041965 
0.049572 0.010368 0.000000 
-0.015765 -0.076179 0.035172 
0.024537 0.076184 0.044788 
0.073230 -0.007818 0.047530 
0.030272 0.066089 0.046279 
-0.040130 0.059305 0.023464 
-0.083695 -0.012170 0.069272 
-0.051668 0.051254 0.047743 
-0.079731 0.050113 0.076545 
0.075135 0.035413 0.045876 
0.023294 -0.071894 0.030041 
0.057028 -0.040514 0.021049 
0.014820 -0.050236 0.001111 
0.080762 -0.039419 0.065062 
-0.001811 0.029928 0.000000 
0.007165 0.025504 0.000000 
0.021157 0.047784 0.006761 
-0.005867 -0.092920 0.072713 
0.026858 0.089028 0.077000 
0.066059 0.030301 0.024834 
-0.011340 0.025227 0.000000 
-0.071199 -0.052375 0.066937 
0.011798 -0.064926 0.014284 
-0.028465 -0.026450 0.003000 
-0.040503 0.021049 0.003000 
-0.055490 -0.001048 0.010727 
-0.041190 0.016266 0.000000 
0.080515 -0.008955 0.041107 
-0.067179 0.059060 0.064160 
-0.073036 0.018342 0.053627 
-0.023299 0.068502 0.042232 
-0.076798 0.045174 0.076738 
-0.072155 0.052158 0.062302 
-0.023904 0.031566 0.000000 
-0.024563 0.076053 0.039201 
-0.070540 -0.004501 0.040502 
-0.044707 0.068121 0.066252 
-0.009243 0.063515 0.030631 
-0.063724 -0.021700 0.038727 
-0.056603 -0.065149 0.055594 
0.021646 0.067598 0.034678 
0.024641 0.084496 0.059404 
0.071772 0.057105 0.070203 
-0.068914 0.008077 0.039783 
0.034888 -0.071417 0.038229 
0.052254 -0.015264 0.013782 
0.022898 -0.074131 0.051592 
-0.057585 0.060918 0.048972 
0.086740 0.025889 0.066257 
0.030172 -0.067434 0.026953 
0.067136 -0.042903 0.038866 
-0.065593 -0.018488 0.017655 
-0.078153 -0.009262 0.036530 
-0.017730 0.006676 0.003000 
-0.011364 0.071587 0.046569 
0.028635 -0.025386 0.000000 
-0.075092 -0.041686 0.071521 
0.045854 -0.033372 0.012684 
-0.013547 -0.086108 0.075240 
0.054629 0.057080 0.038113 
0.013930 -0.071375 0.024790 
0.033819 -0.069831 0.056294 
-0.013433 -0.031435 0.000000 
0.019004 0.074103 0.051537 
0.021750 -0.068178 0.036723 
0.076423 -0.034781 0.069755 
0.044017 -0.002025 0.000000 
0.072401 -0.049986 0.059390 
0.081628 -0.015329 0.046345 
-0.013507 0.092562 0.074907 
0.056339 -0.052278 0.054069 
-0.085581 0.005438 0.052168 
0.037348 -0.078369 0.073934 
-0.038249 -0.066165 0.031357 
0.025282 -0.078560 0.057846 
0.019156 -0.052181 0.003074 
-0.020810 0.065315 0.033730 
0.050771 -0.039596 0.028446 
-0.018300 -0.022743 0.003000 
-0.070094 -0.051797 0.057303 
-0.001116 -0.032494 0.000000 
0.079714 -0.048743 0.074357 
0.006250 0.015209 0.003000 
-0.008760 0.030043 0.003000 
0.053751 0.069705 0.059968 
0.061499 0.020008 0.012565 
0.049203 -0.006519 0.000000 
-0.034645 0.041391 0.013109 
-0.037582 0.080416 0.061474 
0.057506 0.041689 0.034859 
0.071362 0.018688 0.050585 
0.010881 -0.088542 0.061983 
0.035625 -0.044266 0.004324 
-0.076391 -0.022482 0.062239 
-0.058611 -0.042934 0.040011 
0.046092 -0.033822 0.006131 
0.081008 0.020733 0.069518 
-0.019349 0.002398 0.000000 
-0.083595 0.011087 0.048330 
0.066210 0.047765 0.043847 
-0.039796 0.048337 0.029918 
0.006166 0.072113 0.024581 
0.044835 0.020250 0.000000 
-0.065957 0.010412 0.035836 
0.042295 -0.023229 0.000560 
0.047768 -0.032546 0.016280 
0.049428 -0.065065 0.044005 
0.072949 0.022477 0.055810 
0.006317 -0.085960 0.053167 
-0.018195 -0.017936 0.003000 
-0.064815 0.037451 0.027992 
0.045115 -0.021213 0.004455 
-0.078958 0.028886 0.070791 
0.060035 0.040742 0.043510 
0.084748 0.007865 0.049971 
0.033622 -0.062062 0.020954 
0.064579 -0.043785 0.053670 
0.015737 0.087704 0.062914 
0.050214 0.043147 0.015027 
0.030148 0.008269 0.003000 
0.029987 -0.070743 0.033019 
0.045343 -0.004753 0.000000 
-0.006618 0.091650 0.069281 
-0.018724 0.028954 0.003000 
0.054849 0.076413 0.077000 
-0.073597 -0.028622 0.060879 
0.003323 -0.070359 0.044145 
0.032508 -0.081296 0.073063 
-0.014677 -0.015930 0.000000 
0.033700 -0.030418 0.000000 
-0.042815 0.053091 0.018381 
0.019121 -0.055754 0.017066 
-0.045884 0.043597 0.029338 
-0.026476 -0.060113 0.032418 
0.041661 -0.077101 0.057915 
0.015955 0.079334 0.061865 
0.023208 -0.071163 0.033007 
0.008642 -0.062216 0.028067 
0.038102 -0.084526 0.073157 
0.057372 -0.024787 0.009102 
0.073106 -0.050486 0.073244 
0.008045 0.055613 0.015031 
-0.021005 0.032405 0.003000 
0.009426 0.077177 0.057606 
-0.021720 0.023389 0.000000 
-0.031491 0.050879 0.024278 
0.011953 0.092986 0.075296 
0.061578 -0.018034 0.032600 
0.044910 -0.047188 0.033198 
0.038985 -0.030683 0.003000 
0.057244 -0.041740 0.026347 
0.001580 -0.013047 0.000000 
-0.047689 0.017610 0.000000 
-0.024527 -0.063778 0.017692 
-0.022095 0.067445 0.022614 
-0.028550 -0.052801 0.023139 
-0.042363 -0.030394 0.000866 
0.069963 0.020932 0.049391 
0.046483 -0.040625 0.025069 
0.053567 0.032786 0.009417 
0.065662 0.010936 0.015222 
0.052006 0.037988 0.012245 
0.014213 0.002096 0.000000 
-0.079296 0.048536 0.073049 
-0.053040 -0.062652 0.066827 
0.019769 0.081336 0.065817 
-0.061183 0.000565 0.020859 
-0.016122 -0.056376 0.016537 
0.003885 -0.077461 0.058166 
-0.029648 0.042471 0.008827 
0.080210 0.042806 0.077000 
-0.022806 0.087130 0.065455 
0.052890 -0.050124 0.046830 
0.018676 0.011570 0.003000 
0.064861 0.001502 0.012977 
0.017637 -0.085786 0.074602 
-0.012459 0.062872 0.011230 
-0.029405 0.027595 0.000000 
-0.042881 -0.018689 0.000000 
0.002992 -0.027165 0.000000 
0.060965 -0.057470 0.048841 
-0.066126 -0.050987 0.063373 
0.077199 0.025286 0.041942 
-0.057376 0.004556 0.016403 
-0.049929 0.056242 0.053575 
-0.029517 -0.039202 0.003386 
-0.049095 -0.010524 0.003000 
0.024171 -0.074269 0.041010 
-0.043029 0.021533 0.000000 
0.011705 -0.088075 0.061125 
0.071333 0.059100 0.072837 
0.002837 0.083417 0.046834 
0.034828 -0.072941 0.062404 
0.006943 -0.090827 0.067012 
0.069535 -0.002154 0.037176 
-0.023614 -0.072859 0.032164 
0.048967 -0.046787 0.037262 
-0.002063 0.055370 0.014551 
0.048025 -0.079200 0.077000 
0.048792 -0.035954 0.015728 
0.083838 -0.019357 0.073890 
0.090278 -0.017705 0.071033 
-0.052234 0.066651 0.050948 
0.084200 -0.000000 0.057466 
0.048336 0.007532 0.003000 
0.074029 -0.052191 0.066533 
0.026208 0.082867 0.055922 
-0.025408 0.078356 0.060279 
0.074229 -0.000000 0.041246 
-0.000551 0.092565 0.077000 
-0.044072 -0.005792 0.003000 
0.051767 -0.000311 0.003436 
0.044518 0.050630 0.016706 
0.046225 -0.023958 0.002604 
0.016638 0.048058 0.001973 
-0.036645 -0.083800 0.069520 
0.009951 -0.048757 0.003000 
-0.024877 -0.077208 0.051267 
0.057645 0.000155 0.014110 
0.013493 0.060930 0.025528 
-0.030303 -0.027475 0.000000 
0.046532 -0.060617 0.033225 
-0.040599 -0.066549 0.058816 
-0.023357 0.072398 0.031109 
0.048895 -0.069356 0.072771 
0.011247 0.088503 0.062330 
-0.040025 -0.029075 0.000000 
-0.007101 -0.007920 0.000000 
-0.037414 -0.074354 0.067611 
-0.016509 -0.087175 0.077000 
0.091110 0.001711 0.076414 
0.024815 0.038448 0.000000 
-0.062783 0.064870 0.066664 
-0.039086 -0.001101 0.003000 
0.058163 0.042100 0.030376 
-0.062215 -0.000000 0.012143 
0.083661 -0.006415 0.065722 
-0.049027 0.011752 0.003000 
0.047292 0.025377 0.001411 
-0.031743 0.041443 0.001360 
0.055439 0.065649 0.074344 
0.073277 -0.050509 0.062177 
-0.020643 0.044127 0.003000 
0.021663 0.071036 0.027435 
-0.002485 0.074047 0.028094 
0.012450 0.075778 0.054845 
-0.058791 0.062684 0.054717 
-0.015688 0.079705 0.062598 
-0.029607 -0.078904 0.048708 
0.030360 0.045587 0.014027 
0.049347 -0.002825 0.003000 
0.000963 0.044980 0.000000 
0.011157 0.087364 0.059042 
0.073961 -0.003511 0.027921 
-0.064307 -0.038498 0.049972 
-0.040132 -0.019838 0.000000 
0.004555 -0.039967 0.003000 
0.046564 0.076154 0.062796 
0.018966 0.074647 0.052612 
0.052000 -0.002582 0.001754 
-0.070237 -0.051036 0.063319 
0.048136 0.075223 0.063218 
0.084937 0.015281 0.073390 
-0.053483 -0.060405 0.063753 
-0.048894 -0.049052 0.019542 
0.009762 0.066089 0.035714 
-0.032559 0.053353 0.029454 
0.075393 0.048202 0.076011 
-0.008211 0.012198 0.003000 
0.013082 0.088386 0.077000 
-0.007567 0.051680 0.007266 
0.029941 -0.087396 0.071133 
-0.017656 -0.055262 0.009359 
0.002231 -0.087774 0.077000 
-0.007810 -0.060238 0.024162 
-0.048275 0.020168 0.000000 
0.014445 -0.049781 0.003516 
-0.065245 0.019975 0.040446 
0.046569 0.012553 0.000000 
-0.028773 0.083286 0.059275 
0.020820 -0.065270 0.024102 
-0.017799 0.055346 0.008250 
-0.056881 -0.065791 0.076220 
0.041966 0.082674 0.072793 
-0.020227 -0.082062 0.050118 
0.009283 0.084649 0.050037 
-0.016600 0.068598 0.021634 
-0.042316 0.054766 0.020024 
0.049665 -0.059293 0.034930 
-0.018941 -0.081435 0.066013 
0.017398 -0.032991 0.000000 
0.011589 0.070040 0.043514 
0.078073 0.027494 0.045386 
-0.065096 0.047625 0.044081 
-0.052166 -0.021362 0.003593 
0.022736 0.070548 0.029775 
-0.069914 -0.009076 0.042248 
-0.028064 0.082831 0.057398 
0.023242 0.090269 0.074253 
-0.015542 0.085126 0.073300 
0.043754 -0.054968 0.043970 
-0.055713 0.067308 0.077000 
0.001250 -0.063158 0.029928 
-0.078327 -0.006408 0.055985 
-0.047692 0.066460 0.043868 
0.071074 -0.025706 0.030355 
-0.085708 0.005396 0.068828 
0.086823 -0.027775 0.067621 
0.038770 0.038289 0.002039 
0.013843 -0.075371 0.032458 
0.048275 -0.037922 0.023037 
-0.059965 0.020680 0.010701 
-0.049958 0.016106 0.001996 
-0.027013 0.083954 0.070411 
0.033156 0.021650 0.003000 
0.051328 0.033584 0.008257 
-0.092343 0.014762 0.075071 
0.033699 -0.083364 0.077000 
-0.076470 0.035711 0.048859 
0.078656 0.031376 0.049751 
-0.036672 -0.063916 0.050132 
-0.060792 0.023278 0.034349 
-0.004755 0.073228 0.026456 
-0.002217 0.057138 0.018041 
-0.016159 0.058924 0.008161 
-0.004027 0.080496 0.064158 
-0.050785 -0.007597 0.006243 
0.007738 -0.000495 0.003000 
-0.064977 0.002286 0.028902 
0.075007 -0.000000 0.041394 
-0.027473 -0.085393 0.067044 
-0.041979 0.025681 0.001530 
-0.081216 -0.002775 0.058984 
-0.048240 -0.009011 0.002470 
-0.016999 0.062139 0.027916 
0.026482 -0.039791 0.000783 
-0.008456 0.078695 0.060602 
0.010107 0.005226 0.003000 
-0.069909 -0.003979 0.039016 
-0.045693 -0.067661 0.043527 
-0.037651 0.007834 0.000000 
0.070587 -0.016266 0.047914 
-0.027849 0.086470 0.071128 
0.078568 -0.030156 0.048349 
0.066484 -0.048293 0.048533 
-0.086143 -0.017462 0.076934 
-0.069594 -0.050823 0.066486 
0.015661 -0.010376 0.003000 
0.073116 -0.053709 0.066957 
0.067733 0.047133 0.061401 
0.006739 0.022012 0.000000 
0.054469 -0.047522 0.044708 
0.049339 -0.025818 0.015057 
-0.037765 0.066767 0.032024 
-0.001497 0.016554 0.000000 
-0.077087 0.049190 0.068881 
-0.027359 -0.039879 0.001927 
-0.056813 -0.009505 0.004909 
0.024258 -0.043870 0.003000 
0.000342 -0.038108 0.000000 
0.056633 0.075122 0.076307 
0.015105 0.077106 0.057466 
0.060708 -0.044511 0.044465 
0.027346 0.007195 0.003000 
0.050826 -0.001063 0.002187 
0.062153 -0.056990 0.050210 
-0.044959 0.074479 0.076446 
0.020130 0.062754 0.018223 
0.027833 -0.071960 0.033571 
0.003592 -0.050652 0.005235 
-0.037226 -0.039328 0.001703 
0.005510 -0.089533 0.062885 
-0.075718 0.016977 0.034758 
-0.029905 -0.053796 0.026273 
0.021348 0.051412 0.012693 
0.070964 -0.060595 0.074727 
-0.039772 0.017648 0.003000 
-0.041672 0.046946 0.029847 
-0.019655 0.072886 0.030295 
-0.070396 0.051546 0.067161 
-0.037329 0.035105 0.000000 
-0.040764 0.037857 0.014662 
0.048326 -0.024838 0.012621 
-0.004666 0.031388 0.003000 
-0.027331 0.057458 0.029662 
0.004128 -0.073636 0.050614 
0.085085 -0.007338 0.068872 
0.058361 0.020443 0.027842 
-0.045079 0.020450 0.003907 
-0.039287 0.041614 0.018867 
0.087015 0.001330 0.055949 
0.061031 0.025762 0.035978 
-0.006379 -0.011764 0.003000 
-0.071668 -0.024622 0.030502 
0.016780 -0.090783 0.071710 
0.047685 -0.048279 0.017429 
-0.049950 0.034428 0.007926 
-0.035305 -0.072417 0.040482 
0.067629 0.031025 0.051279 
0.074575 -0.056589 0.075094 
-0.082700 0.041233 0.072186 
0.073522 -0.010359 0.027696 
-0.051282 -0.037324 0.014213 
0.059797 -0.028450 0.014251 
0.074835 -0.000260 0.029669 
0.017071 0.047558 0.001715 
0.073557 0.021223 0.032370 
0.005179 -0.037541 0.003000 
-0.028951 -0.038914 0.003000 
0.013231 0.077640 0.036890 
0.002652 0.051967 0.003000 
-0.072988 -0.015894 0.028499 
-0.049398 -0.069817 0.052688 
-0.018434 -0.054575 0.014401 
0.070576 -0.027292 0.054580 
-0.037761 -0.026235 0.003000 
-0.008055 -0.072098 0.024594 
-0.029405 -0.059380 0.034597 
0.050144 -0.070716 0.076366 
-0.063318 0.022709 0.016702 
-0.061727 -0.000000 0.019679 
0.061309 -0.035605 0.042763 
-0.067812 -0.052333 0.067352 
0.050151 0.059832 0.059033 
0.017681 -0.090085 0.070269 
-0.004112 0.071117 0.022987 
0.066571 -0.022377 0.044314 
0.031656 0.038120 0.004208 
-0.010129 -0.055084 0.003475 
0.056372 0.021108 0.024661 
0.046686 -0.051477 0.041759 
-0.060373 -0.013777 0.027726 
0.039265 -0.000308 0.000000 
-0.014366 0.045915 0.003000 
0.087950 0.010421 0.075943 
-0.067947 -0.049224 0.054778 
0.025500 0.079361 0.059781 
-0.038211 0.067085 0.033061 
-0.069370 0.052368 0.069278 
0.022673 -0.050835 0.013288 
-0.073656 0.031015 0.039461 
-0.056628 -0.038010 0.018045 
-0.011971 0.083440 0.048492 
-0.054656 -0.067662 0.076657 
0.056223 0.011543 0.004688 
-0.066355 0.007997 0.015542 
0.009822 -0.062256 0.028146 
-0.042050 0.027566 0.002852 
-0.051020 0.066546 0.070857 
-0.032318 -0.057535 0.034989 
0.025928 -0.060400 0.032248 
-0.051521 0.036142 0.009961 
-0.025164 0.055992 0.024758 
-0.042244 0.059668 0.050320 
-0.085885 0.004573 0.052970 
0.037125 0.067973 0.033950 
0.004090 -0.046313 0.000000 
0.042915 0.052846 0.039629 
0.048931 -0.066178 0.067749 
0.046500 -0.074838 0.059375 
-0.026643 0.082239 0.055628 
-0.057666 0.025628 0.030089 
0.070762 0.032451 0.057895 
0.034132 0.039155 0.000000 
-0.042011 -0.060628 0.027343 
0.045903 -0.077703 0.077000 
0.054276 -0.017660 0.004375 
-0.055425 0.048649 0.026360 
0.049242 -0.051215 0.044284 
0.049632 0.053120 0.024669 
0.060154 -0.019779 0.031067 
0.059403 0.036633 0.039808 
-0.018071 -0.060971 0.010933 
0.046770 0.020598 0.006997 
-0.052141 -0.022572 0.018185 
0.073221 0.014702 0.051555 
-0.085063 0.001903 0.050804 
0.028720 -0.069039 0.028799 
0.043554 0.020580 0.000000 
0.035950 -0.069506 0.058213 
-0.060814 0.009400 0.025769 
0.039939 0.066749 0.034686 
-0.041794 0.024185 0.003000 
0.074319 -0.017830 0.055651 
0.054457 -0.039677 0.032342 
-0.039551 0.050624 0.033209 
-0.029986 -0.063840 0.042368 
-0.070996 -0.047437 0.052337 
0.062465 0.059584 0.072712 
-0.000649 0.083529 0.047058 
-0.025023 -0.077098 0.043182 
-0.057861 -0.045850 0.046079 
-0.010264 -0.051123 0.000819 
-0.003947 0.012304 0.003000 
-0.078909 0.029625 0.071151 
0.059870 0.062783 0.074842 
-0.086131 -0.028268 0.066199 
-0.053176 -0.038858 0.017817 
0.013014 0.019833 0.003000 
-0.060833 -0.063792 0.060808 
0.049745 -0.009512 0.000000 
-0.054471 -0.000572 0.008559 
-0.040631 0.043851 0.023858 
0.079361 -0.044685 0.067521 
0.001301 -0.094294 0.075346 
-0.020126 0.062644 0.023687 
0.001232 0.070113 0.043660 
0.075394 0.015499 0.033372 
0.047289 0.034457 0.010996 
-0.024904 0.015377 0.003000 
-0.000372 -0.083135 0.046270 
0.021790 0.068338 0.028524 
0.034916 -0.053005 0.010415 
0.010431 -0.070784 0.044984 
0.032494 -0.022153 0.003000 
0.073532 -0.029176 0.037904 
0.068915 0.053937 0.071086 
0.079915 -0.030506 0.052432 
-0.082530 -0.042713 0.077000 
-0.008543 0.059938 0.023570 
0.027228 -0.012731 0.000000 
-0.032458 -0.081870 0.059853 
-0.054318 -0.053720 0.032346 
-0.039109 0.054325 0.038484 
0.002207 -0.011501 0.000000 
0.027957 -0.060237 0.014593 
0.023213 -0.042820 0.001608 
-0.070808 0.045565 0.066080 
0.004332 -0.090088 0.064140 
-0.075052 -0.000000 0.030628 
0.043722 0.016382 0.003000 
0.025000 -0.076665 0.041342 
-0.081616 -0.006971 0.062339 
0.053128 0.034859 0.010519 
0.075849 0.001589 0.031698 
0.072395 -0.035387 0.040517 
-0.017471 -0.068427 0.021497 
-0.039796 -0.062933 0.052137 
0.000256 0.094833 0.076594 
0.078613 -0.039033 0.076317 
-0.074265 -0.030095 0.039722 
0.082423 0.002364 0.044846 
0.045766 0.071299 0.050281 
-0.039201 -0.074583 0.048464 
-0.039589 0.016555 0.003000 
-0.060210 -0.026287 0.013484 
0.082256 -0.000000 0.048119 
-0.034313 0.063652 0.047661 
0.048103 -0.035077 0.006870 
0.053268 0.024654 0.005676 
-0.043047 -0.032753 0.009191 
0.092793 0.001169 0.071181 
-0.064739 -0.046804 0.040535 
0.034420 -0.061466 0.020680 
-0.009836 0.090947 0.068226 
0.044682 -0.020403 0.003148 
-0.068530 0.040844 0.038922 
-0.040568 -0.028261 0.003000 
0.001984 0.080109 0.063395 
0.005675 0.065157 0.013451 
-0.000063 0.071782 0.024052 
-0.033311 0.019319 0.000000 
0.033980 -0.073001 0.040473 
0.024773 0.077063 0.053511 
0.071552 -0.047066 0.052841 
0.048944 -0.025398 0.002635 
0.033448 0.078366 0.051022 
-0.034834 -0.032956 0.000045 
0.052740 0.033584 0.025872 
0.077506 0.037947 0.073618 
0.074819 -0.009523 0.030020 
-0.043834 -0.032742 0.010080 
0.079676 -0.021234 0.045149 
0.063058 0.030037 0.042303 
0.006970 0.053302 0.001439 
-0.042067 0.009917 0.003000 
0.058181 -0.042704 0.033386 
-0.041343 -0.082498 0.071575 
0.062360 0.042702 0.048933 
0.009081 -0.067715 0.017966 
0.085207 0.033284 0.069225 
-0.029292 -0.083791 0.061444 
-0.045072 -0.052576 0.019631 
0.083186 0.021550 0.053974 
-0.072068 -0.001459 0.041379 
0.078699 -0.045207 0.066429 
0.029125 0.065305 0.043719 
0.000922 0.080170 0.040339 
-0.050217 0.027867 0.004874 
-0.042591 -0.010146 0.003000 
0.052121 -0.033314 0.008765 
0.065901 0.054341 0.068286 
0.048060 0.009591 0.002470 
0.031554 0.078532 0.067569 
0.037642 0.038709 0.001567 
0.084875 -0.028861 0.077000 
-0.013369 -0.011670 0.003000 
-0.076163 -0.045344 0.060806 
-0.057708 0.021103 0.008520 
-0.063768 -0.047858 0.055920 
-0.023969 0.033544 0.003000 
-0.076346 0.019237 0.037137 
0.042045 -0.076372 0.056560 
-0.008983 -0.080173 0.040507 
0.059258 -0.015945 0.008400 
-0.066678 -0.011809 0.017013 
0.068305 -0.000000 0.028522 
0.032729 -0.014059 0.003000 
-0.019912 0.061790 0.019561 
-0.051310 -0.037308 0.013259 
-0.050288 0.014562 0.002118 
0.077989 -0.000000 0.037758 
0.034593 -0.072217 0.060983 
0.019776 -0.079801 0.062786 
0.055189 0.031043 0.028714 
0.049212 0.076158 0.077000 
0.086253 -0.001806 0.053939 
-0.053103 0.069193 0.057756 
-0.086659 0.013468 0.058684 
-0.075633 0.021467 0.060246 
0.018391 0.062580 0.028786 
0.071576 0.058626 0.072499 
0.071481 0.035844 0.039573 
0.008113 -0.013343 0.003000 
-0.062373 -0.004175 0.025324 
-0.072002 0.035524 0.039897 
0.027818 0.084887 0.062515 
-0.083823 -0.012031 0.049644 
-0.022772 -0.071054 0.041548 
-0.000781 -0.021045 0.003000 
-0.006192 0.028414 0.003000 
0.030100 -0.005967 0.000000 
0.046680 0.075858 0.062303 
0.014786 0.090763 0.070763 
0.027335 0.046921 0.002108 
-0.087635 -0.022408 0.066587 
-0.048316 0.071197 0.075085 
-0.022112 0.013234 0.000000 
0.014084 0.055761 0.015324 
0.066382 -0.048871 0.055707 
0.033374 -0.035452 0.000000 
-0.081868 0.030770 0.077000 
0.035626 -0.065639 0.027971 
0.063953 -0.014025 0.034447 
-0.045774 0.068242 0.067634 
-0.090223 0.005992 0.065004 
0.001094 0.006636 0.000000 
0.038909 -0.020123 0.003000 
0.005540 0.079914 0.063009 
-0.047882 0.021669 0.009815 
-0.076942 0.038686 0.054022 
-0.025278 0.041236 0.001650 
0.030404 0.033731 0.003000 
-0.045328 -0.030690 0.010715 
0.029829 -0.029486 0.003000 
0.002977 -0.084303 0.048799 
-0.038311 -0.069303 0.060588 
0.040738 -0.010829 0.000000 
-0.046784 0.078257 0.067859 
-0.018418 -0.083002 0.069107 
0.008558 0.016719 0.000000 
0.046821 -0.018436 0.003000 
-0.049830 -0.016424 0.000017 
-0.069290 -0.050960 0.066975 
-0.048164 0.055744 0.050823 
0.071945 -0.052651 0.070957 
-0.020716 0.064521 0.028739 
0.049075 0.018314 0.002885 
-0.006916 0.091259 0.068244 
-0.063681 -0.062717 0.064235 
-0.074796 0.012118 0.053054 
-0.034466 0.070430 0.036036 
-0.047364 -0.053739 0.046138 
0.008513 -0.082034 0.067196 
-0.078967 0.005151 0.056363 
-0.019085 0.054287 0.014794 
0.070460 -0.001947 0.038741 
0.078532 0.051494 0.075919 
-0.030294 0.033134 0.003000 
0.018697 0.047340 0.003256 
-0.059611 -0.000000 0.012508 
0.063697 0.006719 0.029217 
-0.002487 -0.029397 0.000000 
-0.072105 0.009155 0.046314 
-0.021397 0.082821 0.052889 
-0.019230 -0.084404 0.071874 
0.000035 -0.088243 0.059185 
-0.030065 0.080539 0.069237 
0.017152 -0.072474 0.028120 
-0.026226 -0.042831 0.005092 
-0.054779 -0.074439 0.071600 
-0.035299 0.077198 0.050138 
0.031164 0.033279 0.003000 
-0.073462 0.019073 0.054845 
0.049908 -0.041359 0.012818 
-0.009108 -0.085154 0.073356 
0.047759 -0.055446 0.049310 
-0.047883 -0.028554 0.003329 
-0.033926 -0.071403 0.058922 
0.071040 0.032188 0.058244 
-0.074672 0.042085 0.052419 
-0.056526 0.056572 0.061467 
0.001697 0.090192 0.064326 
0.066046 0.047812 0.050111 
-0.017521 0.061694 0.011801 
-0.074091 -0.035192 0.065763 
-0.072457 -0.010499 0.025711 
-0.047211 -0.004495 0.000000 
0.028648 -0.055452 0.009021 
0.063535 0.064710 0.067807 
-0.070273 0.028062 0.030761 
-0.053510 0.056753 0.035841 
0.037188 -0.083424 0.069098 
0.062346 0.024075 0.015451 
0.020204 0.005363 0.003000 
-0.093847 0.005672 0.075319 
0.038695 0.078206 0.075213 
0.000201 -0.093375 0.072715 
0.043556 0.048038 0.012767 
-0.006729 -0.070814 0.022503 
-0.013988 -0.058745 0.021214 
0.014876 0.032510 0.000000 
-0.071729 -0.056943 0.069828 
0.014489 -0.086543 0.058563 
-0.026889 0.042943 0.000000 
-0.062054 0.035153 0.043845 
-0.070773 0.055531 0.075777 
-0.037032 -0.057717 0.018850 
-0.018475 0.057525 0.013326 
0.018175 -0.091153 0.073554 
0.090040 0.013845 0.077000 
0.063608 0.064259 0.067075 
0.084200 0.013337 0.051634 
0.064405 -0.022664 0.040548 
0.062359 -0.015485 0.032448 
-0.061648 -0.044691 0.043094 
-0.034878 0.018946 0.000000 
0.076482 -0.022714 0.062545 
-0.034759 -0.013096 0.000000 
-0.030243 0.017115 0.000000 
-0.032075 -0.031002 0.000000 
-0.018687 -0.082281 0.067682 
0.080449 0.004587 0.058626 
-0.083880 -0.002343 0.047759 
-0.076920 0.000241 0.049505 
0.036895 0.019916 0.003000 
-0.049122 0.054244 0.049557 
-0.018875 -0.060894 0.025458 
-0.069652 0.051296 0.062937 
0.035830 -0.037966 0.008780 
-0.047513 0.016836 0.006084 
0.086989 -0.025267 0.066557 
0.014534 0.017751 0.003000 
0.018544 0.053607 0.003991 
-0.051898 0.078021 0.077000 
-0.053138 0.038956 0.027227 
0.049340 0.052479 0.023673 
0.018185 -0.057555 0.018388 
0.062883 -0.067279 0.071515 
0.012036 -0.063723 0.012458 
0.070671 -0.011682 0.045282 
-0.070926 0.029493 0.056550 
0.017250 0.068372 0.040221 
-0.007325 -0.050201 0.000000 
-0.037872 -0.069263 0.036903 
-0.012307 0.090741 0.069046 
0.043701 0.079905 0.067557 
0.044138 0.053352 0.019824 
0.091567 0.015373 0.077000 
-0.057398 0.064322 0.074523 
-0.053516 0.053889 0.031351 
0.063873 -0.005312 0.011396 
0.075429 0.007475 0.030859 
-0.029668 -0.070274 0.031881 
-0.007610 0.004417 0.003000 
0.017248 -0.003252 0.003000 
-0.064260 -0.013894 0.013784 
-0.073189 -0.030876 0.038328 
0.050613 0.047732 0.040587 
-0.078534 -0.000229 0.037068 
-0.049834 -0.036289 0.015271 
0.009034 0.057209 0.018182 
0.001620 -0.093032 0.071814 
-0.053893 -0.000000 0.003724 
0.040181 0.054821 0.039651 
-0.049552 -0.011444 0.006414 
0.016847 -0.053007 0.010089 
0.002808 -0.088972 0.077000 
-0.022189 0.086709 0.063937 
0.031148 0.055326 0.010538 
-0.022797 0.070883 0.039794 
0.060457 0.000207 0.019297 
0.084450 -0.037701 0.077000 
0.021860 -0.029265 0.003000 
-0.030913 -0.051361 0.007227 
0.044219 -0.020127 0.002125 
-0.055131 0.044083 0.022025 
0.034383 0.084466 0.068547 
-0.021066 0.065330 0.026239 
0.000973 -0.051244 0.003000 
-0.057813 0.056799 0.063260 
-0.064918 0.044578 0.054768 
-0.088235 0.006166 0.073890 
-0.020393 0.003439 0.003000 
-0.060772 0.044272 0.046762 
-0.009061 0.063533 0.030667 
0.055769 0.045756 0.024240 
0.000023 0.067872 0.017795 
0.031305 -0.054019 0.028228 
-0.042590 -0.067669 0.062876 
-0.002349 0.081078 0.042156 
0.052891 -0.058965 0.038368 
0.033546 -0.016716 0.003000 
-0.085500 0.031203 0.077000 
0.049295 -0.048327 0.019197 
0.036765 0.012255 0.003000 
0.026962 -0.089703 0.074961 
-0.009344 0.025853 0.000000 
0.061171 0.019172 0.011766 
0.063502 -0.004019 0.027294 
0.059852 -0.061258 0.054013 
0.012799 0.053153 0.010174 
0.062296 0.050947 0.058903 
-0.009881 -0.005135 0.000000 
0.005127 -0.061595 0.026842 
0.040635 -0.030366 0.003000 
-0.021699 -0.045031 0.003215 
0.032321 -0.080596 0.071735 
0.039048 0.014398 0.003000 
-0.012400 -0.025443 0.000000 
0.058193 -0.035222 0.036864 
0.030785 -0.071151 0.034427 
-0.076546 -0.042046 0.074384 
0.010359 -0.069790 0.043020 
0.013623 -0.049503 0.000000 
0.074330 0.036974 0.045832 
0.019147 0.060229 0.021641 
0.023252 0.072137 0.038260 
-0.033677 0.039992 0.002221 
-0.022252 0.069250 0.038060 
0.002919 -0.084448 0.071961 
0.079205 0.028890 0.071198 
0.062363 0.050412 0.058171 
0.086782 0.034714 0.077000 
0.011573 0.069263 0.041981 
-0.065947 0.054702 0.053871 
0.061535 -0.062557 0.076387 
-0.075645 -0.048746 0.076807 
-0.041198 0.026676 0.000727 
-0.049052 -0.043506 0.013860 
0.036655 0.081992 0.064606 
0.020465 0.066034 0.019208 
-0.052347 0.065778 0.049339 
-0.053810 -0.060370 0.042173 
0.044570 -0.043386 0.027049 
-0.035350 -0.074474 0.044459 
-0.041329 0.017869 0.003000 
0.017897 0.076169 0.055617 
0.073927 0.040564 0.048552 
-0.037676 0.059970 0.045682 
0.087251 0.004584 0.071096 
0.005594 -0.001729 0.003000 
0.004076 -0.088417 0.059644 
0.050324 0.059531 0.036208 
-0.020425 -0.073243 0.049839 
0.049425 -0.036203 0.012494 
-0.059784 0.052479 0.039395 
-0.038010 0.051278 0.011357 
-0.032426 -0.055979 0.012477 
0.069351 0.013124 0.021463 
-0.049199 -0.060337 0.058749 
0.019688 0.009900 0.003000 
0.074962 -0.046638 0.074287 
-0.063905 0.024541 0.040777 
-0.069884 -0.054703 0.062029 
-0.041862 0.050168 0.035083 
0.039461 -0.016129 0.003000 
0.003570 -0.028349 0.003000 
0.052223 0.052498 0.027134 
0.005761 0.073981 0.051296 
-0.012357 0.049348 0.003000 
-0.049416 -0.054380 0.049504 
0.050314 0.036740 0.014888 
-0.053888 0.039188 0.027557 
-0.015568 -0.084000 0.071077 
0.006326 0.068556 0.018890 
0.079464 0.016161 0.042247 
-0.011896 -0.076392 0.034445 
-0.028282 0.087650 0.070695 
0.013883 0.048680 0.000000 
-0.086407 -0.025889 0.065352 
-0.077179 -0.005552 0.034358 
0.084779 -0.013711 0.072179 
0.024404 -0.022092 0.003000 
-0.012465 0.078956 0.061119 
-0.046396 -0.021896 0.003000 
0.049043 -0.035666 0.020337 
-0.013398 -0.057288 0.018338 
-0.084722 0.005928 0.067356 
0.049977 0.007256 0.000000 
0.055788 -0.012316 0.004431 
-0.059987 -0.003649 0.007261 
0.064001 -0.058074 0.055877 
-0.020803 -0.089246 0.077000 
-0.020686 -0.083053 0.069206 
-0.064193 -0.033236 0.046573 
0.047384 -0.037072 0.007421 
0.003480 0.060960 0.025588 
-0.063721 0.056785 0.069846 
-0.019159 -0.063953 0.015656 
0.010449 0.071741 0.024566 
0.002277 0.045299 0.003000 
0.021006 0.036504 0.000000 
-0.079768 0.004897 0.057670 
0.054804 -0.051339 0.029368 
0.051805 0.036754 0.026157 
0.077744 0.036327 0.053029 
-0.049041 0.006118 0.002109 
-0.012849 0.075629 0.054549 
0.005285 0.064730 0.012769 
0.032353 -0.027443 0.000000 
-0.076393 -0.038494 0.071952 
-0.022911 -0.070438 0.028283 
-0.055193 -0.051334 0.051313 
-0.076485 0.044335 0.059855 
0.015727 0.092114 0.074974 
-0.026846 -0.030778 0.003000 
0.066491 -0.013496 0.038766 
0.075023 0.033043 0.066069 
-0.068669 -0.000000 0.026535 
0.071185 -0.057674 0.069997 
0.052822 -0.001800 0.000747 
-0.018054 0.056733 0.015550 
0.086579 -0.025831 0.077000 
0.011848 0.047116 0.000000 
-0.033789 0.011338 0.003000 
0.044323 0.062565 0.033468 
0.016911 0.053006 0.003350 
0.009293 -0.073897 0.051129 
-0.008819 0.068898 0.041261 
0.066559 0.001872 0.015694 
0.079751 -0.014575 0.063557 
-0.079822 0.026300 0.070794 
-0.071989 0.013451 0.025639 
0.065382 -0.066847 0.075511 
0.074180 0.019204 0.056065 
0.047731 -0.021498 0.009431 
0.075381 -0.025565 0.038632 
-0.032316 0.061361 0.041779 
0.020778 0.064635 0.024378 
0.061198 0.044497 0.045661 
0.000350 -0.075338 0.053974 
0.021575 -0.067242 0.032141 
0.046705 -0.026567 0.010721 
0.034165 0.031711 0.003000 
0.022712 -0.070749 0.040290 
0.069392 -0.034605 0.034199 
0.026346 -0.058186 0.010499 
0.041924 0.055319 0.020323 
0.032396 0.025229 0.003000 
0.050630 0.023755 0.015937 
0.058271 -0.042352 0.027993 
0.092538 0.012793 0.074530 
-0.013231 -0.058197 0.006806 
0.055907 0.038848 0.034873 
0.040550 -0.060432 0.049014 
0.043986 0.079688 0.067369 
0.042493 -0.027252 0.000000 
-0.010990 -0.075321 0.031879 
0.053610 -0.030531 0.008330 
0.072566 0.044155 0.068354 
0.083463 0.005321 0.064600 
0.073032 0.002095 0.043507 
-0.090990 -0.016469 0.072304 
0.059297 0.042681 0.043386 
0.021671 -0.045791 0.004333 
0.057577 -0.040665 0.039044 
0.077427 -0.038392 0.054915 
-0.066694 -0.005484 0.034072 
0.057809 -0.073871 0.075802 
0.036249 -0.036055 0.000000 
0.017839 -0.056009 0.011395 
0.062803 0.045537 0.045615 
0.018905 0.026343 0.003000 
-0.062353 -0.004203 0.025305 
0.004414 -0.042134 0.003000 
0.043158 0.036188 0.003756 
-0.074760 0.029481 0.040472 
0.060026 0.008308 0.023458 
-0.014331 -0.054814 0.013452 
0.023771 0.085827 0.074685 
-0.006089 0.056504 0.016789 
0.029506 0.025975 0.000000 
-0.031098 -0.047172 0.017276 
0.052093 0.017475 0.014667 
0.053901 0.057861 0.038197 
0.023627 -0.072129 0.032324 
-0.082446 0.000829 0.044893 
0.051454 -0.013404 0.011140 
0.011926 0.038444 0.000000 
-0.005961 -0.082581 0.045161 
-0.073279 -0.031813 0.039252 
0.077818 -0.039758 0.075310 
0.066045 -0.030754 0.025057 
0.000776 -0.026824 0.000000 
-0.056158 -0.041108 0.034643 
-0.040611 0.059753 0.048627 
0.043455 0.045109 0.028374 
0.010784 0.004152 0.003000 
-0.093547 -0.000888 0.073170 
0.068918 -0.004500 0.019468 
0.023898 -0.040695 0.003000 
0.064952 -0.055058 0.052442 
0.026084 -0.056439 0.026115 
-0.033527 0.070838 0.057986 
0.023829 -0.086646 0.064756 
-0.081498 -0.036872 0.063646 
-0.034956 0.076956 0.069121 
-0.051966 0.005139 0.006853 
-0.082943 0.043143 0.075008 
-0.073193 0.035951 0.064589 
-0.054746 0.012374 0.003527 
-0.047528 -0.032143 0.004931 
0.000746 -0.075542 0.031083 
0.039606 0.057261 0.042882 
-0.058681 -0.005363 0.019306 
0.055366 0.040107 0.029793 
-0.031930 -0.026751 0.003000 
0.051099 0.028288 0.019608 
0.031288 0.070575 0.054587 
-0.018146 0.091560 0.074696 
0.073505 -0.040145 0.047192 
-0.022984 0.074153 0.051635 
0.018121 0.056595 0.011854 
-0.042551 -0.074652 0.073958 
-0.087175 -0.000071 0.056372 
-0.029799 0.088522 0.073980 
0.079833 0.002003 0.055918 
0.052383 0.076183 0.071898 
-0.035988 -0.081247 0.061804 
0.012996 0.011104 0.000000 
-0.041215 -0.022893 0.003000 
-0.023923 -0.080842 0.049035 
-0.070409 -0.018752 0.025005 
-0.078090 -0.038574 0.075087 
-0.003458 0.057074 0.004613 
0.061346 -0.017620 0.031928 
0.067855 -0.027656 0.025777 
-0.031962 0.058739 0.015345 
0.043360 0.045078 0.028218 
-0.048039 0.039298 0.025046 
0.014978 0.008607 0.003000 
0.037516 0.080928 0.062774 
-0.024938 -0.077535 0.052619 
-0.031104 -0.062886 0.042126 
0.045031 0.049848 0.037366 
0.049418 0.005407 0.002318 
0.003536 -0.005428 0.000000 
-0.005535 -0.005573 0.003000 
0.008907 0.090078 0.065425 
0.084242 -0.036044 0.077000 
0.003833 -0.049238 0.003000 
0.016183 0.052293 0.002198 
-0.025090 -0.036991 0.003000 
0.056762 -0.056790 0.041010 
-0.031827 0.070898 0.034790 
0.001825 -0.060644 0.024963 
0.046942 0.052273 0.020896 
-0.052203 0.077336 0.077000 
-0.005867 0.046312 0.000000 
-0.084196 -0.011778 0.050520 
0.084214 -0.000000 0.056793 
-0.035857 0.071031 0.038357 
-0.027380 0.089220 0.073901 
0.037691 0.084590 0.072836 
-0.073266 0.027642 0.059685 
0.053881 0.068169 0.057015 
-0.047808 -0.061371 0.036098 
0.054795 -0.040170 0.024976 
0.086429 -0.010055 0.055619 
-0.020917 -0.065430 0.029536 
0.060183 0.004434 0.007440 
0.090377 0.027099 0.076877 
0.056838 -0.034265 0.014527 
0.073604 -0.001083 0.027208 
-0.026044 0.075890 0.040025 
-0.053952 0.032907 0.027747 
0.011194 -0.081047 0.065246 
0.063091 -0.050787 0.042747 
-0.046928 -0.059568 0.032009 
0.013993 0.089018 0.065555 
0.028933 -0.085563 0.065369 
0.040800 0.032600 0.000165 
-0.006641 -0.087045 0.077000 
0.069904 -0.001453 0.021047 
-0.064011 0.034260 0.046862 
0.018712 -0.075634 0.054558 
0.045853 -0.063174 0.036298 
-0.077457 -0.003421 0.052501 
0.019856 0.071027 0.045463 
0.016722 -0.079446 0.042503 
-0.059300 0.033251 0.037682 
0.022969 -0.043112 0.000000 
0.009032 0.083451 0.069993 
-0.055587 -0.060327 0.044722 
-0.041709 -0.024893 0.000000 
-0.019740 -0.082416 0.067949 
0.017756 -0.089511 0.068771 
-0.024323 0.085885 0.062985 
-0.068361 -0.056911 0.062792 
0.049800 -0.056723 0.030255 
0.042442 -0.031870 0.007158 
-0.019060 -0.060085 0.011357 
0.067567 0.048842 0.051222 
0.059154 0.032222 0.016101 
-0.067872 -0.040623 0.037514 
-0.093467 0.004211 0.073807 
-0.025760 -0.051546 0.017949 
-0.026307 0.057942 0.029199 
0.070581 -0.044194 0.064836 
0.025920 -0.079921 0.055565 
-0.088874 0.027397 0.072969 
0.084190 0.001633 0.063680 
-0.028382 -0.043381 0.008408 
-0.039641 -0.018677 0.003000 
-0.001078 0.053509 0.001372 
-0.076380 -0.021672 0.038378 
0.072519 -0.058563 0.074340 
-0.057537 0.071424 0.070250 
0.076483 0.044531 0.075767 
0.035487 -0.074757 0.045130 
0.037353 0.061207 0.046594 
-0.075488 0.021014 0.036216 
0.034420 0.018802 0.000000 
0.011563 -0.079343 0.061882 
0.090722 0.016205 0.071428 
-0.067746 0.049395 0.061734 
-0.078217 -0.025937 0.044428 
-0.055583 0.061795 0.068555 
-0.052019 0.017633 0.002386 
0.051899 0.058630 0.036491 
0.008569 0.024220 0.003000 
0.020261 0.040129 0.000000 
0.039806 0.063613 0.053231 
-0.059592 -0.067425 0.065616 
0.040786 -0.042582 0.021475 
0.075384 -0.000000 0.039896 
0.030511 -0.038546 0.003535 
-0.045328 0.015327 0.001124 
0.059634 -0.016249 0.008834 
0.025072 -0.045557 0.000094 
0.016623 -0.038645 0.000000 
0.023318 0.004351 0.003000 
0.061196 0.035143 0.042120 
0.072179 0.017344 0.027565 
0.003724 -0.029069 0.000000 
-0.073315 -0.053080 0.066395 
0.015713 -0.028985 0.000000 
0.034499 0.056486 0.035810 
-0.028817 0.006506 0.000000 
-0.066528 -0.029110 0.048318 
0.092903 0.010118 0.073980 
-0.020091 0.062524 0.023298 
0.042008 -0.047710 0.010843 
-0.068763 0.011208 0.041485 
0.064984 -0.000000 0.022799 
0.052545 0.050072 0.046354 
-0.058723 0.033502 0.036785 
0.035360 0.074651 0.065737 
-0.010391 -0.060780 0.008540 
-0.093056 -0.000000 0.072063 
-0.067847 0.058969 0.065384 
-0.023407 -0.082136 0.067396 
0.017453 0.050390 0.006613 
0.042935 -0.074491 0.052971 
-0.049512 0.026587 0.003742 
0.051075 -0.011760 0.009406 
-0.059377 0.024902 0.011677 
0.058710 -0.047360 0.049343 
-0.057454 0.073615 0.074642 
0.003750 -0.074375 0.052075 
-0.046647 -0.054470 0.023350 
-0.027445 -0.078159 0.045431 
-0.045325 -0.015555 0.001263 
-0.038009 0.083982 0.077000 
0.055423 0.012254 0.017431 
0.020138 -0.026195 0.000000 
0.090844 0.023289 0.077000 
0.014736 -0.085870 0.074769 
0.051521 0.037562 0.016734 
0.068561 -0.049898 0.050757 
-0.084257 0.027853 0.060910 
-0.034937 -0.079253 0.072586 
-0.022091 0.039515 0.003000 
0.024552 0.016722 0.000000 
0.068277 -0.000000 0.021764 
0.014084 -0.065720 0.034985 
-0.025068 0.077782 0.042997 
-0.045377 -0.059667 0.030208 
-0.036309 -0.072302 0.063080 
-0.001830 0.009516 0.003000 
-0.020660 0.006474 0.003000 
-0.002549 0.087932 0.058367 
-0.024370 0.032867 0.000000 
-0.057221 0.066784 0.060076 
0.023450 0.045602 0.003000 
-0.015624 0.004585 0.000000 
-0.063117 -0.000000 0.021463 
0.077502 -0.052135 0.074472 
-0.019720 0.060883 0.015747 
0.037269 -0.057897 0.041224 
-0.018289 -0.057584 0.014638 
0.011783 0.063861 0.031315 
0.069833 -0.042098 0.042580 
0.071027 -0.036416 0.060931 
-0.034996 0.056226 0.014523 
-0.030077 0.074908 0.060438 
0.074056 -0.038753 0.067858 
0.057688 0.050996 0.033577 
-0.063097 -0.054992 0.066118 
-0.073353 -0.028135 0.036439 
-0.055379 0.040447 0.033641 
-0.054753 -0.063932 0.049787 
-0.068657 -0.006203 0.019051 
0.083242 -0.023893 0.055540 
0.014097 0.078740 0.060692 
-0.084203 0.016516 0.053761 
-0.089369 0.006802 0.062784 
0.048216 0.027777 0.014081 
0.083714 0.017273 0.052838 
0.045671 0.077902 0.065356 
-0.014584 0.092680 0.075854 
0.019791 0.061405 0.018059 
0.032078 0.017119 0.003000 
0.066232 -0.033906 0.027700 
-0.042336 0.067738 0.063005 
0.044585 -0.023509 0.003000 
-0.006830 0.062641 0.028907 
-0.017603 0.054942 0.010159 
-0.026132 0.089618 0.074229 
-0.007670 0.084585 0.049542 
0.052459 0.065729 0.071067 
0.075707 -0.009298 0.053002 
-0.072254 0.033019 0.038297 
-0.012133 0.083869 0.049761 
0.049729 -0.065686 0.045372 
-0.091179 0.007350 0.068139 
-0.068336 0.034460 0.054850 
0.019430 0.060962 0.013506 
-0.001562 0.071794 0.024071 
-0.047768 -0.071076 0.052899 
-0.033348 0.028184 0.000000 
-0.016449 0.025016 0.000000 
0.072068 0.058560 0.073399 
-0.032805 0.012898 0.000000 
-0.048033 -0.041287 0.010578 
0.003851 0.005039 0.003000 
0.007908 -0.060781 0.025234 
0.070185 -0.002826 0.021496 
0.069389 0.050224 0.056446 
0.023594 0.073661 0.046604 
-0.036189 0.052879 0.011537 
0.071960 0.044923 0.067714 
-0.068979 0.035687 0.056764 
-0.026734 0.083110 0.056899 
-0.009739 -0.005687 0.000000 
-0.056628 -0.062403 0.070532 
-0.000498 0.081609 0.066356 
0.038763 -0.055625 0.039312 
-0.028465 -0.042919 0.000000 
0.076912 0.007317 0.053811 
0.056162 0.064755 0.073747 
0.025396 -0.055370 0.007655 
-0.043063 0.027512 0.000000 
-0.036182 -0.071461 0.061594 
0.045726 0.020925 0.005314 
-0.062960 0.045541 0.037545 
-0.002285 0.076369 0.056011 
-0.081269 0.033726 0.059159 
0.050728 -0.054132 0.027351 
0.004895 -0.084714 0.049883 
-0.038834 -0.056849 0.019430 
0.001332 -0.016088 0.000000 
0.081530 0.029030 0.075545 
-0.038706 0.060639 0.047876 
0.000482 -0.050238 0.004419 
0.011811 0.048134 0.000000 
0.007368 0.054069 0.011982 
0.072668 -0.050733 0.061175 
0.070460 0.031563 0.033775 
-0.036725 -0.083681 0.069276 
-0.087010 0.002118 0.055935 
0.012485 -0.070869 0.023681 
0.011881 -0.023815 0.003000 
-0.018556 0.090824 0.072853 
-0.041170 0.001771 0.000000 
-0.080171 -0.027976 0.072446 
-0.019454 -0.067521 0.020872 
0.030462 0.039644 0.005142 
-0.005325 -0.004554 0.003000 
-0.034006 -0.048291 0.022318 
0.044618 0.004972 0.003000 
0.047090 -0.056706 0.026817 
-0.068059 -0.056388 0.074015 
-0.025802 0.043987 0.006611 
-0.010155 0.063409 0.011471 
-0.020776 -0.031245 0.003000 
0.065456 0.005183 0.031503 
0.044727 0.019159 0.002409 
-0.019544 0.034758 0.003000 
-0.041816 -0.059088 0.024972 
-0.072483 0.053935 0.066049 
0.034526 -0.055424 0.013009 
-0.049315 0.043189 0.032538 
0.071295 0.028506 0.033124 
0.061681 -0.026504 0.037922 
0.068273 0.052577 0.068253 
0.053830 -0.058798 0.039558 
0.013328 0.070449 0.023177 
-0.002710 -0.076349 0.032698 
0.053505 -0.075966 0.073010 
-0.038489 -0.064960 0.029678 
-0.056643 0.047435 0.047353 
0.043533 0.072288 0.071315 
-0.021941 -0.051233 0.003008 
-0.082763 -0.021067 0.072973 
-0.018888 -0.015293 0.003000 
-0.067377 -0.022469 0.045836 
0.051628 0.037587 0.015510 
0.075847 0.008588 0.031788 
-0.026701 -0.003624 0.000000 
-0.034817 -0.005252 0.003000 
0.009190 -0.003769 0.000000 
-0.043221 0.052450 0.040162 
-0.081548 0.001271 0.043095 
0.091554 -0.019346 0.075422 
0.010159 0.001656 0.000000 
0.063330 0.043787 0.034101 
-0.066762 -0.058573 0.062432 
-0.065952 0.048078 0.058078 
0.027405 -0.076969 0.060337 
-0.013260 -0.078275 0.038887 
-0.071062 -0.051713 0.067030 
0.044685 -0.000911 0.003000 
0.041931 0.028892 0.003422 
-0.076634 0.029560 0.044114 
0.072626 0.051900 0.063017 
0.038596 0.037280 0.010925 
0.071369 -0.020009 0.051606 
-0.042238 0.078034 0.060996 
-0.042253 -0.072532 0.047524 
0.042280 -0.009769 0.000000 
-0.046165 0.041904 0.027012 
0.058787 -0.043114 0.039978 
-0.028529 -0.039369 0.003000 
0.025173 -0.027682 0.000000 
0.052925 -0.038957 0.025392 
-0.027966 0.043820 0.000119 
0.032394 -0.060977 0.018590 
0.066307 -0.058385 0.061157 
0.063965 -0.015288 0.035267 
-0.030704 0.077118 0.045861 
-0.081591 -0.024867 0.051640 
0.046940 0.080103 0.072527 
-0.063036 -0.000000 0.013043 
0.007388 0.025963 0.003000 
0.070814 0.022041 0.051628 
-0.058093 0.035447 0.036819 
-0.025141 0.043226 0.000000 
-0.086787 0.011833 0.074692 
-0.041258 -0.030418 0.003000 
0.010484 -0.066806 0.037130 
0.012981 0.078649 0.038874 
0.076064 0.011558 0.054848 
0.025150 0.042297 0.003000 
-0.014057 -0.024341 0.000000 
-0.071865 -0.017262 0.026882 
0.067446 0.039454 0.035175 
-0.045824 0.061603 0.033814 
0.032785 0.008922 0.003000 
-0.017101 0.076534 0.036601 
0.003368 0.024066 0.000000 
0.072571 -0.033169 0.039014 
-0.025469 -0.077898 0.059604 
-0.052000 -0.012653 0.011666 
-0.015650 -0.080543 0.044472 
0.056631 -0.045049 0.024663 
-0.064410 0.045249 0.037618 
0.033047 -0.041174 0.000535 
0.047024 0.078948 0.077000 
0.054837 0.024508 0.024006 
-0.046502 0.016796 0.003000 
0.013040 -0.069549 0.042545 
-0.041236 0.026646 0.003000 
-0.053739 -0.050470 0.048331 
0.083896 0.027468 0.059591 
-0.053696 -0.039234 0.018401 
-0.068742 0.024062 0.024904 
-0.004843 -0.076217 0.032435 
0.018896 -0.058396 0.011281 
-0.013491 -0.069582 0.042611 
-0.027834 0.085489 0.064101 
-0.026880 0.083113 0.059117 
0.049625 0.071729 0.057490 
0.048306 -0.008021 0.000000 
-0.007181 0.066954 0.016326 
-0.080645 0.021378 0.069308 
0.027206 0.084618 0.070646 
0.091279 -0.007909 0.068587 
0.055973 -0.073599 0.071980 
-0.006086 0.086898 0.076798 
0.010350 -0.026359 0.003000 
0.083517 -0.039919 0.072787 
-0.021934 -0.068267 0.031891 
-0.094509 -0.003389 0.076565 
-0.056743 0.070624 0.067183 
-0.058107 -0.041976 0.032156 
0.000072 0.052000 0.001910 
-0.013769 0.086415 0.057731 
-0.081251 0.006679 0.042501 
0.014667 -0.017374 0.003000 
0.056736 -0.003973 0.014861 
-0.041801 -0.006972 0.000000 
0.032170 -0.066669 0.049372 
-0.040582 -0.007762 0.000000 
0.056987 -0.004103 0.004534 
-0.074519 0.025990 0.060962 
-0.083003 -0.007280 0.046007 
-0.022225 -0.069178 0.036613 
-0.083569 0.023780 0.076083 
0.056726 0.039584 0.036811 
-0.055285 -0.040155 0.032403 
-0.065289 0.028628 0.045773 
0.080370 0.040383 0.065189 
-0.005248 -0.001976 0.000000 
0.051230 -0.056202 0.054482 
0.015060 -0.014251 0.000000 
-0.024891 0.086226 0.075472 
-0.065014 0.029664 0.022929 
0.028890 -0.027497 0.003000 
-0.029843 -0.083911 0.062377 
0.035531 0.080195 0.074765 
-0.076036 -0.000000 0.045799 
-0.038470 0.076764 0.072752 
-0.014212 0.061807 0.010316 
-0.048678 -0.028390 0.015415 
0.054606 0.076158 0.077000 
0.044415 0.068875 0.066884 
0.048598 0.001569 0.003000 
-0.055178 0.066950 0.076138 
0.008582 -0.076881 0.033827 
0.023785 -0.064723 0.036688 
-0.033228 -0.040329 0.000270 
-0.077710 0.013991 0.037904 
-0.007349 -0.078278 0.036557 
-0.057977 -0.032635 0.014665 
-0.018973 -0.059581 0.017714 
0.026698 0.000036 0.003000 
0.011504 -0.003006 0.003000 
-0.016652 -0.074851 0.053014 
-0.052092 0.070416 0.058495 
0.015451 0.033070 0.003000 
-0.023401 -0.072522 0.034124 
-0.026597 -0.071161 0.031075 
-0.043165 0.052519 0.040205 
0.073733 0.036860 0.044633 
0.055622 -0.073317 0.070771 
0.019613 0.032258 0.003000 
0.070252 0.015266 0.023510 
0.087240 -0.031294 0.072547 
0.084550 0.034213 0.068571 
-0.014749 0.049685 0.003327 
0.032541 -0.079060 0.051944 
-0.026571 0.068786 0.046597 
0.011666 -0.057167 0.018099 
-0.085606 -0.013819 0.073748 
0.013843 0.014793 0.003000 
0.037106 0.083438 0.069036 
-0.092334 -0.006156 0.077000 
0.023350 0.078891 0.060991 
-0.050650 -0.028551 0.019100 
0.020360 0.052850 0.003828 
-0.069874 -0.028295 0.053910 
0.074466 0.016137 0.031728 
0.013033 0.025878 0.000000 
-0.066530 -0.043289 0.056918 
0.010022 -0.032918 0.000000 
0.058692 -0.046004 0.047269 
0.011526 0.089042 0.064051 
