
# .PCD v.6 - Point Cloud Data file format
FIELDS x y z 
SIZE 4 4 4 
TYPE F F F 
COUNT 1 1 1 
WIDTH 1646
HEIGHT 1
VIEWPOINT 0.000000 0.000000 0.000000 1.000000 0.000000 0.000000 0.00000
POINTS 1646
DATA ascii
0.084666 0.116688 0.104523 
-0.033895 0.104651 0.047370 
-0.074320 0.076064 0.021939 
0.079117 0.044895 0.020170 
-0.115628 0.045216 0.088463 
-0.014281 0.137931 0.088809 
-0.033361 0.002325 0.000000 
-0.091485 -0.100633 0.109920 
-0.023746 0.110916 0.062785 
0.053513 -0.087027 0.044676 
-0.136698 -0.004805 0.103584 
0.093261 0.027604 0.036139 
0.085780 0.082726 0.074900 
0.042168 -0.098318 0.023232 
0.048349 0.033754 0.000000 
-0.059111 -0.115372 0.095991 
0.103523 0.003381 0.040551 
-0.038616 0.099578 0.023271 
-0.011371 0.110871 0.062697 
-0.109720 0.051226 0.047050 
0.109235 -0.097100 0.110266 
-0.007614 -0.132417 0.072727 
-0.091439 -0.104136 0.087764 
-0.036491 -0.018426 0.000000 
0.091574 0.064927 0.055489 
-0.032888 0.102286 0.029563 
0.000981 -0.082501 0.006887 
0.077232 -0.012193 0.000000 
0.034169 0.128595 0.097565 
0.084158 -0.061246 0.029895 
-0.029181 -0.079940 0.001996 
-0.076013 -0.110497 0.076178 
-0.116351 0.033893 0.048238 
0.026865 -0.088695 0.006942 
0.032196 0.022229 0.003000 
-0.015809 0.133003 0.075723 
-0.053110 0.051446 0.000000 
-0.129598 -0.042309 0.112903 
-0.016229 -0.115592 0.038935 
0.094299 0.068952 0.061689 
0.011438 -0.010226 0.003000 
-0.056080 -0.079033 0.034782 
-0.042113 0.056098 0.002129 
0.055699 -0.097160 0.030960 
-0.109597 -0.090899 0.115348 
-0.043602 0.072614 0.010303 
-0.022712 0.090465 0.007658 
0.056903 -0.022279 0.003000 
0.130554 0.031947 0.108483 
0.143741 0.005629 0.103516 
-0.043888 -0.049272 0.003000 
-0.081107 -0.107641 0.077891 
-0.032015 0.080455 0.001239 
0.022355 -0.120657 0.081948 
-0.080955 0.070879 0.050708 
-0.065619 -0.054733 0.001943 
0.089380 -0.034553 0.032907 
0.104077 0.076096 0.067066 
0.082625 -0.086354 0.043012 
0.102662 0.096052 0.115536 
0.040530 -0.139400 0.106450 
0.088584 -0.076423 0.038420 
-0.049379 -0.139711 0.115102 
-0.092208 0.077285 0.073796 
0.070697 0.116493 0.111140 
-0.123367 -0.051033 0.106484 
-0.098291 -0.068692 0.070278 
0.034564 -0.026231 0.003000 
-0.097678 -0.071259 0.049197 
0.108608 0.000000 0.036302 
0.089966 0.048741 0.016162 
-0.043953 0.026247 0.000000 
0.026526 -0.053874 0.003000 
-0.007638 -0.021046 0.000000 
-0.071092 0.085541 0.062590 
-0.106381 0.014040 0.024105 
0.133773 -0.014796 0.077449 
-0.004592 -0.019973 0.000000 
0.107095 0.008930 0.024205 
-0.092858 -0.085696 0.057582 
-0.062935 0.128241 0.120000 
0.054064 -0.117752 0.094032 
0.008180 -0.140043 0.093640 
-0.049537 -0.138077 0.120000 
-0.033628 0.060631 0.002147 
0.088661 0.000000 0.010378 
-0.040374 0.095456 0.042797 
0.112904 0.073938 0.078622 
0.029374 0.091513 0.014378 
0.097069 -0.050958 0.057214 
-0.068268 0.068796 0.010477 
-0.058810 -0.102501 0.040757 
0.018599 -0.068733 0.000000 
-0.076098 0.068970 0.042097 
0.138501 -0.030162 0.096636 
0.072371 -0.031901 0.003000 
-0.029361 -0.057864 0.000000 
0.104164 -0.076184 0.072616 
-0.004980 0.064004 0.000000 
0.075182 -0.101411 0.058792 
0.043742 -0.134360 0.106450 
0.100437 -0.039848 0.056741 
-0.041359 0.128343 0.084063 
-0.105340 -0.000000 0.025661 
0.055395 0.123209 0.079575 
-0.134325 -0.029715 0.085246 
-0.042256 -0.009997 0.003000 
0.099891 0.012854 0.039541 
-0.103069 0.032728 0.057380 
0.068627 0.017177 0.000000 
-0.139397 0.017665 0.116404 
0.062792 -0.056115 0.003000 
0.017926 -0.108414 0.057864 
0.015035 0.123006 0.053954 
0.115926 0.053837 0.094316 
-0.080181 0.009077 0.003000 
-0.062448 0.002807 0.000000 
-0.128081 -0.064441 0.120000 
0.116538 0.005681 0.038463 
-0.093552 0.101829 0.086530 
-0.036375 0.033629 0.003000 
-0.007145 0.141279 0.120000 
0.024856 0.004822 0.000000 
0.100633 -0.064232 0.044016 
-0.042126 -0.125751 0.092890 
-0.114835 -0.013181 0.067645 
0.011968 -0.135713 0.082216 
0.094746 -0.093332 0.072076 
-0.082163 0.018503 0.000000 
0.064191 -0.109772 0.060367 
0.050061 0.078920 0.007470 
0.136080 0.022862 0.086905 
-0.003034 -0.080982 0.003000 
0.022030 -0.112704 0.066303 
-0.028328 -0.075248 0.003000 
-0.087172 -0.081974 0.075322 
0.076535 0.055431 0.008500 
-0.123295 -0.082956 0.117200 
-0.048638 0.118455 0.088878 
0.039353 -0.135068 0.094401 
0.001695 -0.124801 0.055187 
-0.021983 -0.112757 0.066406 
-0.082049 0.124708 0.119052 
-0.092349 0.067527 0.057448 
0.050457 0.125910 0.081396 
0.112762 -0.009473 0.033085 
-0.029917 0.106402 0.029352 
-0.131024 0.029775 0.108013 
-0.027650 0.084591 0.009903 
0.136171 -0.010299 0.083103 
0.067450 -0.072568 0.012403 
-0.033598 0.102908 0.047032 
0.037266 0.021204 0.003000 
0.109999 -0.024605 0.032650 
-0.114312 -0.084703 0.099081 
-0.132079 -0.018706 0.074475 
-0.083891 0.097673 0.063152 
-0.072727 -0.122318 0.120000 
0.078060 0.029763 0.000000 
-0.021685 0.134096 0.081063 
-0.104483 0.014328 0.021248 
0.020179 0.023197 0.003000 
0.132828 -0.016791 0.103560 
0.064414 0.042678 0.002696 
0.044552 -0.079951 0.023046 
0.068479 0.041266 0.002689 
0.105910 0.000000 0.031683 
-0.092291 0.054841 0.050673 
-0.130043 -0.012412 0.068312 
-0.032142 -0.121182 0.057646 
-0.134087 0.037756 0.118572 
0.148720 0.008309 0.117877 
-0.064637 -0.108346 0.058378 
-0.112299 0.027175 0.071334 
0.115119 0.029222 0.042933 
-0.020228 -0.000851 0.000000 
0.095039 -0.082242 0.084906 
-0.021525 -0.036841 0.000000 
-0.025376 0.082668 0.007215 
-0.061242 0.061196 0.012666 
0.017113 0.049785 0.002492 
-0.072013 -0.117183 0.085532 
0.043179 0.079504 0.020630 
-0.138994 -0.038163 0.104174 
-0.062724 0.123679 0.113380 
0.010987 0.133532 0.075890 
-0.085203 -0.013760 0.012477 
0.055931 0.082522 0.013300 
0.068026 0.078211 0.047276 
-0.047968 0.060652 0.002070 
-0.089153 0.107822 0.118656 
0.004625 -0.107304 0.023895 
0.061106 -0.089373 0.057176 
0.050488 0.061348 -0.000000 
-0.123745 0.017101 0.056061 
0.035469 -0.131182 0.081363 
-0.084447 0.018753 0.014104 
-0.107330 -0.089506 0.091103 
-0.015088 0.033895 0.003000 
0.000269 0.011133 0.003000 
-0.027120 -0.120998 0.082620 
-0.079878 0.094599 0.052666 
-0.058838 0.006395 0.003000 
-0.031148 -0.096798 0.025369 
-0.093340 -0.111821 0.109619 
-0.087505 0.111617 0.098497 
-0.077388 -0.036224 0.001761 
0.082324 -0.065367 0.020370 
-0.060539 0.005790 0.003000 
0.073818 0.053550 0.008303 
0.105506 0.000000 0.039032 
0.113245 0.046262 0.050205 
0.024295 0.080652 0.003249 
0.090951 -0.117252 0.120000 
-0.093287 0.094446 0.102223 
0.020203 -0.093338 0.028207 
-0.137767 -0.020291 0.114932 
-0.029040 0.005694 0.003000 
0.104983 0.099773 0.106621 
-0.114033 -0.010489 0.035192 
-0.009222 0.091683 0.024950 
-0.085435 -0.016834 0.014778 
0.070509 0.061530 0.007338 
-0.089332 -0.047120 0.040463 
0.080044 0.058166 0.022608 
0.034041 -0.012181 0.000000 
-0.075209 -0.039170 0.009314 
-0.049512 -0.040089 0.000000 
0.069653 -0.116222 0.109537 
0.005851 0.130353 0.067999 
0.125289 0.061337 0.091923 
0.013904 0.122562 0.052600 
0.029718 0.111121 0.063188 
-0.079055 0.118638 0.100281 
-0.033487 0.103969 0.037189 
0.132482 0.046558 0.094132 
-0.069843 -0.014479 0.000000 
0.086829 -0.043843 0.033806 
-0.034556 -0.006403 0.000000 
0.009039 0.114161 0.035178 
-0.044367 -0.055311 0.000000 
0.097138 -0.000112 0.026577 
-0.029049 -0.012986 0.000000 
0.112653 -0.064606 0.066193 
-0.063407 0.091557 0.030564 
-0.094590 0.101645 0.088362 
0.103216 0.089728 0.106125 
0.038478 -0.035669 0.003000 
-0.069124 0.084101 0.058046 
-0.106333 -0.103784 0.118108 
-0.004204 -0.096249 0.033932 
-0.060772 -0.084621 0.049045 
-0.018851 0.089148 0.019963 
0.068394 0.041183 0.002694 
-0.064920 0.004255 0.000000 
-0.094625 -0.052700 0.053719 
0.029869 -0.144650 0.120000 
-0.068257 -0.086603 0.060830 
0.042330 -0.131872 0.104011 
0.060505 0.086513 0.021381 
-0.085318 -0.074754 0.032757 
-0.103815 -0.073281 0.060767 
-0.077957 0.047843 0.019710 
-0.004776 0.124973 0.056124 
0.105071 -0.044757 0.034064 
0.014043 -0.018545 0.000000 
0.084401 -0.022274 0.001864 
-0.135055 0.043653 0.097786 
0.104760 0.065084 0.052339 
0.034143 -0.105370 0.036591 
0.107307 -0.023505 0.028265 
0.005874 0.117721 0.076172 
-0.014867 0.031387 0.003000 
0.106921 0.087807 0.107348 
0.018699 0.083738 0.000640 
-0.041369 0.128417 0.085414 
0.008983 -0.022369 0.003000 
-0.052272 0.080675 0.009975 
-0.031286 -0.097806 0.019089 
0.079917 -0.021108 0.007098 
0.114100 -0.054993 0.060090 
0.086754 0.010851 0.013683 
0.031045 0.096885 0.022926 
0.042299 -0.058693 0.003000 
0.067754 -0.106954 0.092671 
0.031318 -0.095250 0.031680 
-0.040299 0.140754 0.109911 
0.037202 0.006445 0.000000 
-0.058504 0.112422 0.090695 
-0.076389 0.006481 0.000000 
-0.017269 -0.024093 0.000000 
-0.012972 0.121041 0.049006 
0.059391 -0.083635 0.046113 
0.136418 -0.036230 0.095399 
-0.130799 -0.070456 0.120000 
0.020487 0.103070 0.047350 
-0.083061 0.034214 0.004234 
0.104454 -0.041510 0.065276 
-0.076323 -0.074624 0.022551 
0.047911 -0.088109 0.039888 
0.085679 0.025783 0.020808 
-0.015861 -0.101050 0.016578 
0.009735 0.126356 0.093159 
-0.060374 0.095631 0.066248 
0.082264 0.086861 0.043233 
-0.083531 0.053661 0.033635 
0.101612 0.096828 0.093085 
0.143130 -0.008652 0.102200 
0.076497 0.074929 0.023072 
0.106635 -0.095805 0.119726 
-0.136305 -0.002993 0.082083 
0.124075 -0.034878 0.064823 
-0.095163 -0.021467 0.011401 
-0.024710 -0.136209 0.112542 
-0.082493 0.103568 0.104259 
-0.146999 -0.000000 0.115292 
0.060751 -0.025062 0.003000 
-0.031193 0.138596 0.117238 
0.021383 0.113810 0.037486 
-0.134538 0.005462 0.077611 
-0.057186 0.089396 0.022264 
0.070509 -0.043740 0.003000 
0.117522 0.053850 0.065509 
0.121265 -0.042591 0.097449 
-0.137957 -0.030899 0.095870 
0.095945 -0.073932 0.072784 
-0.122987 0.058649 0.110366 
-0.125167 0.007902 0.056942 
-0.060701 -0.081583 0.015134 
0.108608 -0.036229 0.035026 
-0.034175 0.054687 0.002183 
-0.071139 0.053817 0.003623 
-0.116155 0.007593 0.066748 
0.096053 0.054891 0.028886 
-0.067220 0.051069 0.003531 
-0.079676 0.075595 0.027251 
0.111380 -0.058833 0.058404 
-0.132264 0.009580 0.072699 
0.060346 -0.005267 0.003000 
0.088763 -0.064928 0.028229 
0.037180 0.009473 0.003000 
0.039174 0.121939 0.068365 
-0.105988 0.077264 0.078312 
-0.081910 0.083050 0.037783 
0.072601 0.033757 0.000000 
0.030773 -0.113614 0.040632 
0.014910 -0.004877 0.003000 
-0.124472 0.042614 0.103476 
0.029025 -0.058132 0.000000 
-0.124916 -0.077759 0.120000 
0.068130 0.048559 0.000000 
-0.124169 -0.025122 0.059703 
-0.015880 -0.084236 0.000185 
0.030387 -0.092883 0.022286 
-0.037870 0.139189 0.118404 
0.015732 -0.079607 0.000000 
0.098693 -0.089278 0.100254 
-0.052523 0.068194 0.013646 
-0.123355 -0.018713 0.086957 
-0.029530 0.134497 0.109174 
-0.106570 0.058869 0.079727 
-0.018048 0.081747 0.000000 
-0.142985 -0.011369 0.119332 
-0.096136 -0.090306 0.098876 
0.094182 -0.106115 0.120000 
-0.062839 0.031903 0.003000 
0.098756 0.087801 0.097918 
-0.048351 0.105347 0.067750 
0.046555 -0.034050 0.003000 
0.083308 0.012112 0.007994 
-0.014737 0.041011 0.000000 
0.123164 -0.051675 0.075686 
0.000577 0.133636 0.107480 
-0.123405 -0.036594 0.064524 
-0.003191 0.119460 0.043775 
-0.121297 -0.044547 0.065688 
-0.146033 0.031540 0.117796 
-0.136389 -0.012601 0.107708 
-0.122921 0.030650 0.060246 
-0.122963 -0.084571 0.119040 
0.053397 -0.116218 0.062617 
-0.008243 0.119118 0.043948 
0.048547 -0.041066 0.000000 
-0.034405 0.002083 0.000000 
0.036958 0.073260 0.002111 
-0.039891 -0.047989 0.003000 
0.043144 0.093379 0.042626 
0.032991 0.019728 0.000000 
-0.037681 -0.062400 0.003000 
-0.112631 -0.081964 0.098287 
-0.088189 0.064738 0.027313 
0.102335 0.000000 0.030686 
0.100366 0.067777 0.047893 
-0.041549 -0.069156 0.002419 
-0.006058 0.081627 0.005168 
0.126574 0.007424 0.059915 
-0.137336 -0.018921 0.113298 
0.024840 -0.017930 0.000000 
0.055925 0.099395 0.034170 
0.039525 -0.121742 0.069222 
0.006991 0.006960 0.003000 
-0.032230 -0.030033 0.003000 
0.116548 0.093012 0.120000 
0.109275 -0.041468 0.074289 
0.066402 0.118253 0.108982 
0.030519 0.043549 0.000000 
0.001217 -0.100613 0.042518 
0.044204 0.068881 0.002156 
-0.052149 0.135777 0.107956 
0.084912 -0.122500 0.118530 
0.019235 -0.091777 0.025136 
0.103835 0.016918 0.049423 
-0.008659 -0.139947 0.119896 
0.039907 0.121807 0.080846 
-0.054664 -0.106082 0.076101 
-0.102115 -0.025732 0.051368 
-0.090612 -0.022681 0.007258 
0.093917 -0.052961 0.052560 
-0.040805 0.095543 0.043434 
-0.052894 0.135098 0.106994 
0.134933 -0.032376 0.088659 
-0.030469 0.025226 0.003000 
0.057453 0.038571 0.000000 
0.042422 0.044938 0.002883 
0.064456 -0.083384 0.051542 
0.144755 -0.003593 0.105880 
0.086543 -0.090895 0.055884 
0.037013 -0.113999 0.068850 
-0.121903 0.083926 0.115582 
-0.060296 -0.127356 0.095684 
-0.037214 0.115496 0.059232 
0.101415 0.069584 0.076673 
-0.131684 0.009296 0.096893 
0.084318 -0.061606 0.022986 
-0.069277 0.094939 0.075389 
0.046803 0.108094 0.039560 
-0.131801 0.069634 0.120000 
0.044245 -0.069814 0.000000 
0.043044 0.094423 0.044169 
-0.075679 0.076044 0.052822 
0.116091 0.031184 0.045943 
0.039736 0.097827 0.045762 
-0.038831 0.101008 0.025500 
0.036345 0.111034 0.038773 
-0.010440 0.147281 0.114232 
-0.075813 -0.053547 0.019185 
-0.063748 0.080749 0.016926 
0.034197 -0.139198 0.118422 
0.097498 -0.073095 0.073244 
0.126195 -0.033101 0.068152 
-0.068847 0.115116 0.075822 
-0.107281 0.092023 0.095871 
0.053880 0.068223 0.015184 
0.021479 0.128365 0.097112 
-0.089672 0.060258 0.049089 
0.129501 -0.062510 0.103209 
-0.012894 -0.092190 0.025948 
-0.015223 0.131627 0.072468 
0.108717 0.070485 0.090859 
0.036108 0.094639 0.036511 
-0.099815 -0.047376 0.028517 
0.016699 0.102624 0.019163 
-0.078366 0.092585 0.082113 
0.035014 0.036462 0.002679 
0.003256 -0.063969 0.003000 
0.056688 0.098594 0.033646 
0.121676 -0.073566 0.116911 
-0.029022 0.090322 0.013435 
0.040758 -0.110927 0.067787 
0.026651 0.037036 0.002700 
0.111653 -0.051130 0.084579 
0.076145 -0.105983 0.100783 
0.036939 -0.072331 0.002118 
-0.093791 -0.088194 0.092815 
0.097225 0.029984 0.015033 
-0.005994 -0.079619 0.000000 
0.114804 -0.062451 0.068481 
-0.056675 -0.084099 0.014910 
-0.112186 0.088675 0.100837 
-0.052070 -0.028234 0.003000 
-0.021111 0.126552 0.063528 
-0.117462 -0.041519 0.089671 
-0.054074 -0.018445 0.003000 
0.059130 0.134499 0.111787 
0.115348 0.025049 0.075926 
0.002855 -0.146285 0.110126 
-0.026436 -0.007176 0.000000 
0.066288 0.095749 0.038534 
0.027566 0.125855 0.092174 
-0.004177 -0.137422 0.085464 
-0.104162 0.105297 0.116699 
-0.121475 -0.005555 0.075493 
-0.069170 -0.020063 0.003000 
-0.099580 -0.061897 0.039500 
0.100256 0.099171 0.095202 
0.132900 0.000000 0.087505 
0.111557 -0.085236 0.108646 
-0.011928 0.053744 0.002311 
-0.093827 -0.042258 0.045880 
-0.103385 0.096635 0.096472 
-0.089130 -0.007256 0.003682 
0.115176 -0.064494 0.071081 
-0.046910 0.043332 0.003000 
-0.015349 -0.104275 0.049722 
-0.121596 0.012485 0.050038 
-0.003814 0.104236 0.049644 
0.055687 -0.036309 0.000000 
-0.089360 0.081807 0.046341 
-0.101480 -0.018893 0.046052 
0.070841 -0.070867 0.039056 
0.072284 -0.094961 0.043955 
-0.033449 0.102341 0.044692 
0.101792 -0.101434 0.103341 
-0.127707 -0.070089 0.108128 
-0.015939 -0.111721 0.064370 
0.089265 0.038734 0.035425 
0.105300 0.091992 0.091200 
0.006364 -0.032368 0.000000 
-0.094082 0.009221 0.008438 
0.063024 -0.101087 0.077938 
-0.107540 -0.049405 0.075825 
0.087622 -0.047506 0.013229 
-0.122894 0.035786 0.096397 
0.018367 0.142725 0.103594 
-0.115335 0.066431 0.100716 
-0.031411 -0.063395 0.003000 
-0.128733 -0.028263 0.070469 
0.034474 0.099922 0.021340 
-0.033007 -0.040034 0.003000 
0.070494 0.075228 0.045420 
-0.008700 0.113360 0.067594 
-0.068063 -0.062004 0.005913 
-0.117860 -0.069055 0.082519 
-0.057257 0.111093 0.056398 
0.078364 0.036262 0.000829 
-0.055266 -0.062293 0.000000 
0.039563 -0.000497 0.000000 
-0.012623 0.144572 0.107053 
-0.095833 -0.103698 0.095423 
-0.042292 0.129714 0.083063 
-0.018297 0.125062 0.059525 
-0.018816 0.085769 0.013316 
-0.122002 0.017387 0.083622 
0.057787 -0.108549 0.051849 
-0.032294 0.091996 0.027927 
0.033856 -0.103134 0.045768 
-0.107300 0.092737 0.115633 
0.079167 -0.008208 0.003000 
-0.094599 -0.063341 0.034436 
-0.048137 -0.110902 0.076230 
-0.062646 -0.034043 0.003000 
-0.019794 0.074031 0.002505 
0.143433 -0.005021 0.102413 
0.103298 -0.053768 0.070527 
-0.093877 0.019361 0.032078 
-0.015566 0.108780 0.028208 
0.008989 0.069871 -0.000000 
-0.045038 -0.028897 0.003000 
-0.093696 -0.048269 0.020852 
-0.040034 -0.124499 0.083982 
-0.093566 -0.010973 0.026433 
-0.112910 -0.082090 0.095163 
-0.050461 0.118006 0.090284 
0.055970 -0.108990 0.050814 
0.138567 -0.020291 0.116432 
0.078038 0.095181 0.085744 
-0.033639 -0.137220 0.095690 
0.044793 0.071667 0.002050 
-0.052684 0.040125 0.000000 
-0.093703 0.067987 0.037405 
0.000614 0.098881 0.039111 
-0.023057 0.113179 0.067238 
-0.066986 -0.118734 0.081937 
-0.032022 -0.099499 0.031080 
0.056601 0.077513 0.032986 
-0.025289 0.106871 0.028348 
-0.006220 0.047465 0.002382 
0.043491 -0.133858 0.107918 
0.050530 -0.108769 0.044355 
-0.085474 -0.052947 0.036820 
0.057792 -0.028254 0.000000 
0.138069 -0.023342 0.117340 
0.084415 -0.047732 0.010651 
0.011966 0.017312 0.000000 
0.086834 0.002192 0.008530 
-0.111339 0.049271 0.082868 
0.001621 0.121256 0.047418 
-0.083882 -0.057462 0.036601 
-0.001147 -0.133062 0.073128 
0.120774 -0.079406 0.118744 
0.040293 -0.109102 0.064353 
0.074353 -0.111746 0.076534 
0.031563 -0.028964 0.000000 
-0.094758 -0.068914 0.056703 
0.063664 0.092532 0.064952 
0.102638 0.089484 0.105072 
0.030753 -0.093901 0.029314 
0.039431 -0.120118 0.079368 
0.078762 -0.057433 0.013547 
-0.040256 -0.094123 0.040476 
-0.120160 -0.011341 0.046723 
-0.126773 0.000045 0.059199 
0.127718 0.073219 0.112105 
0.029502 0.146225 0.117324 
-0.053473 -0.139113 0.120000 
0.035778 0.105540 0.053452 
0.054876 0.123673 0.080129 
-0.103437 -0.086151 0.076469 
-0.063739 0.084259 0.021316 
0.101944 -0.074171 0.058485 
0.128276 -0.033338 0.072712 
0.113942 0.054657 0.058814 
-0.130326 0.024258 0.072403 
-0.131014 0.050411 0.094165 
0.074695 0.083484 0.063302 
0.052820 -0.100508 0.033379 
-0.100903 0.073779 0.076411 
0.094638 -0.078462 0.051123 
-0.115711 0.056110 0.095192 
-0.031348 -0.097741 0.019784 
0.060138 -0.004161 0.003000 
-0.095700 -0.029366 0.013436 
0.082726 -0.062058 0.017806 
-0.143891 -0.025427 0.109431 
-0.053134 0.071842 0.020144 
-0.004786 0.013875 0.003000 
0.123565 -0.018004 0.086925 
0.080894 -0.103120 0.101710 
0.052527 -0.071204 0.018428 
0.095183 -0.064369 0.036039 
0.108798 -0.057870 0.052416 
0.075880 0.101824 0.093811 
0.030777 -0.069286 0.003000 
-0.030087 -0.083894 0.012492 
-0.038030 0.116197 0.073175 
0.130620 -0.013624 0.097508 
0.120630 -0.046429 0.098574 
-0.011438 0.146307 0.111688 
-0.052642 0.083323 0.037789 
0.094111 -0.106232 0.120000 
-0.064409 0.035021 0.000000 
-0.111837 -0.053613 0.086421 
-0.110042 -0.080396 0.098744 
0.045155 -0.104429 0.062583 
-0.022358 0.143045 0.105986 
0.132133 0.035744 0.113717 
0.011292 0.005434 0.000000 
-0.121243 -0.063804 0.084302 
0.078171 -0.007053 0.003000 
-0.057899 0.128370 0.095237 
0.100044 -0.013957 0.040380 
0.075567 -0.116829 0.117299 
0.057647 0.067189 0.002722 
0.032601 -0.109452 0.059906 
-0.002024 0.109159 0.059329 
0.038647 -0.005651 0.000000 
-0.138000 -0.000000 0.092537 
-0.126303 -0.064065 0.097090 
-0.080891 0.079104 0.032386 
-0.049414 -0.011741 0.000000 
-0.012032 -0.081323 0.000000 
-0.062483 -0.021436 0.000000 
-0.018568 -0.054600 0.003000 
0.012737 0.110785 0.030579 
-0.049890 0.126388 0.082048 
-0.026010 0.128760 0.097889 
-0.060324 0.014829 0.000000 
0.025669 0.012721 0.000000 
0.025264 -0.129943 0.100216 
-0.122200 0.034817 0.094511 
-0.070546 -0.076871 0.018714 
-0.057334 -0.127554 0.092564 
0.041627 0.023910 0.000000 
-0.103180 -0.075457 0.074608 
0.063753 -0.131743 0.110299 
-0.107075 -0.085904 0.104502 
-0.076148 -0.053658 0.019878 
0.120576 0.000000 0.059680 
0.071776 -0.034677 0.000000 
-0.134322 -0.063198 0.120000 
0.076370 0.107321 0.103111 
0.080175 0.040447 0.019467 
-0.073936 0.033094 0.003000 
0.077928 0.007742 0.000000 
0.003727 0.147801 0.114513 
-0.090700 -0.017863 0.025216 
-0.032939 0.111653 0.064236 
0.106334 -0.029722 0.061687 
0.030459 0.092972 0.024275 
0.037103 0.086506 0.024736 
-0.040847 0.115348 0.074905 
0.025537 0.107297 0.029077 
-0.071905 0.088959 0.034809 
0.011008 0.039018 0.002767 
-0.096450 0.066874 0.039952 
-0.060503 -0.074452 0.032660 
-0.050894 0.069855 0.014391 
0.010570 0.128775 0.097918 
0.038691 0.024636 0.003000 
-0.051501 -0.112123 0.051979 
0.035582 0.007861 0.000000 
0.031141 0.033729 0.003000 
-0.053965 0.093845 0.025159 
0.129305 -0.050894 0.090541 
-0.059844 -0.112830 0.092799 
-0.003320 0.069494 -0.000000 
-0.110569 -0.000000 0.034540 
-0.048522 -0.067081 0.000000 
-0.051205 0.073194 0.003764 
-0.027809 -0.035081 0.000000 
0.080533 -0.058584 0.028173 
-0.030334 0.131456 0.078012 
-0.088502 0.104646 0.112876 
0.025235 -0.090558 0.022737 
0.082342 0.059986 0.018162 
0.082593 0.106936 0.109678 
-0.052155 -0.091863 0.050612 
-0.087612 0.121005 0.120000 
-0.123152 0.077125 0.120000 
-0.055829 0.109922 0.083657 
0.001883 0.120306 0.045387 
-0.023627 0.048154 0.002306 
0.044773 0.070381 0.008075 
-0.073655 -0.075330 0.020419 
0.079253 0.122909 0.110450 
0.049471 0.015184 0.003000 
-0.028443 -0.119935 0.052801 
-0.138347 -0.026737 0.119909 
-0.124577 -0.059610 0.087753 
0.132140 0.062281 0.120000 
0.043335 0.134569 0.096985 
-0.052330 0.070299 0.002229 
-0.096922 0.087504 0.066517 
0.004806 0.113789 0.034046 
0.045342 -0.109331 0.070577 
0.083743 0.123319 0.118552 
0.124876 0.037999 0.068550 
0.113272 -0.048969 0.086310 
-0.147908 0.021409 0.120000 
-0.047552 0.085394 0.035164 
0.119823 -0.000000 0.044936 
-0.099392 -0.083594 0.065907 
0.072823 0.108121 0.100288 
-0.106999 -0.082720 0.078924 
0.005423 -0.131840 0.071156 
-0.073626 -0.051862 0.014086 
-0.108843 0.057906 0.052540 
0.023584 0.111588 0.034752 
-0.025542 0.066297 0.000000 
0.084665 0.032052 0.004824 
-0.065310 0.091284 0.065039 
0.135750 -0.046741 0.102617 
0.085065 0.095387 0.060668 
-0.089453 0.029312 0.008148 
0.110140 -0.044819 0.077934 
0.106302 0.000000 0.029260 
0.038962 0.119262 0.077771 
0.048795 0.069133 0.010750 
0.109728 0.073747 0.071790 
-0.033147 0.000303 0.003000 
0.002390 0.082309 0.006510 
0.058088 0.060592 -0.000000 
0.049839 -0.051368 0.000000 
-0.014962 -0.121189 0.082995 
0.087791 -0.085660 0.049816 
0.056774 -0.110362 0.054484 
-0.079076 0.119381 0.102042 
0.004006 -0.123230 0.052170 
0.035646 0.134468 0.089934 
-0.088596 -0.002371 0.011923 
0.126388 -0.028055 0.065532 
-0.133669 0.019521 0.079029 
0.107932 -0.028534 0.063966 
0.082949 0.083314 0.072559 
-0.120982 -0.012547 0.078788 
-0.091081 -0.067402 0.033474 
0.117767 -0.067055 0.079486 
0.093610 0.032962 0.040071 
-0.138132 -0.019931 0.091523 
-0.092703 -0.010642 0.007346 
0.136096 -0.061744 0.118669 
0.035295 0.124296 0.089108 
0.050004 -0.082740 0.010404 
0.109352 0.094677 0.120000 
0.064290 0.132261 0.112264 
-0.085270 -0.118598 0.120000 
-0.044554 0.087738 0.012096 
-0.047918 -0.075117 0.019179 
0.119740 -0.001112 0.044009 
-0.068829 -0.069800 0.034932 
-0.073323 0.125611 0.120000 
0.049662 0.088056 0.041688 
0.076011 -0.053098 0.006869 
-0.069329 -0.124747 0.120000 
0.122743 0.075319 0.103795 
-0.126475 -0.052405 0.084701 
0.126440 -0.023967 0.095913 
0.075258 0.037701 0.000000 
0.020667 -0.127728 0.065718 
-0.011416 -0.084139 0.010109 
0.126204 -0.017242 0.091412 
-0.108051 -0.046378 0.039294 
-0.120068 -0.077428 0.100691 
-0.000436 0.070842 0.002581 
0.044048 0.125005 0.073300 
-0.023316 0.133847 0.107896 
-0.032793 0.128950 0.073831 
0.045817 0.046185 0.002705 
-0.110047 -0.005965 0.054314 
-0.023730 -0.096916 0.013643 
-0.035809 0.111088 0.048881 
0.014715 0.065986 0.002314 
-0.075685 -0.055352 0.017283 
-0.123516 -0.047095 0.104386 
-0.133807 0.061360 0.112529 
0.039756 -0.123433 0.082537 
0.063843 -0.122815 0.088226 
-0.028661 0.061201 0.002169 
-0.042148 -0.101036 0.053644 
0.092981 -0.113561 0.120000 
-0.014323 0.137656 0.115389 
0.123830 -0.051756 0.077459 
0.039069 -0.119596 0.078416 
-0.116958 0.028744 0.081017 
0.021041 0.003492 0.003000 
0.015471 -0.126008 0.060424 
-0.005333 -0.057946 0.000000 
-0.052286 -0.109332 0.078521 
-0.024420 0.012706 0.000000 
-0.024153 0.036752 0.003000 
0.072330 0.041091 0.002541 
0.027519 0.099358 0.017597 
-0.061739 0.101617 0.077299 
-0.123026 -0.078894 0.109989 
0.055002 -0.027876 0.003000 
0.033670 0.113905 0.042724 
-0.107790 0.028768 0.063841 
0.080365 0.058380 0.019731 
0.102365 -0.088065 0.102555 
0.088350 -0.090390 0.057865 
0.036341 -0.089423 0.010310 
-0.020863 0.107535 0.027813 
0.089036 0.111211 0.099226 
0.076586 -0.100139 0.058286 
-0.054858 -0.045123 0.000000 
0.060224 0.080351 0.013903 
0.036535 0.123867 0.088262 
0.013988 -0.142408 0.101254 
0.123260 0.000000 0.052671 
-0.085447 0.069815 0.054189 
0.069960 -0.060937 0.006626 
0.099940 0.109470 0.116593 
0.021849 -0.027237 0.003000 
0.039128 -0.120635 0.066007 
-0.129501 0.047993 0.116151 
0.076235 0.073442 0.021171 
-0.091225 0.109401 0.120000 
0.087637 -0.098195 0.068833 
0.048962 0.126696 0.081925 
-0.119622 0.051339 0.099646 
0.118038 0.069200 0.107500 
-0.014450 -0.038147 0.000000 
0.090733 -0.072865 0.065099 
-0.039543 0.129204 0.079505 
0.079107 0.003001 0.000000 
-0.112146 0.081791 0.091737 
0.077681 0.062057 0.012943 
0.088352 0.062368 0.047931 
-0.000135 -0.090105 0.021845 
0.033427 -0.133902 0.086731 
-0.133484 -0.046845 0.096924 
-0.079366 -0.075908 0.056737 
0.031884 -0.099218 0.034601 
0.046728 0.070989 0.011291 
0.031872 -0.142778 0.109315 
0.100314 0.005841 0.036040 
-0.029191 -0.018131 0.003000 
0.023048 -0.040706 0.000000 
-0.049628 -0.095416 0.053343 
-0.037226 -0.076773 0.009447 
-0.131810 0.056240 0.120000 
0.077994 0.008874 0.000000 
0.098537 -0.109583 0.120000 
0.098525 -0.025151 0.044287 
-0.045989 -0.112153 0.075739 
-0.067027 0.110419 0.097324 
0.081133 0.079488 0.064425 
-0.004577 0.134894 0.078435 
0.104446 0.047795 0.069236 
0.030929 0.096564 0.021082 
-0.102468 0.085861 0.099182 
-0.045436 -0.138821 0.116614 
-0.042241 -0.070183 0.003000 
0.003913 0.108047 0.024958 
-0.063578 -0.093107 0.032745 
-0.070744 0.098124 0.047628 
-0.001224 -0.084133 0.003000 
-0.024960 -0.097913 0.037205 
0.111586 0.011336 0.060540 
-0.014553 0.144958 0.108466 
-0.068901 -0.127648 0.106858 
0.079843 -0.056476 0.011519 
-0.001019 0.113448 0.033032 
0.027719 -0.083958 0.009863 
-0.002586 0.132328 0.104907 
0.103353 -0.017377 0.020465 
0.115618 -0.026299 0.042457 
-0.119865 -0.019150 0.080678 
-0.056236 -0.123591 0.105735 
-0.018703 0.101997 0.045239 
-0.123315 -0.072062 0.099881 
-0.116203 0.014813 0.071195 
0.076883 -0.056227 0.020130 
-0.087622 0.051352 0.014891 
-0.100219 -0.058676 0.067778 
0.129816 -0.070771 0.114253 
-0.012868 0.105100 0.021822 
-0.111225 -0.002259 0.054285 
0.124974 0.060342 0.089947 
0.058046 -0.007544 0.003000 
0.030401 -0.002935 0.003000 
-0.003809 -0.097832 0.011417 
0.044233 -0.137465 0.105295 
0.119123 0.041529 0.092889 
0.034059 -0.107126 0.055329 
-0.067073 -0.098586 0.078505 
0.096150 -0.040288 0.049011 
0.116025 -0.059361 0.097744 
-0.101524 -0.063975 0.073432 
-0.015256 0.067934 -0.000000 
0.041261 0.127994 0.077756 
-0.041117 -0.048032 0.003000 
0.087379 0.000742 0.008665 
0.086924 -0.063479 0.029949 
0.073007 0.088270 0.035019 
0.009343 0.141191 0.097046 
0.044653 -0.113282 0.076047 
0.081771 -0.081300 0.035729 
0.142615 -0.041273 0.115593 
0.054629 0.093830 0.056592 
-0.110315 0.073917 0.073057 
0.010975 0.126168 0.092790 
0.038858 -0.069967 0.000596 
-0.073561 -0.076214 0.021277 
-0.109986 -0.042136 0.040065 
-0.085577 -0.106121 0.111824 
-0.048848 -0.137522 0.109032 
0.038007 -0.088811 0.029505 
-0.143795 -0.002360 0.115414 
-0.116362 0.082729 0.100692 
0.035628 0.110957 0.040333 
0.116697 -0.045980 0.090929 
-0.109383 -0.085890 0.089721 
0.016322 0.004265 0.000000 
0.134229 -0.023076 0.081979 
0.062391 -0.125247 0.115481 
0.094442 -0.072922 0.069455 
-0.117630 0.033177 0.084951 
0.108236 0.034352 0.033574 
-0.072481 0.051876 0.003609 
-0.119597 -0.000000 0.054817 
0.001123 0.031313 0.003000 
0.097876 -0.110689 0.115429 
-0.041648 -0.036445 0.000000 
0.109408 -0.087844 0.110306 
0.058446 -0.048289 0.003000 
-0.098632 0.086585 0.068323 
-0.086090 0.056174 0.017025 
0.056631 0.093419 0.026940 
-0.039749 0.105047 0.031774 
-0.078286 0.125790 0.115544 
0.113264 -0.086666 0.099955 
-0.010350 -0.104601 0.050363 
-0.096104 -0.000000 0.019907 
0.141917 -0.000333 0.110670 
-0.041013 -0.046638 0.003000 
-0.038712 0.120007 0.062848 
0.141410 -0.004686 0.096665 
-0.014473 -0.110845 0.062645 
-0.011254 0.143056 0.102585 
-0.085102 -0.062077 0.031784 
-0.008460 -0.057709 0.000000 
0.116641 0.084949 0.105890 
0.108401 -0.079270 0.087461 
0.064610 -0.003681 0.000000 
-0.087076 -0.118381 0.112560 
0.049012 0.069613 0.011757 
-0.047208 0.140293 0.114379 
0.023013 -0.144840 0.111151 
0.066516 0.016653 0.003000 
0.114445 0.017241 0.037452 
0.111204 -0.044555 0.044316 
0.115577 -0.038569 0.049311 
-0.094925 -0.069417 0.059033 
-0.098316 0.093612 0.106686 
-0.093925 -0.096976 0.076931 
0.015526 0.107714 0.026549 
-0.077399 -0.127277 0.117514 
0.114696 -0.060765 0.066728 
0.131333 -0.011636 0.071019 
0.048290 -0.104844 0.066881 
-0.064983 0.085627 0.024216 
-0.051217 -0.134817 0.104589 
0.044340 0.074257 0.000904 
0.054312 0.095522 0.058914 
0.109224 -0.022276 0.030782 
-0.057322 0.098438 0.033959 
-0.005675 0.094347 0.030191 
-0.006509 0.062221 0.002273 
-0.030133 -0.055189 0.000000 
-0.007227 -0.098389 0.038143 
0.069235 -0.129834 0.112379 
-0.025608 -0.101166 0.019824 
0.018628 0.119114 0.078913 
-0.047929 -0.074101 0.017589 
0.127812 0.000000 0.074897 
0.036694 0.004084 0.003000 
0.097648 -0.064785 0.039608 
0.138027 -0.002290 0.104557 
0.106454 0.092121 0.094136 
0.096646 0.000000 0.024619 
0.057852 -0.133588 0.108241 
-0.001493 -0.137105 0.084034 
-0.010246 -0.026295 0.003000 
-0.142933 0.024906 0.106610 
-0.078583 -0.121996 0.107075 
-0.102825 0.107947 0.119513 
0.050361 0.137857 0.111409 
-0.007100 -0.032349 0.000000 
0.140430 -0.050163 0.117739 
0.082666 0.100895 0.067336 
0.034660 0.005207 0.000000 
0.039108 -0.101144 0.025837 
-0.118135 -0.004819 0.068786 
-0.115714 -0.000000 0.056729 
0.061629 -0.073873 0.033224 
0.057421 0.097714 0.033124 
-0.042218 0.029988 0.003000 
0.039887 -0.109542 0.064579 
0.041204 0.009841 0.000000 
-0.067121 -0.105769 0.089974 
-0.104564 0.046126 0.068268 
-0.017401 -0.026940 0.000000 
0.112341 -0.079460 0.103006 
-0.121239 -0.000000 0.055340 
-0.088289 0.084829 0.049309 
0.119086 -0.059775 0.074509 
-0.140775 -0.009681 0.095943 
0.036324 0.115002 0.046563 
-0.072486 -0.047966 0.009592 
0.068131 0.001483 0.003000 
-0.076358 0.035260 0.009077 
-0.035631 0.083606 0.018488 
-0.074542 0.017156 0.003000 
0.009533 -0.108244 0.026047 
-0.096252 0.108337 0.106730 
-0.030284 -0.092416 0.025702 
0.114551 -0.000540 0.034687 
-0.058362 0.054738 0.002174 
0.040049 0.111775 0.042460 
-0.007671 0.014027 0.003000 
-0.017071 -0.127015 0.063271 
-0.069934 0.130603 0.120000 
0.043638 0.137565 0.104191 
-0.095300 0.094361 0.104403 
-0.001156 0.001983 0.000000 
-0.067703 -0.047450 0.000368 
-0.104580 -0.000000 0.027271 
-0.022590 -0.141913 0.102825 
-0.101661 -0.093295 0.085620 
0.009979 0.118620 0.043176 
-0.122140 0.016159 0.083139 
0.092952 -0.077146 0.046492 
0.080449 -0.120329 0.106416 
0.147022 -0.016108 0.120000 
-0.127059 -0.061886 0.096472 
0.004610 0.108514 0.058061 
-0.013335 -0.048938 0.000000 
0.088607 0.053725 0.018134 
0.019045 -0.093491 0.028506 
-0.072955 0.099536 0.086902 
0.118050 -0.043155 0.091761 
-0.059565 -0.083063 0.045179 
-0.036591 -0.102044 0.025706 
-0.126724 0.053215 0.114095 
-0.037210 -0.043099 0.000000 
-0.050757 -0.101412 0.033245 
0.033282 -0.145336 0.117172 
-0.006442 -0.079238 0.000467 
0.064736 0.072382 0.034281 
-0.063625 -0.072224 0.032749 
-0.055191 -0.069129 0.002858 
0.043798 -0.096887 0.022143 
0.080354 0.062439 0.036624 
-0.099232 -0.063945 0.041240 
-0.010927 -0.142838 0.101918 
-0.001644 -0.114120 0.034172 
-0.079202 0.057928 0.022664 
-0.089739 -0.086896 0.086078 
-0.098190 -0.084406 0.064827 
0.034607 0.006714 0.003000 
-0.036957 0.071379 0.000629 
-0.114152 0.078782 0.089226 
-0.046815 -0.099605 0.056754 
0.028862 0.087888 0.016106 
0.100372 -0.077735 0.060242 
-0.125834 -0.027567 0.064142 
-0.011710 0.089650 0.020950 
0.126035 0.054000 0.085201 
-0.061743 0.116318 0.070828 
0.108380 0.035625 0.034383 
0.139176 0.005479 0.108677 
0.133459 -0.009290 0.100216 
0.112261 0.092750 0.108872 
0.126217 -0.049080 0.080913 
-0.083055 -0.111933 0.091053 
-0.035464 0.110236 0.040925 
0.046989 0.140559 0.114830 
0.094090 -0.068238 0.038130 
-0.143729 0.031864 0.111857 
-0.062760 -0.125150 0.115738 
-0.061153 0.019258 0.000000 
0.028508 0.056396 0.002520 
-0.042852 0.099061 0.024632 
-0.005809 -0.129306 0.098963 
-0.020481 0.127891 0.096180 
0.075331 -0.106021 0.067126 
0.086994 0.066132 0.050118 
-0.058976 -0.091183 0.057400 
-0.103357 0.055229 0.071527 
0.034120 -0.078293 0.001260 
0.098754 0.031873 0.018067 
0.132408 -0.065326 0.113928 
-0.021530 0.039715 0.003000 
0.039585 -0.126175 0.092804 
0.111203 0.081207 0.101055 
0.044903 -0.083514 0.029107 
0.054908 0.091034 0.022359 
-0.058567 -0.119299 0.101605 
-0.013214 -0.111692 0.032183 
0.060010 -0.055170 0.001675 
-0.149330 0.009737 0.119830 
0.096892 0.073147 0.072615 
0.094498 -0.043379 0.047813 
0.047514 0.109766 0.073705 
-0.029222 0.130928 0.075779 
-0.106245 -0.034108 0.064167 
-0.021513 0.092179 0.008834 
0.110420 -0.076710 0.097755 
0.126404 -0.077268 0.120000 
-0.073606 0.024808 0.000000 
0.048233 -0.028551 0.000000 
-0.107869 -0.039228 0.070302 
0.115550 -0.081349 0.096473 
-0.011387 0.131739 0.103749 
-0.118523 0.086507 0.117452 
0.024079 -0.092885 0.010147 
-0.058720 -0.019731 0.000000 
-0.031802 0.090975 0.025735 
0.020962 -0.084180 0.010191 
0.017723 0.139179 0.093544 
-0.053899 0.085901 0.014871 
-0.110454 -0.089868 0.114698 
0.115151 -0.032916 0.044900 
-0.060934 -0.021008 0.000000 
-0.114347 -0.083594 0.109208 
-0.113238 -0.043739 0.083091 
-0.128468 -0.020961 0.067528 
-0.123419 0.072282 0.100508 
0.088213 -0.052806 0.041838 
-0.047780 0.012441 0.000000 
-0.044846 -0.106064 0.064746 
0.084551 0.107015 0.082027 
0.137872 0.033237 0.120000 
0.114142 -0.083462 0.102425 
0.120594 0.000000 0.052943 
-0.064694 -0.113146 0.067164 
0.056045 0.068305 0.017812 
-0.023168 -0.063069 0.003000 
0.125969 -0.075749 0.111781 
0.087761 0.032391 0.028758 
0.033132 -0.103303 0.026582 
-0.089417 0.091009 0.092326 
-0.041622 -0.029277 0.000000 
0.029102 -0.090855 0.010009 
-0.063397 -0.041499 0.000000 
0.053972 -0.127138 0.088041 
-0.038129 0.138282 0.101740 
0.033011 -0.128078 0.072080 
-0.070976 -0.089856 0.069136 
-0.097032 -0.082979 0.088292 
-0.015647 0.047879 0.002327 
0.145259 -0.034821 0.118067 
-0.106087 0.008332 0.048316 
-0.112215 0.014036 0.033125 
0.065258 -0.056927 0.000910 
0.033948 0.036019 0.000000 
0.028946 -0.082378 0.008779 
-0.030505 0.081402 0.009041 
0.074422 -0.108711 0.070833 
-0.056744 -0.060999 0.007093 
-0.099894 -0.048758 0.061139 
-0.063283 -0.057906 0.000124 
-0.134845 -0.000000 0.094597 
0.051315 -0.135854 0.107449 
0.068581 -0.093279 0.071961 
-0.067696 0.085724 0.058974 
-0.141195 0.003794 0.095999 
-0.084139 -0.094778 0.058433 
-0.020473 0.143877 0.107579 
0.061093 0.040374 0.002760 
0.145059 0.008670 0.120000 
0.043549 0.115408 0.078096 
-0.025422 -0.106480 0.027813 
-0.142443 0.015041 0.101534 
-0.029457 0.071569 0.002084 
0.045205 0.112418 0.075257 
-0.096356 0.096431 0.108896 
0.130306 0.065041 0.108632 
0.033827 -0.044649 0.003000 
-0.138564 -0.018764 0.115505 
0.078474 0.100986 0.095471 
0.020581 0.105699 0.052523 
-0.039590 -0.121938 0.081538 
0.067286 -0.064601 0.007100 
-0.024349 0.081619 0.000509 
-0.051307 0.127708 0.086731 
0.054621 0.119342 0.070301 
0.008299 0.142629 0.100878 
-0.003943 0.049765 0.002382 
0.111574 -0.092110 0.106033 
-0.118968 0.040781 0.092049 
0.097677 0.071150 0.060349 
0.120038 -0.081461 0.118604 
0.055227 -0.024093 0.003000 
0.123249 0.014132 0.084119 
-0.006744 -0.097594 0.036579 
0.086797 -0.115388 0.105481 
-0.024409 0.050723 0.002261 
0.086170 0.101318 0.104878 
0.134136 0.000000 0.083967 
-0.030395 0.142544 0.107633 
-0.071242 -0.086939 0.031591 
0.022111 -0.082458 0.000301 
0.141832 0.008777 0.115623 
0.054294 -0.022091 0.000000 
-0.025321 -0.117559 0.046023 
0.092605 -0.039130 0.041700 
0.071294 -0.119169 0.116092 
-0.125696 -0.000000 0.057033 
-0.088944 -0.104481 0.084144 
-0.100998 -0.099047 0.096524 
0.124521 -0.055275 0.082677 
0.015634 -0.121483 0.083573 
-0.012558 -0.148471 0.117923 
-0.085009 0.088932 0.050562 
0.048405 0.001793 0.003000 
-0.025924 0.058822 0.000000 
0.018302 -0.111936 0.033919 
0.120120 0.024075 0.084255 
-0.023871 0.020644 0.003000 
0.136491 -0.021867 0.087752 
0.135723 0.022739 0.085879 
-0.037964 0.117762 0.057646 
0.011801 -0.148022 0.116539 
0.012092 -0.038068 0.003000 
0.107419 -0.080318 0.096096 
-0.011389 0.080454 0.002860 
-0.083931 -0.012031 0.000000 
0.073581 0.120710 0.096341 
-0.097038 0.009978 0.032343 
-0.052166 0.126331 0.084102 
0.035786 0.098347 0.042032 
-0.017291 -0.041060 0.003000 
0.099649 -0.110222 0.117581 
-0.093679 -0.041444 0.016217 
-0.078072 0.090066 0.077786 
0.107182 -0.080284 0.075266 
0.051651 -0.032543 0.003000 
-0.106654 0.077981 0.089815 
0.041105 -0.125708 0.085541 
0.074425 -0.063288 0.031173 
0.127973 0.000000 0.075575 
0.032617 0.071743 0.002197 
-0.038784 -0.097030 0.019623 
-0.123882 -0.034813 0.097662 
-0.064705 0.090082 0.062438 
-0.059838 0.012477 0.000000 
-0.057318 0.063726 0.000028 
-0.124245 -0.003132 0.054150 
-0.080282 -0.024169 0.009638 
-0.067302 -0.106871 0.059076 
-0.027519 -0.134655 0.084824 
-0.084095 -0.061079 0.033406 
-0.128599 -0.023844 0.099887 
0.115067 -0.027288 0.076592 
-0.111476 0.009708 0.059251 
-0.030686 -0.106327 0.053757 
0.011289 -0.120509 0.081656 
-0.110235 -0.000000 0.036344 
-0.019520 -0.070277 0.000000 
0.034187 0.104018 0.048790 
0.017456 -0.119609 0.079887 
-0.033075 -0.094454 0.032718 
0.009452 -0.064103 0.003000 
0.080596 -0.050443 0.008968 
-0.092380 0.099494 0.109176 
0.108054 -0.033309 0.067077 
0.065631 0.128261 0.120000 
-0.033854 0.110134 0.036413 
0.117007 0.008919 0.039612 
-0.027430 -0.022623 0.000000 
-0.069895 0.061920 0.007100 
-0.098351 -0.008115 0.012301 
-0.104389 0.015802 0.049641 
-0.084456 -0.047218 0.031438 
-0.042679 -0.026589 0.003000 
-0.079757 0.029729 0.001817 
-0.060933 -0.056118 0.003000 
-0.068415 -0.108014 0.095033 
-0.037400 -0.116001 0.058261 
-0.032613 0.077157 0.000000 
0.010879 -0.126721 0.060904 
0.021115 -0.059524 0.003000 
0.022586 0.015393 0.003000 
-0.099176 0.078143 0.083171 
0.139588 0.000000 0.092028 
-0.037676 0.139980 0.119960 
0.037526 -0.000638 0.000000 
-0.081973 -0.121454 0.111299 
0.087007 -0.019716 0.003395 
0.035498 -0.118280 0.052963 
-0.084091 -0.034040 0.004920 
-0.078150 -0.057088 0.025129 
0.058744 0.093281 0.028650 
0.036917 -0.113461 0.056199 
-0.117431 -0.091144 0.117791 
-0.050636 0.113952 0.054974 
-0.001865 -0.069729 0.000000 
-0.050403 0.078228 0.007109 
-0.145021 -0.036691 0.120000 
-0.045199 -0.072429 0.002583 
0.100778 -0.022580 0.018154 
-0.047081 -0.075767 0.019239 
-0.024280 -0.005147 0.000000 
0.008170 -0.093161 0.027858 
0.093000 0.083214 0.084007 
0.090807 0.027001 0.031169 
0.085738 -0.050270 0.035683 
-0.084670 -0.007131 0.000000 
0.082634 0.060395 0.018500 
-0.011525 0.046591 0.000000 
0.099643 0.040876 0.024261 
0.126834 0.028506 0.066683 
0.094726 0.107051 0.100577 
-0.108984 -0.019671 0.060592 
-0.013600 0.111742 0.064410 
0.116573 0.059471 0.068943 
-0.033366 -0.103765 0.031508 
0.056359 0.037209 0.002809 
0.041997 0.129139 0.086994 
-0.089111 0.119524 0.120000 
0.063571 0.084145 0.021105 
-0.056610 -0.015341 0.000000 
-0.041133 0.125296 0.090800 
-0.014658 0.136273 0.112668 
-0.057304 -0.004052 0.000000 
0.035597 0.122040 0.084668 
-0.108661 0.020056 0.029265 
-0.064266 0.078814 0.015017 
-0.092269 -0.082533 0.082087 
-0.114369 0.009201 0.064369 
0.080073 0.109610 0.080508 
0.129138 -0.018361 0.068038 
0.053576 -0.081025 0.035227 
-0.018535 -0.111420 0.033195 
-0.139264 -0.038615 0.105187 
-0.031122 -0.096948 0.028637 
0.040672 0.076487 0.012974 
0.114824 0.045685 0.053238 
-0.105151 0.018821 0.023608 
-0.043048 0.049079 0.002586 
0.032889 0.119645 0.054152 
-0.014813 -0.028602 0.003000 
-0.080019 -0.058354 0.016378 
-0.034025 -0.078476 0.000133 
-0.105860 0.025712 0.058378 
-0.052783 -0.135418 0.120000 
0.057264 -0.129464 0.097177 
-0.040453 -0.139664 0.107101 
0.051602 0.065048 -0.000000 
-0.099614 -0.097994 0.091303 
0.043867 -0.134358 0.107204 
0.069319 0.111041 0.100887 
-0.121947 0.074755 0.101062 
0.090145 0.065927 0.046587 
-0.109026 0.099918 0.115594 
-0.111227 0.046558 0.081021 
-0.117254 0.000774 0.064694 
0.059540 -0.051689 0.003000 
0.118071 0.000000 0.053482 
0.104840 -0.105329 0.118220 
0.041871 -0.134855 0.095841 
-0.030317 -0.093352 0.025905 
0.053001 -0.084501 0.040074 
0.108192 0.102608 0.119572 
0.018041 -0.096666 0.012324 
-0.004170 0.045949 0.000000 
0.053449 -0.101536 0.067621 
0.013770 -0.054582 0.003000 
0.008391 -0.020266 0.003000 
-0.118379 0.015152 0.044000 
0.082191 -0.047374 0.008648 
0.074607 -0.097102 0.050547 
-0.087333 0.105442 0.112794 
-0.142897 -0.024109 0.106222 
0.029555 0.080722 0.006837 
-0.097337 -0.024887 0.014149 
-0.044146 -0.108966 0.039540 
-0.068961 0.060540 0.020536 
0.039521 0.123119 0.074263 
-0.121151 0.039506 0.095374 
-0.066610 0.082225 0.021398 
0.110508 -0.000102 0.028308 
-0.034529 -0.107564 0.032873 
0.009837 0.104983 0.051114 
0.105205 -0.076921 0.087006 
0.018831 -0.140273 0.097003 
-0.124114 -0.069992 0.119325 
0.044193 0.134581 0.108534 
0.101250 -0.025142 0.049390 
0.016053 0.103625 0.020475 
-0.125837 0.048963 0.109867 
0.066746 0.003476 0.003000 
-0.080932 0.095001 0.088893 
0.107791 -0.095698 0.104185 
0.057141 -0.031487 0.000000 
0.099188 -0.018506 0.041520 
-0.021744 0.133613 0.079751 
-0.085346 0.003030 0.000000 
0.090678 -0.055990 0.022765 
0.029476 0.091890 0.013947 
-0.038438 0.108230 0.035735 
0.131304 0.012719 0.071097 
0.040600 -0.053938 0.000000 
-0.030309 0.038206 0.003000 
-0.128161 -0.068791 0.107641 
0.080524 -0.053842 0.028142 
-0.091468 0.098042 0.105828 
0.076788 0.058731 0.026655 
0.004336 0.106861 0.023164 
0.057955 -0.058764 0.004992 
-0.091372 0.093091 0.066575 
-0.092171 -0.084111 0.054124 
0.076936 -0.042326 0.002166 
0.060105 0.094029 0.063225 
0.103399 -0.030505 0.056656 
0.091247 0.089769 0.092382 
0.085820 0.048337 0.012073 
-0.038106 0.102970 0.052084 
0.093892 -0.049691 0.022274 
-0.059818 0.121423 0.080363 
-0.073437 -0.087538 0.068292 
0.021861 0.120129 0.080909 
0.056080 -0.064657 0.001236 
-0.047076 0.122544 0.070453 
-0.081126 0.119273 0.105056 
-0.116448 0.044471 0.089551 
-0.030260 0.038229 0.003000 
-0.037271 -0.086520 0.024952 
-0.095612 -0.009660 0.029478 
0.147911 -0.007092 0.115373 
-0.114954 -0.000000 0.038940 
0.035213 -0.108679 0.042642 
0.124711 0.036207 0.100128 
-0.132902 -0.042589 0.119266 
-0.048057 -0.098995 0.057218 
0.007605 0.109127 0.059267 
0.056345 0.127635 0.112286 
0.055264 0.109146 0.081661 
-0.041714 0.123964 0.069125 
0.017693 0.104213 0.021855 
0.104548 0.027335 0.057123 
-0.013611 0.080909 -0.000000 
-0.119615 -0.065472 0.082181 
-0.119430 -0.049639 0.098260 
-0.051595 0.085304 0.039715 
0.067207 -0.069944 0.010534 
0.132861 0.000971 0.072660 
0.032239 0.134495 0.087390 
0.066595 -0.122971 0.116710 
-0.071438 -0.098188 0.082908 
0.066972 -0.116703 0.107215 
-0.080836 0.105560 0.073067 
-0.136866 0.059849 0.118497 
-0.100491 -0.000000 0.025988 
0.041131 -0.128830 0.079799 
-0.000882 0.143656 0.102335 
0.109259 0.094666 0.105603 
0.043318 0.091198 0.014464 
0.102916 -0.010819 0.043872 
-0.098064 0.075678 0.077986 
0.019060 0.084825 0.001026 
-0.074554 -0.118845 0.093345 
0.085710 -0.044180 0.010250 
0.031952 0.103387 0.047974 
0.009787 0.023624 0.000000 
0.102361 -0.097753 0.096675 
0.060897 -0.069585 0.025575 
0.137845 0.030094 0.120000 
-0.073390 0.084779 0.030829 
-0.048139 -0.054278 0.003000 
0.074621 0.054144 0.011888 
0.138287 0.004771 0.088017 
-0.040066 -0.105594 0.032716 
-0.047419 0.065676 0.000000 
0.082355 0.100434 0.066150 
-0.124140 -0.010148 0.083262 
-0.124214 0.029028 0.094794 
0.106106 0.008964 0.022672 
0.117700 -0.082629 0.114925 
-0.083263 -0.059097 0.015870 
-0.146213 -0.025862 0.115961 
-0.101226 -0.078933 0.063221 
-0.070373 0.064747 0.009208 
0.137959 0.030985 0.095772 
-0.146045 -0.000000 0.116756 
0.042906 0.104260 0.032157 
-0.056795 0.122590 0.079781 
-0.099152 0.072386 0.059022 
0.103359 -0.097074 0.117970 
0.045049 -0.139337 0.114291 
0.018548 -0.134430 0.080748 
-0.050154 0.115030 0.056865 
-0.067761 -0.030003 0.000000 
-0.013129 -0.075633 0.003000 
-0.061367 -0.126399 0.094659 
-0.077987 0.045358 0.004315 
-0.136733 -0.003496 0.102860 
0.035151 0.008855 0.003000 
0.129192 -0.046526 0.085980 
0.064084 0.112820 0.097673 
0.119146 0.000000 0.051496 
0.112660 -0.036222 0.041542 
-0.081594 -0.100354 0.098067 
0.021114 -0.098697 0.038748 
0.118019 0.080785 0.114430 
-0.124851 -0.008714 0.083729 
-0.141762 0.039795 0.112251 
-0.145206 0.035588 0.118473 
0.078852 -0.111406 0.082833 
-0.105151 0.062218 0.079121 
0.108950 0.033215 0.034237 
-0.073484 0.071273 0.042740 
-0.029364 0.114195 0.069235 
0.091266 0.057389 0.050379 
-0.056969 -0.045347 0.000000 
0.084950 0.108378 0.114687 
0.041139 -0.073648 0.003000 
-0.101019 -0.033672 0.054104 
0.088197 0.066060 0.051393 
-0.005372 0.127847 0.062492 
-0.015805 -0.047449 0.000000 
-0.099532 0.040540 0.055464 
-0.129191 -0.049957 0.089150 
0.001391 -0.123878 0.053112 
-0.009689 -0.119679 0.080024 
-0.018375 0.016774 0.003000 
-0.027688 0.135889 0.111913 
-0.048152 -0.118669 0.063448 
0.100213 0.014828 0.014980 
-0.079515 -0.048459 0.022988 
0.106734 0.007547 0.049121 
0.085107 -0.078950 0.068269 
-0.083229 0.089180 0.048231 
-0.085809 0.087205 0.082152 
-0.038228 -0.093509 0.014501 
0.017442 -0.113123 0.067127 
-0.016010 0.116578 0.073923 
0.113858 -0.019245 0.069472 
-0.056128 0.072212 0.024207 
-0.139073 -0.017079 0.092995 
0.045651 0.021192 0.000000 
-0.090630 0.091855 0.063563 
-0.077717 0.056760 0.024687 
0.039570 -0.083287 0.022554 
0.015845 -0.139657 0.119326 
0.096289 0.096310 0.080569 
0.122890 0.010619 0.052503 
-0.045545 -0.082095 0.007806 
0.076951 -0.023777 0.003195 
0.023086 0.129633 0.070629 
0.020803 -0.135940 0.112012 
0.046479 0.134375 0.111614 
-0.057182 0.066269 0.016000 
-0.038490 -0.136904 0.113909 
-0.047012 -0.093587 0.019991 
-0.026366 -0.116783 0.045100 
0.106034 -0.038866 0.032484 
-0.067196 -0.062882 0.022131 
0.034752 0.108242 0.049196 
0.016221 -0.102962 0.047138 
-0.042228 0.128279 0.079398 
0.042844 -0.074078 0.002551 
0.053532 -0.111695 0.053602 
0.135186 0.033737 0.118213 
0.102268 -0.056264 0.038373 
0.111363 -0.038956 0.076689 
-0.084600 -0.004400 0.005658 
0.045449 0.105960 0.065276 
-0.146271 -0.008838 0.111135 
-0.102974 -0.050491 0.067931 
-0.035101 -0.065303 0.003000 
0.078402 0.102029 0.063941 
0.135310 0.010854 0.080864 
0.098331 0.087057 0.068375 
0.083689 -0.018828 0.000086 
0.095683 0.072414 0.045458 
-0.126398 0.023527 0.063769 
-0.105286 0.068612 0.057549 
0.047586 -0.141896 0.118827 
0.108309 -0.051648 0.044659 
-0.105875 -0.019173 0.054461 
0.081181 -0.065592 0.019167 
0.042457 -0.126927 0.076240 
-0.030185 0.135627 0.088955 
0.069873 0.068735 0.011484 
-0.040679 -0.127677 0.076483 
-0.031635 -0.090687 0.009950 
-0.055672 0.096180 0.061704 
-0.068981 0.111515 0.069370 
0.017815 -0.004344 0.003000 
0.094745 0.099537 0.111938 
0.038445 0.088142 0.028883 
0.029976 0.106584 0.029655 
0.101335 0.062040 0.042561 
-0.108495 0.031532 0.066832 
0.114457 -0.047510 0.087652 
0.104331 0.077884 0.088678 
-0.036368 0.047183 0.002692 
0.083481 -0.108863 0.085090 
-0.120963 0.086431 0.120000 
0.084353 -0.084764 0.043221 
-0.017485 -0.018949 0.000000 
-0.075739 0.037959 0.009565 
-0.080406 -0.118497 0.101840 
