
# .PCD v.6 - Point Cloud Data file format
FIELDS x y z 
SIZE 4 4 4 
TYPE F F F 
COUNT 1 1 1 
WIDTH 1647
HEIGHT 1
VIEWPOINT 0.000000 0.000000 0.000000 1.000000 0.000000 0.000000 0.00000
POINTS 1647
DATA ascii
-0.054583 -0.070844 0.016592 
0.088245 0.069741 0.082625 
0.087576 0.005796 0.035032 
0.009426 -0.050973 0.003000 
-0.040835 0.060700 0.011822 
0.123150 0.020146 0.094595 
0.074722 0.073495 0.043085 
-0.064509 -0.056423 0.032699 
0.067858 -0.099113 0.080294 
0.021766 -0.068151 0.000000 
0.106459 0.008693 0.048018 
0.099561 0.041095 0.050298 
0.068010 -0.071568 0.031236 
-0.107721 0.006075 0.073341 
0.112058 -0.005984 0.060589 
0.028629 0.086886 0.031184 
-0.008301 0.044088 0.000000 
-0.026994 -0.082480 0.026361 
0.067118 0.056078 0.013580 
-0.002130 0.105518 0.045003 
-0.054344 -0.053501 0.015872 
-0.070060 -0.081028 0.048140 
0.108505 0.062698 0.094031 
-0.008552 -0.051159 0.003000 
-0.002219 0.051062 0.002247 
0.027526 -0.083827 0.029281 
0.078742 0.074875 0.079676 
0.036846 0.103321 0.076356 
0.000323 0.092011 0.020875 
0.073042 0.080846 0.051876 
-0.060906 0.066845 0.045669 
0.006513 0.104488 0.074976 
0.019585 -0.067617 0.003000 
-0.024849 -0.123272 0.096960 
-0.037372 0.114845 0.091720 
0.028025 -0.085780 0.028782 
-0.115552 -0.026590 0.101320 
0.080719 0.080617 0.063421 
-0.082057 -0.028862 0.012708 
-0.020921 0.125979 0.103350 
0.026754 0.063788 0.000298 
0.101969 -0.025257 0.074665 
0.010473 -0.062229 0.003000 
0.114637 0.036030 0.105638 
0.021549 0.105458 0.049148 
-0.062287 -0.092081 0.088312 
0.099291 -0.072242 0.098246 
-0.003595 -0.014247 0.000000 
-0.110621 0.027374 0.063407 
-0.095543 0.069334 0.085177 
-0.060049 0.026947 0.003000 
0.077509 -0.076204 0.051606 
0.070969 0.017313 0.010866 
-0.079207 0.057643 0.044253 
0.122303 0.035570 0.100977 
0.032842 -0.100732 0.063858 
-0.021742 -0.100034 0.066068 
0.031857 0.114375 0.076418 
-0.074994 -0.017245 0.003361 
0.062208 0.087964 0.049712 
-0.064826 0.039193 0.013063 
0.124302 -0.000000 0.092633 
0.086069 0.079707 0.071845 
-0.088191 0.013909 0.016423 
0.083020 0.074747 0.057888 
-0.024719 0.075410 0.013384 
0.071558 -0.093205 0.101103 
-0.037471 -0.114684 0.085980 
-0.062335 0.066563 0.046889 
0.034423 -0.105407 0.076937 
0.009723 0.060955 0.002121 
0.026970 0.082903 0.013436 
-0.089431 -0.034881 0.057026 
0.083674 0.034254 0.017977 
-0.084609 -0.058571 0.063069 
0.077417 0.094179 0.085798 
0.088235 0.044592 0.031342 
-0.090069 0.054466 0.043247 
-0.032190 -0.098155 0.045018 
0.069825 0.053796 0.034584 
0.100571 -0.013097 0.064238 
0.094281 0.038333 0.037445 
-0.030608 -0.093830 0.053281 
-0.087595 -0.063858 0.068344 
-0.114807 -0.000000 0.076184 
0.096393 -0.034727 0.070151 
0.103885 0.017750 0.073488 
0.098714 0.048071 0.054210 
0.086060 0.036685 0.051783 
-0.028718 -0.116606 0.080796 
0.091512 -0.028055 0.056600 
-0.025114 -0.100279 0.066558 
-0.014883 -0.093299 0.052598 
-0.030437 -0.084761 0.017461 
0.113767 -0.033837 0.102579 
0.077749 0.012396 0.004942 
-0.078937 0.000733 0.015486 
-0.103901 -0.004930 0.041918 
0.070529 0.036485 0.005467 
0.075096 0.062555 0.029878 
-0.008263 -0.093485 0.023191 
-0.047514 0.090305 0.067954 
0.060661 -0.058955 0.032341 
-0.106084 -0.055504 0.078963 
-0.033378 0.102419 0.050742 
-0.004293 0.075784 0.017567 
0.076714 0.067964 0.065960 
-0.054651 -0.015086 0.000000 
-0.001830 -0.036437 0.003000 
0.101423 -0.049427 0.089137 
0.073443 0.034124 0.026177 
0.008562 -0.015466 0.000000 
-0.069677 -0.050757 0.021930 
0.013799 0.091529 0.049057 
-0.108021 -0.009219 0.051743 
-0.121522 -0.001114 0.096333 
-0.085826 0.006836 0.032377 
-0.000664 0.110285 0.086570 
0.008848 0.078125 0.004822 
0.089595 0.032649 0.055907 
0.040823 0.102591 0.079791 
-0.042939 0.101254 0.080283 
-0.016691 0.104563 0.046041 
-0.006722 0.124638 0.095013 
0.031169 0.113483 0.073494 
-0.047530 0.074858 0.042940 
0.043079 -0.065817 0.022926 
-0.070046 0.094165 0.100868 
0.003166 -0.034299 0.003000 
0.028130 -0.065507 0.000000 
0.116419 -0.044682 0.093722 
-0.073823 -0.049353 0.036670 
0.087353 -0.048181 0.061614 
0.032246 0.099194 0.042631 
0.089025 0.046024 0.033483 
-0.042086 -0.093591 0.066855 
0.049652 -0.038625 0.003000 
-0.085748 -0.031610 0.019576 
0.049024 0.104631 0.067496 
0.065190 -0.039203 0.013760 
0.007638 0.039264 0.002301 
0.108622 -0.053302 0.105296 
0.096845 -0.047425 0.050306 
0.117771 0.018478 0.078245 
0.090554 -0.066171 0.074643 
0.100461 -0.026203 0.041286 
-0.095849 -0.072821 0.081325 
-0.010304 -0.104927 0.075855 
0.029693 0.091239 0.042252 
0.025548 0.078282 0.009929 
0.013773 -0.079523 0.025045 
0.050545 -0.015627 0.003000 
-0.089115 -0.079655 0.099919 
-0.012873 0.026046 0.000000 
0.099173 0.026896 0.039151 
-0.080103 -0.042972 0.044503 
0.070265 0.098754 0.083687 
0.083217 -0.045936 0.024878 
-0.034589 -0.119810 0.105621 
0.113764 0.001717 0.082030 
0.030711 -0.094077 0.047231 
-0.101265 0.005878 0.060995 
0.025323 -0.103519 0.047318 
-0.081016 0.042941 0.046216 
-0.047201 0.116267 0.096470 
-0.010669 0.117380 0.100760 
0.095868 -0.000364 0.047301 
0.043402 0.095195 0.070755 
0.024856 -0.031726 0.003000 
0.020847 0.126171 0.103892 
0.027043 0.091776 0.026616 
0.056436 -0.061834 0.009764 
0.080831 -0.081977 0.093878 
-0.006835 -0.123142 0.090848 
0.020983 0.120618 0.106000 
0.031804 0.092916 0.030678 
-0.102002 0.058876 0.096299 
-0.049557 -0.093149 0.074979 
0.118986 -0.004579 0.093720 
-0.029442 -0.092625 0.029105 
-0.106160 0.002802 0.068321 
-0.117599 0.005217 0.091497 
-0.012187 0.087056 0.014146 
-0.025276 0.107836 0.081672 
-0.031669 -0.071373 0.018527 
0.030861 -0.107135 0.058605 
-0.076504 0.055122 0.029071 
0.097448 0.028759 0.036658 
0.053561 -0.068858 0.013064 
0.015319 0.108033 0.082065 
0.035238 0.053729 0.000000 
-0.089620 0.059740 0.049278 
0.009879 0.001931 0.003000 
-0.060043 -0.096476 0.092778 
-0.087432 -0.055011 0.066147 
0.061291 -0.042893 0.008723 
-0.101790 -0.078561 0.105624 
-0.062546 0.083216 0.074251 
0.048887 -0.026911 0.003000 
0.106489 -0.000000 0.050185 
-0.101064 -0.063373 0.077420 
-0.009156 0.081302 0.028604 
0.053190 -0.087956 0.070862 
0.094465 0.081572 0.106000 
0.069448 -0.057350 0.040060 
0.065958 0.086280 0.051692 
-0.024110 -0.010852 0.000000 
-0.066184 -0.027150 0.008015 
0.026708 0.104362 0.050014 
0.005541 -0.120635 0.083420 
-0.071489 -0.010101 0.000000 
-0.105621 0.067591 0.106000 
0.106516 0.015969 0.049051 
0.003926 -0.012083 0.000000 
-0.075483 0.024296 0.005402 
-0.051962 -0.059328 0.005039 
0.035497 -0.094926 0.036460 
-0.013632 -0.076498 0.018995 
0.101612 0.047162 0.059309 
-0.116199 0.045471 0.094010 
-0.082544 0.073571 0.055454 
-0.094115 -0.026235 0.030105 
-0.041372 -0.080116 0.044175 
0.092445 0.073352 0.074380 
0.040311 -0.092263 0.062604 
-0.007929 0.125261 0.097059 
-0.018371 0.094622 0.027557 
0.062416 -0.070191 0.052981 
-0.047660 -0.070378 0.010793 
0.031493 0.023313 0.000000 
0.017764 -0.122129 0.091321 
-0.045772 -0.091341 0.067572 
-0.045045 0.095086 0.044469 
-0.086311 0.044961 0.028899 
0.063149 -0.060517 0.037858 
-0.015385 -0.017592 0.003000 
-0.114947 -0.024182 0.098625 
-0.033154 0.101763 0.068982 
0.117883 -0.006204 0.075713 
-0.049884 -0.081840 0.057040 
-0.006891 -0.114269 0.065628 
-0.083649 0.033826 0.045370 
-0.022939 -0.120198 0.106000 
-0.048777 0.093821 0.044928 
-0.094519 -0.070620 0.091584 
-0.107300 -0.057956 0.085119 
0.001709 0.081081 0.007504 
-0.107277 0.070196 0.106000 
0.038703 0.091702 0.059609 
-0.114315 -0.019250 0.094260 
-0.103259 -0.060459 0.099703 
0.034669 -0.066120 0.000936 
0.090530 0.070944 0.065689 
0.075138 0.052116 0.040941 
-0.029674 -0.095707 0.033980 
-0.100916 -0.013793 0.036008 
-0.113272 -0.000000 0.071989 
0.120659 0.043375 0.103613 
0.015032 0.117989 0.101978 
0.017618 -0.085626 0.037251 
-0.093158 0.068088 0.067292 
-0.012044 -0.104305 0.074610 
-0.045309 -0.080300 0.049132 
-0.083488 0.018111 0.035065 
0.105853 0.030025 0.085102 
0.078180 0.098615 0.097534 
-0.034159 -0.018671 0.000000 
-0.027421 0.107555 0.081109 
-0.059898 0.103808 0.104487 
0.038892 0.093275 0.062388 
-0.082589 -0.038843 0.046575 
0.075678 0.011010 0.015802 
0.039186 -0.084204 0.048214 
-0.080094 -0.028960 0.035495 
0.012546 0.111852 0.089704 
-0.103987 0.017503 0.073523 
0.107134 -0.056933 0.104800 
-0.071046 -0.087670 0.091528 
0.085215 -0.083120 0.077230 
0.037493 -0.066315 0.017157 
0.089153 -0.079905 0.078754 
0.082181 -0.079726 0.091829 
0.092769 -0.052117 0.045925 
0.074464 -0.053640 0.023069 
-0.015186 -0.096600 0.059200 
-0.079303 0.073964 0.079087 
-0.067691 -0.067911 0.026862 
-0.026977 -0.082658 0.018983 
-0.039855 0.048144 0.002440 
-0.118650 0.032612 0.106000 
0.066205 0.027781 0.008451 
-0.077823 -0.026562 0.029673 
-0.109399 0.053345 0.106000 
0.049378 -0.006040 0.003000 
-0.072030 0.040873 0.027822 
0.035871 -0.010049 0.003000 
0.073128 -0.051212 0.036542 
-0.090318 0.006245 0.018214 
0.003058 0.116089 0.098177 
0.096813 0.070491 0.079377 
-0.095041 0.015845 0.055503 
0.082884 0.085528 0.077394 
0.049911 0.090733 0.039812 
-0.093286 0.076223 0.099291 
0.098878 -0.007136 0.031665 
0.073937 0.074569 0.073441 
-0.066546 -0.069643 0.056950 
0.079852 -0.058390 0.050118 
0.025058 0.024121 0.000000 
0.023028 0.097439 0.033524 
-0.079055 -0.007955 0.020266 
-0.060206 0.019378 0.000000 
-0.048473 -0.111679 0.103725 
-0.071165 -0.066704 0.057545 
-0.017261 -0.073675 0.002080 
-0.093962 0.019793 0.027041 
-0.089343 0.064674 0.067284 
0.002606 -0.126086 0.098290 
-0.096688 0.044951 0.047617 
0.074636 0.054044 0.028766 
-0.034887 -0.099818 0.045945 
0.051583 -0.074036 0.046405 
0.079839 0.029607 0.035426 
-0.089012 0.065275 0.076250 
0.081405 -0.006672 0.023905 
0.066609 0.072351 0.030555 
0.096051 -0.069385 0.075688 
0.028340 -0.116004 0.077702 
0.009458 -0.003798 0.003000 
-0.088631 0.037402 0.057126 
-0.008556 0.106162 0.078324 
-0.100368 -0.018596 0.036885 
0.021631 -0.057099 0.000000 
0.088775 0.017396 0.018506 
0.101507 0.063571 0.078798 
0.117617 0.033444 0.086258 
0.059125 0.074460 0.025790 
0.053839 -0.005470 0.000000 
-0.004508 0.104162 0.074324 
0.111877 -0.002410 0.059529 
-0.019876 0.083728 0.033456 
-0.068469 -0.036632 0.018339 
-0.023184 0.048229 0.002306 
0.045863 0.006088 0.003000 
0.090032 -0.065245 0.060572 
-0.009188 -0.009638 0.000000 
0.001233 0.062846 0.002120 
0.110830 0.042938 0.102840 
0.027505 -0.108579 0.083157 
0.077975 0.067945 0.067434 
-0.024181 -0.110055 0.060038 
-0.026539 -0.041176 0.000000 
0.026921 -0.011519 0.003000 
0.105545 -0.007141 0.045838 
0.091638 -0.035334 0.061509 
0.000834 -0.036248 0.000000 
0.031765 -0.089989 0.048807 
-0.032088 0.087615 0.022687 
0.049883 -0.101197 0.061087 
-0.047244 -0.068126 0.008922 
0.096998 -0.065369 0.071195 
-0.019092 0.126788 0.104984 
-0.030211 0.054951 0.002637 
-0.026647 -0.033593 0.003000 
0.093578 -0.054011 0.077179 
0.088399 -0.009195 0.015199 
0.108221 -0.065184 0.106000 
-0.013332 0.067826 0.000000 
-0.082381 -0.002700 0.023246 
0.030527 0.076743 0.008391 
0.055423 0.074624 0.051438 
0.060407 0.015870 0.003000 
-0.001367 -0.116619 0.070952 
0.063418 0.108777 0.106000 
-0.063323 -0.025259 0.003000 
-0.102617 -0.029933 0.048462 
-0.031950 0.066740 0.000499 
0.060232 -0.111550 0.099075 
0.058815 0.051396 0.017522 
-0.042210 -0.008492 0.000000 
0.122222 0.030016 0.096995 
-0.083104 -0.013343 0.031330 
-0.071694 0.046556 0.030831 
-0.092799 0.065739 0.062728 
-0.044781 0.051561 0.001377 
0.006045 0.020064 0.000000 
-0.001565 -0.071862 0.009723 
-0.076007 -0.091660 0.077353 
0.050677 -0.118414 0.105635 
-0.060598 -0.093067 0.087911 
0.048385 0.107567 0.096879 
-0.033546 -0.057603 0.000000 
0.062626 -0.040789 0.001242 
-0.094544 0.071936 0.076789 
0.050011 0.104948 0.094540 
-0.063555 0.080518 0.038550 
-0.080591 0.097687 0.099930 
0.012716 0.085672 0.012523 
-0.043836 0.077212 0.014705 
0.028330 0.086716 0.039237 
0.079865 -0.008327 0.022035 
0.064536 0.103795 0.106000 
-0.076422 0.085655 0.064631 
-0.039687 0.060910 0.000000 
0.070926 0.014511 0.009016 
0.030259 -0.062454 0.002237 
-0.060450 0.088077 0.079648 
0.023667 0.039918 0.003000 
-0.007928 -0.108602 0.052405 
-0.094816 0.086801 0.105194 
-0.054115 -0.112921 0.095620 
-0.093544 0.068102 0.075898 
-0.067543 0.028719 0.000000 
0.018696 0.100047 0.036377 
0.072820 -0.009026 0.009140 
0.080072 -0.045742 0.046222 
0.108252 0.043615 0.071456 
0.011433 0.058991 0.002134 
-0.022387 -0.049230 0.000000 
-0.093595 0.082708 0.106000 
-0.055975 0.103507 0.099359 
-0.081969 -0.059683 0.055529 
-0.047646 0.026767 0.000000 
0.007863 0.101815 0.036944 
0.100274 -0.056229 0.091319 
-0.039287 0.118896 0.094763 
-0.057128 0.092479 0.082852 
0.006086 -0.104442 0.042622 
-0.070038 -0.060064 0.045242 
0.047868 -0.064467 0.006645 
0.033830 0.104061 0.069715 
-0.120906 -0.027592 0.091519 
-0.121958 -0.041638 0.105046 
-0.101412 -0.000000 0.039984 
0.114304 0.045206 0.089336 
0.071141 -0.015632 0.010129 
-0.050384 0.116457 0.100249 
-0.089779 0.042965 0.032867 
0.076378 0.008939 0.015820 
0.016879 0.119413 0.104826 
0.024856 0.019319 0.000000 
-0.059851 -0.000295 0.000000 
0.079949 -0.042146 0.017586 
0.083125 0.060743 0.060192 
0.086247 -0.062392 0.047713 
0.038402 0.090881 0.057923 
-0.088741 0.034054 0.025513 
-0.045359 0.092985 0.040493 
0.093929 -0.011703 0.024412 
-0.084719 -0.016892 0.036626 
-0.085957 -0.006377 0.032336 
-0.020280 0.103641 0.044966 
0.019394 0.045628 0.002202 
0.090082 -0.013880 0.044878 
0.001270 -0.109295 0.053366 
-0.073953 0.091219 0.072705 
-0.073245 0.085326 0.059809 
0.036425 -0.111860 0.083971 
-0.076500 -0.008645 0.015864 
0.013543 -0.096602 0.059205 
0.032122 -0.061485 0.002835 
-0.001205 -0.101220 0.068440 
-0.019144 0.071197 0.008394 
-0.117980 0.016793 0.099643 
0.070403 0.022084 0.012804 
0.088395 0.013193 0.016543 
0.061804 -0.046643 0.003924 
-0.116366 -0.015771 0.073614 
-0.110611 -0.012763 0.058121 
0.091633 0.003247 0.041104 
0.070148 -0.022408 0.001111 
0.054438 -0.076767 0.054208 
0.031350 -0.124107 0.103404 
0.055113 0.061869 0.008886 
-0.085072 0.061635 0.059288 
0.041967 0.095551 0.042927 
-0.007241 -0.070627 0.000000 
0.054456 -0.070694 0.044388 
-0.097311 0.030881 0.037726 
-0.109892 -0.017223 0.057297 
0.035815 -0.029646 0.000000 
-0.006791 -0.116019 0.070528 
0.091303 -0.004472 0.041251 
-0.053807 -0.047512 0.000000 
-0.017381 0.059574 0.000000 
0.062832 0.046850 0.014886 
0.118534 -0.023161 0.104782 
0.029940 -0.092291 0.031705 
0.099845 0.048536 0.056900 
-0.081187 -0.080073 0.063303 
0.104890 0.037608 0.088138 
0.082737 -0.060858 0.038758 
-0.099581 -0.040141 0.079680 
0.083475 0.061113 0.048915 
-0.047317 -0.032352 0.000000 
0.022501 0.019081 0.003000 
0.011456 -0.095281 0.056563 
0.087557 0.055740 0.066852 
0.079142 -0.057561 0.046482 
-0.126486 -0.013674 0.101860 
-0.086672 0.046961 0.059539 
0.092618 -0.011080 0.022219 
0.093083 -0.042000 0.038031 
-0.119927 -0.000000 0.086389 
-0.097936 0.072274 0.085208 
-0.028862 0.088061 0.028426 
0.073167 0.048480 0.034863 
0.088247 -0.075896 0.092800 
-0.106401 0.059655 0.085276 
0.071946 0.015214 0.000713 
-0.055436 0.101150 0.065968 
-0.047333 0.114561 0.092137 
-0.031596 -0.123057 0.106000 
0.079051 0.022440 0.029399 
-0.005672 0.073423 0.012846 
-0.083457 0.045147 0.052269 
0.115771 -0.012813 0.092894 
-0.063713 -0.035098 0.008352 
0.093716 0.021425 0.056531 
-0.017725 -0.103456 0.043926 
-0.027391 -0.109454 0.084908 
0.104954 -0.046314 0.065383 
0.096813 0.041936 0.045441 
-0.068150 -0.075040 0.035295 
0.088326 -0.000000 0.022413 
0.061447 0.003402 0.000000 
0.030011 -0.091033 0.036452 
0.069542 0.061151 0.046266 
0.053250 0.113929 0.106000 
-0.098335 0.034997 0.043130 
0.109357 -0.060718 0.094576 
0.007536 -0.107147 0.048880 
-0.029260 0.023715 0.002576 
-0.090924 -0.047870 0.038365 
-0.086084 0.056304 0.064416 
-0.090488 0.034445 0.028504 
0.111714 -0.041170 0.077889 
-0.032282 0.045076 0.000000 
0.054091 -0.065414 0.010976 
0.018548 0.039171 0.000000 
0.040898 -0.101787 0.078733 
0.087337 0.031577 0.050930 
0.089792 -0.063687 0.054842 
0.093163 -0.085003 0.097929 
-0.079240 -0.048320 0.046294 
-0.048425 -0.091538 0.040252 
-0.109028 0.010211 0.078423 
-0.033403 -0.102604 0.060967 
-0.006575 -0.029611 0.003000 
0.028727 -0.090308 0.046615 
-0.020642 0.060368 0.002151 
-0.037752 -0.096685 0.041815 
-0.020305 -0.031874 0.000000 
0.043068 0.002581 0.000000 
0.085351 -0.046643 0.056825 
0.012078 0.067808 0.000000 
-0.004769 0.033403 0.000000 
-0.011195 -0.028115 0.000000 
-0.118533 0.025051 0.105993 
0.027335 -0.084213 0.034425 
-0.019597 0.108836 0.083671 
-0.092392 -0.086356 0.099153 
-0.033177 -0.120512 0.095110 
-0.076710 0.025324 0.026786 
-0.055506 -0.076435 0.054934 
-0.031003 -0.123166 0.106000 
-0.096372 -0.039750 0.073335 
0.005181 -0.016529 0.000000 
-0.096050 0.004209 0.027222 
0.005980 -0.073125 0.012250 
-0.071634 -0.081993 0.051911 
0.124597 -0.008026 0.106000 
-0.039247 -0.120658 0.101615 
-0.088331 0.029881 0.051729 
0.011213 0.085003 0.036007 
-0.122058 0.000721 0.086325 
-0.038550 0.118546 0.100472 
-0.065145 -0.033887 0.000000 
-0.015129 -0.110337 0.058599 
0.034134 -0.014935 0.000000 
0.034761 -0.058025 0.000230 
0.063115 -0.057263 0.032442 
-0.066520 -0.083297 0.047307 
0.051348 0.080815 0.026170 
-0.122049 0.018965 0.106000 
-0.102480 0.003207 0.061610 
0.076401 0.101129 0.106000 
-0.038846 0.117402 0.101607 
0.038481 0.056264 0.000000 
-0.074581 -0.066717 0.061598 
0.016460 0.049461 0.000000 
0.028694 0.115877 0.097753 
0.000997 -0.055059 0.000000 
0.096619 -0.044804 0.077046 
0.008701 0.069355 0.000000 
0.041339 -0.071369 0.029962 
-0.071817 0.022734 0.015890 
0.023972 0.027393 0.003000 
-0.051921 0.031740 0.000000 
0.042499 0.104832 0.062224 
-0.003326 -0.083258 0.032517 
-0.112280 -0.013247 0.086542 
-0.006251 0.071213 -0.000000 
0.057761 0.075892 0.056299 
-0.062447 0.045784 0.010709 
-0.103879 -0.052677 0.069823 
0.077864 -0.060771 0.055648 
0.098227 0.018230 0.063049 
0.031910 -0.075028 0.024735 
-0.069824 0.067966 0.058048 
0.024845 0.076116 0.010148 
0.031224 0.085129 0.040219 
0.094946 -0.040176 0.040268 
-0.059172 0.106214 0.083777 
-0.033319 0.124135 0.104813 
-0.008657 -0.003595 0.003000 
-0.037844 -0.062091 0.000000 
0.006683 -0.016541 0.003000 
-0.033070 0.067665 0.014167 
-0.026567 -0.093208 0.028914 
-0.106615 -0.011729 0.048449 
0.062691 0.064832 0.017976 
-0.090466 0.073323 0.091256 
-0.010904 -0.072318 0.010637 
-0.045141 0.104753 0.088559 
0.096830 -0.068372 0.075857 
0.023804 0.109897 0.085794 
-0.056535 -0.065147 0.037702 
0.050217 0.105929 0.096388 
0.022926 0.003244 0.000000 
-0.031186 0.114845 0.077062 
0.034298 -0.102145 0.050363 
-0.105978 0.029910 0.085265 
0.066314 -0.087037 0.053472 
0.083258 0.044935 0.023966 
-0.066567 0.062088 0.019221 
-0.114023 -0.018359 0.093133 
0.023948 -0.069594 0.002962 
-0.004991 0.123679 0.091893 
0.029940 0.092071 0.042420 
0.054489 -0.068681 0.041129 
0.064240 0.085551 0.048134 
-0.096019 0.085659 0.106000 
0.065635 -0.095705 0.098144 
0.033582 -0.094443 0.034211 
-0.013853 -0.107024 0.080047 
-0.105409 -0.008168 0.070284 
-0.017639 -0.110894 0.060265 
0.068391 0.049523 0.013450 
0.083685 -0.027728 0.014471 
-0.016596 -0.067594 0.000000 
-0.118076 -0.048521 0.106000 
-0.003201 0.067209 0.002071 
0.092756 0.000528 0.041515 
0.022010 0.080310 0.026619 
0.004301 -0.062977 0.000000 
0.095354 0.069395 0.084661 
0.028366 -0.086821 0.039359 
0.018775 -0.070175 0.006351 
-0.121524 0.012274 0.103476 
-0.094921 -0.042503 0.042090 
-0.052140 0.048331 0.000000 
-0.049160 -0.108964 0.079017 
0.005250 -0.108732 0.052185 
-0.105205 -0.011921 0.045146 
-0.046051 -0.052266 0.004041 
0.071529 0.018308 0.012553 
0.121069 0.006940 0.099189 
0.096607 -0.001709 0.028097 
-0.023232 0.117894 0.101788 
0.021645 0.069274 0.004549 
0.111465 -0.022208 0.090745 
0.073473 0.047130 0.034579 
-0.014468 0.105940 0.077880 
0.006354 0.128129 0.104907 
-0.031839 -0.050019 0.000000 
-0.003392 -0.110439 0.055900 
0.115807 -0.012841 0.071451 
-0.075382 -0.010101 0.002597 
0.066092 0.102370 0.085410 
0.014633 0.098400 0.062800 
-0.009928 0.040236 0.000000 
0.066360 0.110206 0.105449 
0.099973 0.039658 0.080115 
-0.063306 -0.097109 0.097664 
-0.042750 -0.041866 0.000000 
-0.105963 0.060615 0.085388 
0.098747 -0.018815 0.033946 
-0.091029 -0.028233 0.026152 
0.010776 0.098684 0.063369 
-0.077819 -0.002013 0.014178 
-0.000435 -0.081975 0.008334 
-0.045701 -0.042237 0.003000 
-0.126489 -0.020303 0.104608 
0.073596 -0.036505 0.027995 
-0.034775 -0.115399 0.082393 
0.015128 0.068963 0.003927 
-0.087797 -0.049023 0.062999 
0.086570 0.070422 0.081738 
-0.009642 0.018027 0.000000 
0.067009 -0.104817 0.092391 
0.106059 -0.032808 0.057536 
0.078399 -0.051236 0.046569 
0.005124 0.067229 0.000458 
0.056977 0.094487 0.085756 
0.052975 -0.085526 0.033734 
-0.117035 0.041461 0.106000 
-0.083420 -0.000000 0.010212 
-0.110950 0.062583 0.101309 
-0.103504 0.064725 0.102905 
-0.106445 -0.008514 0.072464 
-0.064251 0.081622 0.041382 
-0.059553 -0.039396 0.000000 
0.089570 0.048045 0.035780 
0.012832 -0.068281 0.000000 
-0.089057 -0.000000 0.025337 
-0.073789 -0.082208 0.085923 
-0.006851 0.072293 0.002009 
-0.106555 0.000396 0.047374 
0.038151 0.113942 0.080905 
-0.114105 -0.023945 0.096873 
-0.095424 0.042590 0.043172 
0.058712 0.108568 0.090149 
0.029625 -0.060309 0.000000 
-0.077344 -0.097028 0.092286 
0.066959 -0.080703 0.043426 
0.116247 -0.000000 0.081860 
-0.078818 0.087936 0.101155 
0.003520 -0.069453 0.003000 
-0.054786 0.063628 0.033129 
0.049533 0.067246 0.009451 
-0.006693 -0.080485 0.026971 
0.068158 0.001347 0.000000 
0.019605 0.037626 0.003000 
0.089296 0.076368 0.094710 
-0.075141 -0.019996 0.020455 
-0.072421 0.091826 0.099889 
0.056620 -0.050791 0.002334 
0.027313 -0.061968 0.000000 
0.086145 0.044669 0.028105 
0.010514 -0.109873 0.055929 
0.041527 -0.115355 0.087650 
0.034528 -0.071413 0.021974 
0.049829 0.116343 0.099397 
0.040904 -0.060389 0.000000 
-0.127725 -0.011413 0.106000 
-0.081108 -0.029029 0.037465 
-0.020452 0.001990 0.003000 
-0.114033 -0.020255 0.094368 
-0.004802 0.090098 0.046195 
0.063641 0.096231 0.096557 
-0.033404 -0.102491 0.067753 
0.040160 -0.101572 0.077511 
0.039068 -0.057005 0.003629 
-0.077593 -0.077727 0.054096 
0.116791 0.030032 0.081142 
-0.063900 -0.026624 0.000000 
0.111885 -0.027164 0.094722 
0.102216 0.058866 0.096700 
0.076511 0.048623 0.041307 
-0.010350 -0.115042 0.068583 
-0.086876 -0.025360 0.046066 
-0.033574 0.103475 0.057678 
0.024124 -0.105682 0.077364 
-0.070939 0.005499 0.003353 
-0.007152 0.055430 0.000000 
0.004242 0.043644 0.002289 
-0.047952 0.094321 0.045270 
-0.031561 -0.006067 0.000000 
-0.008933 -0.091814 0.049627 
0.083787 0.093871 0.106000 
0.006699 -0.028648 0.000000 
-0.061261 0.058111 0.031655 
-0.030140 -0.085563 0.039712 
-0.094134 0.073581 0.078871 
0.005945 0.073079 0.000074 
0.082029 0.036940 0.016780 
-0.076073 0.076228 0.049416 
0.014041 0.049185 0.000000 
0.098552 0.025865 0.068566 
-0.028996 0.084842 0.037190 
-0.069886 0.027960 0.001679 
-0.023350 0.081745 0.029491 
0.103090 0.011608 0.040072 
0.022787 -0.107681 0.081362 
-0.093942 -0.073100 0.077399 
0.087337 0.049567 0.062474 
0.069903 -0.024639 0.013468 
-0.111301 0.044398 0.079860 
0.108165 -0.038918 0.066586 
0.034494 0.063938 0.009540 
-0.056260 -0.070334 0.017733 
-0.061561 -0.051273 0.020709 
0.037084 0.114253 0.087322 
0.097161 -0.014251 0.030128 
0.110185 0.021521 0.087873 
0.064098 -0.000438 0.003000 
0.103318 0.048100 0.091885 
-0.097439 0.039695 0.075325 
0.123582 -0.032610 0.102988 
0.104627 0.025865 0.080104 
0.081866 0.058936 0.034768 
-0.015173 -0.119269 0.081716 
-0.028782 0.001726 0.003000 
0.052717 -0.097319 0.055957 
0.093025 0.069539 0.087998 
-0.018928 -0.108693 0.055711 
0.015288 -0.104142 0.074284 
-0.094137 -0.024056 0.059020 
0.116505 0.007937 0.072152 
-0.067032 -0.058807 0.039617 
0.109724 0.035845 0.067753 
0.028167 0.094393 0.054786 
-0.034596 -0.101343 0.070556 
-0.072625 -0.055486 0.019740 
0.048516 0.048864 0.000000 
-0.094474 0.069744 0.072597 
-0.066104 -0.054017 0.011304 
0.002842 -0.127078 0.101161 
0.112893 0.013038 0.063582 
-0.031859 -0.101695 0.069391 
0.069326 -0.086367 0.056352 
-0.036716 0.098774 0.068900 
-0.035894 0.053382 0.002559 
0.062621 0.071638 0.025662 
-0.068800 -0.009665 0.001934 
0.011447 -0.043814 0.003000 
0.025750 0.078526 0.021239 
0.120584 -0.042419 0.102266 
0.082936 -0.072970 0.055324 
0.010462 -0.017718 0.003000 
0.098961 -0.024241 0.036941 
0.060327 -0.084305 0.073391 
0.061340 0.044887 0.007243 
0.030231 -0.030806 0.000000 
0.025494 -0.022852 0.000000 
-0.101977 -0.073959 0.105930 
-0.049730 0.090805 0.071386 
-0.119802 -0.000000 0.084692 
0.092666 0.032471 0.030863 
0.046828 -0.065901 0.007028 
-0.023441 0.019861 0.000000 
0.038373 0.091946 0.059621 
-0.093848 0.035106 0.065560 
-0.083915 -0.086114 0.080798 
-0.022351 -0.030603 0.000000 
0.001780 -0.073575 0.013149 
0.003934 -0.102526 0.071051 
-0.105049 0.028270 0.082448 
-0.042238 -0.014992 0.003000 
0.073000 0.005811 0.001309 
-0.035528 -0.109154 0.083273 
0.050845 0.098009 0.055665 
-0.104105 -0.027474 0.080144 
0.102227 -0.066104 0.085076 
0.109739 -0.010598 0.055838 
0.124401 -0.013038 0.095835 
0.071984 0.082232 0.052792 
-0.024210 -0.011694 0.003000 
-0.038240 0.068468 0.021594 
-0.052462 -0.011047 0.000000 
0.071100 0.099809 0.087636 
0.073421 -0.075049 0.073884 
-0.014248 0.047549 0.002309 
-0.040710 -0.033121 0.003000 
-0.018500 -0.014049 0.000000 
-0.041236 0.027050 0.000000 
0.034202 -0.104819 0.073199 
0.079182 -0.049473 0.046925 
-0.112237 0.057963 0.098583 
-0.087635 -0.094158 0.106000 
-0.112751 -0.051532 0.091696 
-0.006753 -0.104983 0.075966 
0.034973 -0.106503 0.068704 
-0.061494 0.102507 0.077723 
0.113685 -0.016482 0.091286 
0.060235 -0.035030 0.001726 
0.032052 0.065710 0.000000 
0.109312 0.043040 0.100023 
0.080102 0.012279 0.024976 
-0.014941 -0.119714 0.105428 
-0.021703 -0.036883 0.000000 
-0.089036 0.064754 0.061385 
0.007150 0.072591 0.011182 
-0.070045 0.091842 0.097103 
0.035219 -0.095513 0.061847 
0.035424 -0.108841 0.083197 
0.081014 0.048526 0.049797 
-0.009449 0.070934 0.007869 
-0.063697 -0.046220 0.006423 
-0.057836 0.042788 0.002288 
-0.070627 0.085961 0.088262 
0.034131 -0.021903 0.003000 
-0.070590 -0.092231 0.068893 
0.107468 -0.042179 0.067850 
0.065959 -0.031964 0.010626 
-0.070025 0.087559 0.090138 
-0.096617 -0.078335 0.093175 
-0.021710 0.094294 0.028366 
-0.088853 -0.064280 0.063630 
0.057814 0.115050 0.105889 
0.114190 -0.014812 0.091174 
-0.084417 -0.081923 0.098035 
-0.093244 -0.053176 0.047729 
-0.038018 0.116929 0.099350 
-0.109413 -0.010955 0.079626 
-0.018099 0.070100 0.000000 
-0.118624 0.000450 0.076453 
0.045353 0.111833 0.100233 
0.068265 0.021277 0.000000 
-0.069044 0.043570 0.023881 
0.017304 -0.060484 0.003000 
0.055508 0.038569 0.003000 
-0.112446 -0.034055 0.100209 
0.002837 0.121135 0.084151 
-0.006273 0.074178 0.014355 
-0.007923 -0.089826 0.017441 
-0.029943 -0.097231 0.060461 
0.033232 0.089706 0.026513 
-0.125077 0.007706 0.096486 
-0.062509 0.055020 0.028020 
-0.084865 0.061533 0.051284 
-0.043647 -0.066392 0.005764 
-0.055297 -0.057489 0.023586 
0.084302 0.012695 0.011215 
-0.066401 0.051113 0.009696 
-0.035968 0.072379 0.025243 
-0.023544 0.112754 0.091507 
0.055762 -0.045522 0.004359 
-0.083012 0.017901 0.034031 
0.112016 0.040236 0.078207 
0.005493 -0.067790 0.001580 
-0.071518 0.086601 0.090353 
-0.020025 0.070703 0.000000 
-0.029750 0.091937 0.028865 
-0.113417 0.048853 0.090367 
0.118654 -0.016443 0.100699 
0.090394 -0.047764 0.037303 
0.062116 -0.077089 0.063815 
0.027906 -0.085891 0.018476 
-0.090508 -0.068650 0.062578 
0.023037 -0.070112 0.002872 
0.060248 0.067383 0.018112 
0.009714 -0.127228 0.103087 
0.073339 0.048566 0.035245 
-0.076865 -0.045164 0.039760 
-0.083556 0.064884 0.069163 
0.123222 0.002187 0.089972 
0.123337 -0.020518 0.106000 
0.048682 0.073896 0.014633 
0.052004 -0.046217 0.001072 
-0.092891 0.064491 0.061294 
0.011413 -0.041573 0.000000 
-0.031016 0.095075 0.054416 
0.072774 0.053286 0.033916 
0.018257 -0.102169 0.041155 
0.001875 -0.098949 0.063898 
0.113803 -0.003096 0.063920 
-0.038628 -0.106489 0.083666 
-0.111958 -0.028741 0.067405 
0.053699 0.067126 0.037125 
0.056360 -0.073508 0.051201 
0.088765 -0.085766 0.090275 
0.121974 -0.005901 0.087325 
-0.063062 0.048757 0.018321 
0.041540 0.104494 0.060787 
-0.062484 -0.089829 0.084894 
-0.023039 0.067034 0.000000 
0.074887 -0.030047 0.026316 
-0.028421 0.016098 0.000000 
0.123498 -0.024146 0.097730 
0.068719 0.075458 0.068667 
-0.018257 0.092650 0.024561 
-0.034967 -0.106851 0.070117 
0.101491 -0.055280 0.093022 
0.004007 -0.078007 0.004649 
0.119075 -0.003305 0.078430 
0.098874 0.065646 0.094703 
0.002932 0.085397 0.036795 
0.012093 -0.083461 0.032922 
-0.000460 -0.100688 0.034510 
0.024779 0.064847 0.000000 
-0.034281 0.013101 0.000000 
0.031721 0.087076 0.043967 
0.099894 -0.047579 0.085047 
0.089576 -0.080738 0.081398 
0.094300 -0.073062 0.078163 
-0.069307 0.005866 0.000497 
0.018045 -0.037328 0.003000 
-0.016348 -0.050857 0.003000 
0.077689 0.037205 0.036217 
-0.015617 -0.116692 0.074503 
-0.068500 0.049578 0.014545 
-0.106307 -0.026713 0.054036 
-0.037702 -0.053351 0.003000 
0.104780 -0.004700 0.066906 
0.021991 0.065079 0.000000 
-0.012321 0.123810 0.106000 
0.047974 0.058469 0.016308 
-0.032685 0.120011 0.092337 
0.033613 -0.059738 0.001707 
-0.057253 -0.069702 0.046077 
-0.049914 0.077975 0.050813 
0.073519 0.052866 0.018950 
-0.051801 -0.103842 0.068783 
-0.003649 -0.098979 0.031824 
0.031173 0.104037 0.074073 
-0.120764 0.033505 0.095089 
-0.092005 0.011181 0.021313 
0.029818 -0.107592 0.081184 
0.058199 0.044202 0.001561 
-0.012007 0.003682 0.000000 
-0.097489 0.071121 0.086191 
0.049317 -0.093799 0.045736 
0.097024 -0.034437 0.071164 
0.074888 0.077336 0.049297 
0.024012 -0.122761 0.095470 
-0.036212 0.080811 0.014408 
-0.093839 0.048044 0.044374 
-0.091281 0.020370 0.051242 
-0.045226 -0.120680 0.105622 
0.017475 0.093079 0.052158 
0.012248 0.095267 0.026690 
-0.114081 0.021060 0.094977 
-0.036309 -0.010619 0.000000 
-0.022718 0.025753 0.002536 
0.126498 -0.011536 0.101411 
-0.022235 -0.097913 0.061827 
-0.022811 0.123877 0.106000 
0.020210 -0.007514 0.000000 
-0.028955 0.075963 0.022754 
-0.066017 -0.048161 0.013520 
0.030734 0.070906 0.003524 
0.062306 0.028864 0.001756 
0.069889 -0.010542 0.000000 
0.038069 -0.117058 0.099703 
0.028568 0.087702 0.035887 
-0.025182 0.053367 0.002240 
0.097766 0.078329 0.106000 
0.055803 -0.090486 0.045727 
0.059448 0.041347 0.004230 
-0.115563 0.054474 0.102800 
-0.089034 -0.000000 0.018157 
-0.018159 0.104978 0.047489 
0.102828 0.021556 0.043364 
0.060232 -0.112415 0.101335 
-0.063976 0.069079 0.024061 
0.043385 0.016906 0.000000 
-0.067200 0.001384 0.000000 
-0.050133 0.000434 0.000000 
-0.091599 -0.050518 0.071179 
0.066297 -0.048194 0.008070 
-0.026175 -0.079679 0.017641 
0.096916 0.000180 0.028582 
-0.122589 -0.010879 0.104604 
-0.104522 0.032419 0.054130 
-0.074462 0.066797 0.033142 
0.027220 -0.096203 0.033558 
0.089463 0.065243 0.069913 
0.122599 -0.007405 0.089431 
-0.085090 0.036024 0.021014 
0.085570 -0.065074 0.071855 
-0.063293 -0.046031 0.007002 
0.026714 0.051433 0.002129 
0.082921 -0.000699 0.023006 
-0.099810 0.017566 0.065630 
-0.028796 -0.019582 0.003000 
-0.037292 0.094488 0.037076 
-0.011453 -0.079879 0.025757 
0.030285 -0.092737 0.044889 
-0.083810 0.023652 0.013105 
0.015345 0.027470 0.003000 
0.111460 -0.000000 0.075297 
0.059266 -0.086835 0.043792 
0.033391 -0.103099 0.054584 
-0.001871 0.084895 0.011045 
0.018708 0.054126 0.002149 
-0.118538 -0.011196 0.097112 
-0.037932 -0.056534 0.000000 
0.070698 -0.084475 0.085938 
0.100970 -0.003830 0.034953 
0.039472 0.115784 0.099689 
0.064872 0.034304 0.000000 
0.036823 0.122528 0.102478 
-0.078054 -0.090805 0.079136 
0.051548 -0.084909 0.031583 
-0.038824 0.005503 0.003000 
0.113550 0.059074 0.102887 
0.034361 0.106084 0.064712 
-0.093145 0.071778 0.073254 
0.035234 0.116188 0.084085 
-0.025804 0.076665 0.006950 
-0.117724 -0.011508 0.076475 
-0.116329 -0.053888 0.103900 
0.085768 0.001136 0.028670 
0.106340 -0.062394 0.089173 
0.037334 0.114846 0.094730 
0.010815 -0.106669 0.048397 
-0.093096 0.030319 0.061062 
0.058492 -0.017828 0.000000 
-0.002399 -0.101616 0.036364 
-0.070473 -0.077454 0.074294 
0.105702 0.057122 0.102202 
-0.103681 0.046696 0.091674 
-0.020513 0.080048 0.026096 
0.001420 0.114347 0.094694 
0.093335 0.016638 0.025150 
-0.070003 -0.003607 0.000000 
0.064886 0.018787 0.000282 
-0.020814 -0.086178 0.038356 
0.071984 0.060521 0.048152 
0.098111 -0.071989 0.085077 
-0.055689 0.106452 0.080232 
0.036902 -0.003550 0.000000 
0.121117 -0.043585 0.104969 
0.022320 0.009929 0.000000 
-0.051801 0.060234 0.005603 
0.054981 -0.089113 0.074856 
-0.022217 0.078164 0.022327 
-0.080079 -0.000000 0.011106 
-0.003440 0.076375 0.003134 
0.046071 0.080869 0.050544 
0.070453 -0.050932 0.016886 
-0.025365 0.041014 0.000000 
-0.101412 -0.010699 0.035983 
-0.005598 -0.002957 0.003000 
-0.087069 0.089993 0.095605 
0.033441 -0.026106 0.000000 
-0.088042 0.012724 0.015804 
0.072855 0.047051 0.033355 
0.025943 0.067252 0.004993 
-0.051672 -0.088739 0.037234 
-0.102096 -0.000000 0.048725 
-0.006018 0.125027 0.106000 
0.046456 0.005087 0.003000 
0.046106 0.087310 0.061067 
0.071493 0.035238 0.005778 
0.093372 -0.056741 0.078540 
0.045354 0.108510 0.073861 
0.051036 0.057710 0.018631 
-0.013652 -0.096329 0.028761 
0.047730 0.105267 0.067626 
-0.089920 0.090988 0.103700 
0.058656 -0.081136 0.066280 
0.027788 -0.096355 0.034057 
0.085199 0.072780 0.058968 
0.098384 0.029874 0.070819 
-0.013853 0.054317 0.000000 
0.076884 0.046608 0.040721 
-0.021806 0.102161 0.042087 
-0.065565 0.107642 0.096623 
-0.014067 0.125621 0.099495 
-0.103386 -0.073367 0.106000 
0.002605 0.109748 0.054850 
0.099614 -0.068186 0.097738 
0.066898 -0.056721 0.013988 
-0.020227 -0.118906 0.081986 
0.103515 -0.059420 0.099521 
-0.057034 0.103792 0.074835 
-0.024262 0.109898 0.085797 
-0.010413 0.061400 0.002143 
-0.057955 0.077807 0.060055 
0.127640 0.005980 0.103429 
0.107559 -0.012776 0.077274 
-0.079908 -0.090039 0.105851 
-0.061656 -0.008273 0.000000 
-0.012883 -0.109093 0.054890 
0.054678 -0.091382 0.045927 
-0.075329 0.061182 0.028646 
-0.105664 0.047346 0.095856 
0.063600 -0.096603 0.097192 
0.079390 -0.100815 0.104911 
0.076944 -0.055750 0.033715 
-0.072886 0.095941 0.106000 
-0.047143 -0.060459 0.018870 
-0.031141 -0.076840 0.008665 
-0.076462 0.016770 0.004637 
-0.035334 -0.102908 0.073965 
-0.053736 0.116966 0.105391 
0.002831 -0.107260 0.048862 
-0.012469 -0.034641 0.003000 
0.092878 0.082841 0.092861 
0.101966 0.016644 0.039447 
-0.035653 -0.111598 0.072749 
-0.075974 0.012657 0.017400 
0.089690 0.067569 0.080799 
0.032360 0.081250 0.035228 
-0.065532 0.081437 0.074903 
0.034276 -0.105368 0.065506 
-0.097049 0.070660 0.092859 
0.008877 0.024187 0.003000 
0.045187 -0.022651 0.003000 
0.003964 -0.024376 0.000000 
0.028265 -0.043774 0.000000 
0.052864 -0.043972 0.000000 
0.023702 -0.032460 0.000000 
0.102679 -0.016676 0.070507 
0.051649 -0.092060 0.075690 
0.015541 0.115772 0.071871 
0.070822 0.080765 0.079851 
-0.108382 -0.046228 0.074115 
0.049971 0.055879 0.014414 
-0.079821 -0.029865 0.010983 
-0.044991 -0.100692 0.055711 
-0.006596 -0.049698 0.000000 
0.087453 -0.082881 0.103180 
0.054559 -0.058230 0.006014 
-0.046193 0.087006 0.061045 
-0.073643 -0.001582 0.006001 
-0.032645 -0.089585 0.049195 
-0.084314 0.054192 0.033352 
0.034225 -0.105017 0.071063 
-0.055588 0.041435 0.003000 
0.027759 -0.026324 0.000000 
-0.021000 0.055734 0.002213 
-0.041540 0.038808 0.000000 
-0.018118 0.115624 0.072061 
-0.112235 0.005426 0.060879 
0.070522 -0.013960 0.007904 
-0.105662 0.058799 0.082166 
0.010285 0.111403 0.059808 
0.023198 0.116642 0.099284 
0.088383 0.032395 0.053442 
0.074659 -0.048142 0.015129 
-0.026807 -0.081874 0.023989 
-0.108145 0.014420 0.079441 
-0.112508 -0.006528 0.061686 
-0.092972 0.056968 0.051783 
0.079736 -0.009930 0.022802 
0.103698 0.062783 0.082678 
0.101142 0.049647 0.088745 
0.090104 0.053519 0.070266 
0.006029 0.115477 0.096955 
0.012755 -0.108724 0.083448 
0.105977 0.008117 0.071328 
-0.079010 0.087432 0.100564 
0.094026 0.045172 0.042438 
-0.105445 -0.011289 0.045599 
-0.102707 -0.016167 0.070235 
-0.012696 0.121786 0.106000 
0.068668 0.013528 0.004122 
-0.106481 -0.051344 0.099974 
-0.043202 0.112416 0.082290 
0.025597 0.124913 0.102166 
-0.081049 -0.034209 0.040676 
-0.018637 0.072953 0.001730 
0.030914 -0.094772 0.047114 
0.010249 0.022217 0.000000 
0.019619 0.108579 0.055588 
-0.008690 0.034396 0.002413 
-0.040605 -0.119082 0.096428 
0.053576 0.036855 0.000000 
-0.046023 -0.092129 0.039478 
0.123424 0.032335 0.102072 
0.030201 0.102611 0.048621 
0.084231 -0.008107 0.030160 
0.049549 0.070928 0.038411 
-0.101444 0.062615 0.077302 
0.051743 -0.004270 0.000000 
-0.037008 -0.049275 0.000000 
0.091184 0.063206 0.078532 
0.043565 0.112217 0.098728 
0.021768 -0.062132 0.000000 
0.043733 0.065993 0.023621 
-0.128673 0.001757 0.105452 
0.097578 -0.070808 0.094110 
0.078382 -0.004673 0.016922 
-0.014450 0.109728 0.085456 
-0.022113 0.067822 0.001643 
0.032191 -0.115547 0.097095 
0.018243 0.035622 0.003000 
0.081616 0.069328 0.048173 
-0.057245 -0.089121 0.045431 
0.094673 -0.001540 0.025058 
-0.045851 -0.119293 0.102634 
0.061855 -0.038870 0.003000 
0.077884 0.002019 0.014303 
0.035164 -0.107251 0.071858 
0.086849 -0.061504 0.046830 
0.023087 -0.023761 0.000000 
-0.092873 -0.067906 0.066020 
0.071518 0.042685 0.028014 
-0.048381 0.097654 0.080888 
-0.074188 -0.032383 0.026473 
0.031397 -0.054743 0.003000 
-0.083200 -0.007943 0.028104 
-0.078094 -0.001040 0.014083 
-0.035255 -0.038123 0.003000 
-0.028951 -0.124858 0.104147 
-0.041741 0.024622 0.002597 
-0.082386 0.059384 0.038556 
0.056011 -0.094014 0.052466 
-0.105022 0.035527 0.087054 
-0.091327 -0.080505 0.103914 
0.030578 0.041311 0.000000 
-0.017907 -0.017075 0.000000 
0.059158 -0.099843 0.097187 
-0.049486 0.016148 0.002702 
-0.046887 -0.048032 0.000000 
-0.110606 -0.059457 0.095621 
0.011558 -0.116426 0.098852 
-0.004767 -0.104858 0.075715 
0.093488 0.000582 0.023195 
0.028045 -0.085135 0.027801 
-0.029154 0.088910 0.035654 
0.124669 0.015104 0.097038 
0.071943 -0.061379 0.024845 
0.005966 -0.080162 0.026324 
0.116372 0.006914 0.090252 
0.054749 -0.098845 0.060810 
0.036989 -0.104448 0.057230 
0.089271 -0.076933 0.095691 
-0.115490 -0.009790 0.069731 
-0.091628 0.017080 0.049823 
0.043788 -0.023986 0.003000 
0.088107 -0.029630 0.022280 
-0.027081 -0.094648 0.055296 
-0.061979 -0.057444 0.010553 
-0.072680 -0.010319 0.009691 
0.078760 -0.060597 0.032527 
0.095800 -0.001291 0.047757 
-0.053996 -0.013969 0.000000 
-0.106413 -0.045533 0.068277 
-0.090294 0.065593 0.060111 
0.057623 -0.028222 0.003000 
-0.010879 -0.099500 0.032674 
-0.031537 -0.066341 0.001697 
-0.045037 0.113789 0.103079 
-0.041576 -0.056212 0.000000 
-0.088001 -0.072290 0.086650 
0.103729 -0.030204 0.050776 
0.017783 -0.102997 0.042875 
-0.099448 0.043553 0.081618 
-0.122439 -0.001002 0.087493 
-0.044514 0.037471 0.002869 
-0.038786 0.118984 0.094845 
-0.089993 -0.079595 0.100860 
0.082735 0.083460 0.072726 
0.061676 0.099444 0.099463 
0.032751 -0.110876 0.087752 
-0.069126 0.049967 0.014840 
-0.005718 -0.075368 0.016737 
-0.014565 -0.086239 0.038477 
-0.074045 0.027454 0.005015 
0.027361 -0.053610 0.000000 
-0.003223 -0.084600 0.010771 
0.092799 0.078703 0.084982 
-0.095745 0.019440 0.059111 
0.026218 -0.098407 0.037079 
-0.068853 -0.050415 0.027769 
-0.050276 -0.022374 0.000000 
0.087290 -0.070363 0.059331 
0.074826 -0.097760 0.089496 
-0.018736 0.105892 0.049582 
0.032114 0.061818 0.003324 
-0.110613 0.018484 0.086737 
-0.074931 -0.054309 0.028664 
0.066053 -0.024770 0.003000 
0.060269 -0.034536 0.003000 
-0.044130 0.062417 0.018548 
0.083980 0.061229 0.041396 
-0.105747 -0.022071 0.079796 
0.090738 -0.068499 0.062772 
0.085533 -0.082004 0.099486 
0.066609 -0.017956 0.003019 
-0.095214 0.029485 0.064549 
0.057448 -0.024466 0.003000 
-0.033409 -0.119852 0.105704 
-0.087765 0.077097 0.094175 
-0.117716 -0.028106 0.106000 
0.040430 0.043946 0.003000 
0.031247 -0.035554 0.003000 
-0.093133 -0.013251 0.050255 
0.018901 0.071090 0.008180 
0.113057 -0.029636 0.071531 
0.104221 0.074874 0.106000 
-0.055142 -0.000318 0.000000 
-0.090593 0.021213 0.022681 
-0.081113 -0.029441 0.037739 
-0.013932 -0.079492 0.024984 
-0.105635 -0.050641 0.097917 
-0.116800 -0.016997 0.075136 
0.056456 0.085730 0.070822 
-0.072007 -0.081053 0.081942 
0.078466 -0.019970 0.007288 
0.031430 -0.112946 0.072319 
0.063910 -0.060781 0.014860 
-0.035975 -0.117491 0.100981 
0.059633 -0.082107 0.069008 
0.107804 0.008937 0.051225 
0.047175 -0.002972 0.003000 
-0.008759 -0.030131 0.000000 
-0.040959 -0.080874 0.044914 
0.002197 -0.108281 0.051121 
0.005022 0.036980 0.002339 
0.067318 0.090763 0.061234 
0.063398 -0.093555 0.092014 
0.100859 0.048381 0.058825 
-0.027608 0.105767 0.077533 
0.038125 0.078020 0.012231 
0.121478 -0.037114 0.100136 
-0.084164 0.012097 0.032550 
-0.092281 -0.063695 0.080929 
-0.035964 -0.109356 0.067676 
-0.034715 -0.086428 0.046527 
-0.036874 0.059712 0.002077 
-0.078097 -0.062869 0.033894 
-0.054457 -0.111466 0.092308 
0.036812 0.045547 0.000000 
-0.008063 -0.121619 0.086789 
0.000459 0.121650 0.085100 
0.035153 -0.043460 0.000000 
0.108995 -0.022486 0.086231 
0.091254 0.040772 0.064270 
0.116164 -0.000000 0.074073 
-0.062067 0.084251 0.042985 
-0.038131 0.075878 0.010517 
0.015348 -0.076024 0.003944 
-0.048310 -0.010051 0.000000 
-0.020451 -0.080085 0.008843 
-0.082331 -0.067267 0.071657 
-0.110634 -0.032601 0.067307 
-0.069452 -0.026057 0.000636 
-0.100476 0.065195 0.097455 
-0.068577 0.014697 0.000000 
-0.085450 -0.060052 0.042502 
-0.092038 -0.063080 0.080073 
0.036067 -0.097358 0.041814 
0.085882 0.043170 0.026750 
0.021387 0.041435 0.002902 
-0.013628 -0.111819 0.061550 
-0.078920 0.092102 0.083871 
-0.041405 -0.118638 0.096034 
-0.082072 -0.086909 0.103340 
0.090804 -0.071010 0.087844 
-0.096498 0.043021 0.075673 
0.084663 -0.047308 0.055946 
0.113801 0.054356 0.106000 
-0.111426 0.060276 0.099504 
-0.028279 -0.086508 0.035548 
-0.012699 -0.034342 0.000000 
-0.052750 0.036910 0.002332 
-0.124728 -0.010592 0.096176 
0.032138 -0.121593 0.106000 
-0.001081 0.032887 0.000000 
0.009674 -0.067332 0.003000 
-0.059213 -0.103084 0.075873 
-0.050300 0.013384 0.000000 
0.026331 0.080620 0.012326 
-0.078229 -0.075933 0.052302 
-0.008935 -0.037865 0.000000 
-0.096021 -0.033099 0.036732 
-0.044812 -0.064328 0.004859 
-0.114196 0.041929 0.085029 
-0.042442 -0.098422 0.049088 
-0.043611 -0.074438 0.037623 
0.079931 0.058499 0.044974 
-0.037112 0.045900 0.000000 
0.115197 -0.052361 0.099090 
0.106957 -0.000000 0.058234 
0.014211 -0.070557 0.000000 
-0.002225 0.066861 0.002076 
0.043519 -0.105406 0.064201 
-0.038150 0.029532 0.002537 
0.091987 0.044192 0.067856 
-0.055901 -0.003778 0.000000 
0.079348 -0.070771 0.073924 
0.008163 0.099851 0.033194 
0.062671 -0.095339 0.063448 
-0.111322 -0.038158 0.100706 
0.047096 0.115067 0.106000 
-0.093589 -0.065618 0.084648 
0.060314 0.091856 0.054310 
-0.059280 -0.068807 0.018943 
-0.123106 -0.000000 0.095260 
0.031819 0.063550 0.000000 
-0.027036 0.063077 0.000000 
-0.070882 0.037836 0.023693 
-0.002673 0.048041 0.000000 
0.063964 0.031514 0.006565 
-0.056085 0.054542 0.004534 
0.101594 -0.037941 0.051983 
0.095563 0.069730 0.088329 
-0.070994 -0.055909 0.039505 
0.020908 0.124882 0.100077 
-0.061658 0.081150 0.037097 
0.107109 -0.055195 0.081280 
0.056671 -0.100040 0.094564 
0.067818 0.040584 0.019638 
0.036567 0.086824 0.049188 
-0.065132 0.088120 0.053753 
-0.102694 -0.013331 0.039587 
-0.048061 -0.101678 0.087031 
0.066721 -0.053005 0.011121 
0.071175 0.076176 0.041744 
-0.014426 0.024102 0.000000 
0.115806 0.031297 0.079665 
-0.116571 0.037685 0.087215 
-0.104499 -0.075185 0.105777 
0.066879 -0.046100 0.021394 
0.068530 0.087415 0.087985 
-0.121228 -0.002497 0.084389 
-0.076053 0.003959 0.012062 
-0.022142 -0.123324 0.095960 
-0.057313 0.022805 0.000000 
0.093575 -0.087317 0.106000 
0.094586 0.020133 0.028099 
-0.090068 0.077749 0.076943 
-0.022846 -0.034810 0.000000 
-0.088236 -0.064330 0.069840 
0.000446 0.113720 0.093440 
0.036553 0.111546 0.074106 
0.031278 -0.078833 0.030153 
0.040915 -0.116199 0.089257 
-0.057899 0.050752 0.015524 
-0.049794 0.106691 0.073787 
-0.081838 -0.002299 0.021964 
-0.022419 -0.115268 0.072083 
0.111052 -0.057674 0.095037 
0.011747 0.119056 0.080299 
0.095788 0.012382 0.054733 
0.101277 -0.000000 0.055062 
0.043008 0.081033 0.047252 
0.085331 -0.021620 0.014703 
-0.014646 0.071249 0.000000 
0.084175 0.064649 0.069447 
0.034240 0.034947 0.000000 
0.062593 -0.032600 0.000000 
-0.032146 0.064267 0.002032 
0.066638 -0.058452 0.038564 
0.092103 0.009907 0.046195 
0.110680 0.066658 0.106000 
0.071496 0.104334 0.106000 
-0.053696 0.114236 0.098211 
-0.020932 -0.071185 0.000621 
0.029622 -0.090668 0.042543 
0.003795 0.104007 0.074014 
0.083659 -0.011771 0.031388 
0.018468 -0.120070 0.085782 
0.001482 -0.030820 0.003000 
0.118087 -0.010730 0.077335 
-0.099408 -0.000000 0.040321 
-0.028853 0.088507 0.030644 
0.022245 0.113705 0.093410 
0.030221 -0.092824 0.037968 
-0.004556 -0.110835 0.087669 
0.105355 0.000769 0.065515 
0.071483 0.074172 0.069864 
-0.001584 0.023589 0.003000 
-0.009698 0.091158 0.019566 
-0.022955 -0.097825 0.061651 
0.057591 0.106631 0.083507 
-0.053713 0.106827 0.078854 
-0.007200 -0.124821 0.095698 
-0.069601 -0.060470 0.045398 
-0.114468 -0.052363 0.097182 
0.003197 -0.119130 0.104260 
-0.061696 0.094660 0.060950 
0.098403 -0.020414 0.064786 
0.057223 -0.045666 0.001555 
0.061896 -0.029381 0.000000 
-0.031512 -0.079567 0.031619 
-0.071597 0.070240 0.033721 
-0.099116 0.003570 0.055472 
-0.114734 -0.021973 0.070444 
-0.123186 -0.000000 0.093071 
0.083233 0.058270 0.060264 
0.001000 0.081602 0.007988 
0.001825 0.099681 0.065363 
-0.081535 0.044272 0.021390 
0.125453 0.023712 0.102970 
-0.045794 -0.073988 0.012464 
0.083510 -0.095638 0.100589 
-0.073969 0.085017 0.090686 
0.116234 0.052654 0.106000 
0.007643 0.007897 0.000000 
-0.079781 -0.072757 0.049783 
-0.039487 -0.114947 0.084674 
0.085073 0.077148 0.090945 
0.085781 0.053563 0.034616 
0.104939 -0.028867 0.052391 
0.069428 0.092346 0.097115 
0.006225 0.097071 0.028826 
-0.021272 -0.106677 0.079355 
-0.070025 0.016278 0.008426 
0.048608 0.080724 0.053274 
-0.023067 0.104014 0.074027 
0.078901 0.020581 0.007744 
0.051480 0.033253 0.000000 
-0.027257 -0.083303 0.025830 
0.047969 -0.081501 0.054225 
0.080099 0.088825 0.078472 
-0.027319 0.106252 0.054340 
-0.020437 -0.028796 0.000000 
-0.058295 0.095360 0.088900 
0.035890 -0.110265 0.078608 
-0.090825 -0.071931 0.068050 
-0.003427 -0.125129 0.106000 
-0.032783 -0.104783 0.054921 
0.030013 0.092301 0.042764 
0.092307 -0.056119 0.049639 
-0.089213 0.044010 0.062472 
-0.006104 0.116145 0.070696 
0.026473 -0.088287 0.020947 
0.011895 0.091837 0.021347 
-0.024739 -0.084037 0.013847 
-0.078072 -0.096316 0.091985 
0.046039 -0.088710 0.032997 
0.011034 0.058358 0.000000 
0.087564 -0.000000 0.031251 
0.109086 0.020085 0.084864 
0.074238 -0.053742 0.024736 
0.125344 0.024049 0.102792 
0.045382 -0.057412 0.002474 
0.050049 -0.110217 0.103220 
0.075554 -0.068707 0.036954 
0.057944 0.060699 0.010019 
-0.071324 -0.079262 0.046792 
-0.078239 0.040853 0.014010 
-0.052964 -0.069047 0.039932 
0.060958 0.033512 0.002136 
0.060601 0.091771 0.054518 
0.094704 0.082991 0.097389 
0.084811 0.001172 0.026882 
-0.083464 -0.018939 0.011757 
-0.074774 -0.061084 0.028064 
-0.047917 -0.093440 0.043811 
-0.039058 -0.088896 0.028902 
0.043152 -0.074989 0.037973 
-0.039978 -0.079780 0.041982 
-0.057470 -0.045243 0.000000 
0.064638 0.028034 0.005646 
-0.077758 -0.089609 0.102611 
0.016809 0.108467 0.054836 
0.000117 -0.086709 0.012730 
0.062012 -0.053729 0.008120 
-0.044417 0.058337 0.012145 
0.013630 -0.088926 0.043852 
-0.000765 0.069849 0.000000 
0.060220 -0.105927 0.084275 
0.091365 -0.076402 0.077381 
-0.076066 0.000846 0.010122 
-0.006488 -0.046519 0.003000 
0.076698 -0.058273 0.027700 
-0.064156 -0.012281 0.000000 
-0.000049 0.076276 0.018551 
-0.086058 0.050644 0.032183 
