
# .PCD v.6 - Point Cloud Data file format
FIELDS x y z 
SIZE 4 4 4 
TYPE F F F 
COUNT 1 1 1 
WIDTH 1647
HEIGHT 1
VIEWPOINT 0.000000 0.000000 0.000000 1.000000 0.000000 0.000000 0.00000
POINTS 1647
DATA ascii
0.049667 -0.048694 0.042722 
0.045179 -0.001307 0.008911 
0.028206 0.026080 0.002067 
0.058300 -0.043160 0.052558 
0.042346 -0.017761 0.002981 
0.031909 -0.069187 0.064000 
0.031029 0.058734 0.035998 
0.026709 0.020758 0.002135 
0.043634 0.031424 0.016027 
0.058090 -0.042195 0.053563 
0.069977 0.000596 0.045273 
-0.010595 -0.054323 0.014036 
0.039055 0.010870 0.003254 
0.033261 -0.049230 0.040739 
0.029198 0.066939 0.064000 
0.055271 -0.021507 0.019974 
-0.013287 -0.061639 0.027666 
0.050484 -0.015985 0.010172 
0.039495 0.022706 0.011669 
0.059594 0.034944 0.057694 
0.065042 0.024085 0.061516 
-0.065686 -0.023617 0.043886 
0.036954 0.013523 0.000895 
0.018326 -0.037271 0.003601 
0.037449 -0.012544 0.001199 
0.062369 -0.037950 0.053685 
-0.054090 -0.004539 0.028320 
0.036953 -0.050881 0.027481 
0.034218 -0.052482 0.027360 
0.005289 -0.070842 0.047579 
0.051016 0.037229 0.037954 
0.018446 0.019774 0.002209 
-0.050686 -0.003478 0.021032 
0.003531 -0.034842 0.002905 
0.022441 0.040180 0.003005 
-0.058950 0.021653 0.027501 
0.065581 0.010328 0.054154 
-0.012199 -0.044591 0.011181 
0.019547 0.070038 0.062076 
-0.005001 0.045977 0.013955 
0.029893 0.012525 0.000000 
-0.024099 -0.056793 0.042317 
0.058010 0.004572 0.035945 
0.044177 0.047476 0.031534 
-0.000861 -0.060937 0.023225 
-0.045470 0.032579 0.017107 
0.056721 -0.006366 0.034418 
0.019291 0.027242 0.000000 
-0.013169 -0.074514 0.060903 
-0.056477 -0.022182 0.022620 
0.040022 -0.028545 0.016229 
0.064246 -0.021872 0.038881 
-0.006120 -0.021492 0.000000 
-0.043696 -0.031297 0.014243 
-0.033272 0.048875 0.040417 
0.024000 0.045088 0.023231 
0.008738 0.003252 0.002450 
-0.060352 -0.033871 0.043169 
0.067643 -0.011201 0.040703 
0.019743 -0.033536 0.003000 
0.049220 -0.057367 0.060324 
0.021761 -0.045935 0.021706 
-0.027532 0.057889 0.048196 
-0.019344 -0.058622 0.036979 
-0.060714 -0.002852 0.022697 
-0.028631 0.062828 0.057451 
-0.038497 0.025408 0.011342 
-0.047418 0.006974 0.004877 
-0.063176 0.007092 0.047384 
-0.044403 0.015952 0.004108 
-0.041664 -0.025122 0.005095 
0.003938 -0.052071 0.009213 
0.033412 0.048413 0.039838 
-0.047794 -0.004439 0.016046 
0.045126 0.032886 0.024797 
-0.026260 -0.022000 0.003000 
0.047018 0.006111 0.015622 
0.045079 0.048784 0.054161 
-0.022832 0.069673 0.056563 
0.033712 -0.023328 0.000000 
-0.019070 0.060459 0.042918 
-0.008762 0.074761 0.058407 
-0.049696 -0.038517 0.043041 
-0.066769 -0.031842 0.056883 
-0.040996 0.054645 0.040742 
0.062832 0.031212 0.061627 
0.043848 0.037530 0.017554 
-0.043829 -0.034580 0.014934 
0.013209 0.005393 0.000000 
-0.033700 -0.018692 0.003000 
-0.014842 -0.069156 0.046682 
-0.053329 -0.015187 0.014299 
-0.063167 -0.031440 0.062410 
0.002416 0.056832 0.016423 
0.048556 -0.018005 0.025773 
0.065542 -0.018684 0.039735 
-0.032890 0.052462 0.025636 
0.023969 0.045151 0.023296 
-0.039353 0.032278 0.020818 
0.012104 0.006722 0.002392 
0.038782 0.059378 0.048284 
0.010523 -0.047382 0.005424 
-0.037965 -0.052319 0.051490 
0.019803 0.060434 0.029492 
0.068463 0.000722 0.053728 
0.001351 -0.005479 0.000000 
-0.004520 -0.004830 0.002820 
0.017143 0.061547 0.029902 
0.056121 -0.004339 0.015049 
0.003043 -0.040719 0.002970 
-0.001099 0.050239 0.007239 
-0.020759 -0.030685 0.003000 
0.046007 -0.042806 0.027037 
-0.039559 0.049668 0.028592 
0.001958 -0.049374 0.020749 
0.038471 0.042837 0.017308 
-0.057691 0.050879 0.063750 
0.003585 0.038845 0.000000 
-0.070401 -0.028385 0.061914 
0.065287 0.000000 0.042210 
-0.045772 0.045155 0.030384 
-0.011829 0.050817 0.009389 
0.024234 0.070491 0.064000 
-0.058179 0.009895 0.039423 
0.025017 0.068976 0.054727 
-0.050024 -0.054374 0.064000 
0.041454 -0.025736 0.005277 
0.045819 -0.032799 0.016960 
-0.017403 -0.053219 0.024582 
0.039859 0.021893 0.002347 
0.074579 0.000191 0.064000 
0.075442 -0.008988 0.060597 
0.068494 -0.000948 0.041318 
-0.027978 0.069794 0.060119 
-0.061927 0.028145 0.057954 
0.009299 -0.066115 0.054230 
0.044434 -0.047046 0.031260 
-0.051495 -0.052585 0.064000 
0.002894 0.063157 0.028498 
0.020015 -0.061303 0.039469 
0.039690 -0.015619 0.001200 
-0.023415 -0.072272 0.064000 
0.071380 -0.012851 0.052212 
-0.062437 0.017222 0.052202 
0.015569 -0.061674 0.045347 
0.031815 -0.040108 0.007949 
-0.062557 -0.002831 0.043637 
0.016589 0.057894 0.037787 
0.012168 -0.065223 0.035253 
-0.061973 0.022467 0.054539 
0.035038 -0.050753 0.024749 
0.007481 0.068088 0.058176 
-0.018763 -0.054758 0.017698 
-0.038641 -0.008625 0.000000 
-0.016135 -0.067239 0.056477 
0.007528 -0.058150 0.018738 
-0.014581 0.044777 0.010119 
-0.039830 -0.050540 0.030692 
0.042227 -0.039059 0.017286 
0.034935 -0.026290 0.005950 
0.020441 -0.065464 0.040825 
0.055063 0.039850 0.047034 
0.048634 0.011922 0.006874 
-0.059723 -0.014498 0.024186 
-0.070933 0.026695 0.061357 
-0.027088 -0.061345 0.053246 
-0.021894 0.047308 0.024269 
0.037192 -0.022378 0.006941 
-0.004036 -0.064463 0.031599 
-0.069251 0.001054 0.043336 
0.061606 0.035784 0.062065 
-0.021316 -0.056985 0.039245 
-0.032691 -0.015364 0.003000 
0.004059 0.054174 0.012585 
-0.054820 -0.031145 0.028162 
0.039084 -0.059761 0.048788 
-0.016247 0.049658 0.010233 
0.037959 0.026802 0.011222 
0.046891 -0.039348 0.023602 
0.036886 0.048363 0.043845 
-0.071394 0.016061 0.053863 
0.031769 0.005752 0.000000 
0.009632 -0.064717 0.051435 
0.072374 0.001345 0.051665 
-0.055053 0.040286 0.051289 
-0.062900 -0.026651 0.038992 
-0.045225 0.050427 0.056981 
-0.067266 0.033220 0.059597 
0.020558 0.061039 0.030940 
0.006974 0.019925 0.002261 
0.026193 0.026375 0.000000 
0.039293 0.045457 0.041991 
-0.027456 -0.054215 0.022792 
0.033573 -0.034796 0.017850 
0.065410 0.025170 0.044892 
0.025400 -0.031548 0.002938 
-0.047387 0.034220 0.033825 
0.045251 -0.013967 0.004134 
0.021072 -0.037371 0.000094 
0.003257 -0.034684 0.000000 
0.019230 0.003471 0.002382 
0.045195 0.013128 0.016623 
0.072905 0.017545 0.059315 
-0.001496 -0.023267 0.000000 
-0.049126 -0.035926 0.038035 
0.004555 -0.026622 0.000000 
0.032311 0.052594 0.045282 
-0.020413 0.012940 0.000000 
-0.053981 -0.023857 0.040160 
0.044111 0.025667 0.007167 
-0.013832 0.042994 0.005324 
0.034664 -0.047837 0.019377 
-0.047745 0.018800 0.024735 
0.050671 -0.000000 0.011974 
0.028210 0.040112 0.020284 
-0.062141 0.022980 0.055181 
0.049152 0.043923 0.051115 
0.006399 -0.046357 0.003743 
-0.072198 -0.000000 0.058401 
-0.027439 0.030433 0.000000 
-0.019177 -0.067009 0.056018 
0.025393 0.068100 0.062140 
0.014723 -0.044503 0.010971 
-0.066069 0.034354 0.057839 
0.058908 -0.005375 0.038047 
-0.048272 0.020231 0.009363 
0.047840 -0.038663 0.041013 
-0.017645 0.053386 0.015534 
0.003300 -0.060641 0.043283 
-0.038012 -0.044636 0.018847 
-0.035935 -0.064738 0.055813 
-0.037250 -0.012873 0.001049 
-0.052123 0.053645 0.057536 
0.064685 0.005433 0.049447 
0.009307 -0.025477 0.000000 
0.066754 0.021192 0.044942 
0.003962 -0.046364 0.014728 
0.054950 0.040164 0.048117 
0.050660 -0.056610 0.060921 
-0.057234 0.037653 0.041554 
-0.053370 -0.042208 0.053312 
-0.018430 0.032305 0.002068 
0.023070 0.010096 0.000000 
0.050224 0.000000 0.008202 
0.011939 -0.053539 0.029078 
-0.014537 0.062836 0.047673 
-0.055246 -0.050029 0.064000 
-0.047054 -0.044247 0.049169 
-0.001494 0.007843 0.002407 
-0.017164 0.005197 0.002358 
0.002307 0.072699 0.064000 
-0.010789 0.031781 0.000000 
-0.020893 0.059248 0.027489 
0.018958 0.037272 0.002008 
-0.011086 0.007147 0.000000 
-0.061261 -0.000000 0.027335 
0.066984 -0.030380 0.054855 
-0.017175 0.053349 0.022476 
0.030668 -0.047146 0.034264 
-0.015400 -0.046791 0.012196 
0.010082 0.052014 0.026028 
0.054295 -0.029846 0.025681 
0.059241 -0.024741 0.050644 
-0.047985 0.045622 0.034628 
-0.024748 0.061193 0.050235 
0.040089 -0.025698 0.014552 
0.028968 0.043518 0.008900 
-0.033092 -0.031758 0.012613 
-0.060340 -0.022466 0.031186 
-0.073252 0.014078 0.057707 
-0.028808 -0.053212 0.022171 
-0.073143 -0.007663 0.064000 
0.070218 -0.025465 0.057760 
-0.017512 0.067873 0.045083 
-0.065683 0.021958 0.042593 
-0.067381 0.027634 0.052235 
0.046131 0.004389 0.012789 
0.069297 0.005832 0.043459 
0.050440 0.037008 0.026788 
-0.022071 0.067750 0.049516 
0.021945 0.067772 0.053108 
0.026307 0.014192 0.002219 
0.038901 -0.010929 0.000000 
-0.034595 0.055323 0.052368 
0.036228 -0.019118 0.003000 
-0.005444 0.051013 0.024027 
-0.013203 0.041384 0.001296 
-0.012529 0.050573 0.009242 
0.007771 0.076114 0.064000 
0.042205 0.035010 0.028576 
0.063648 -0.000212 0.044054 
-0.052130 0.021031 0.015266 
-0.016876 0.052319 0.022152 
0.028771 -0.033336 0.000956 
-0.068564 0.028442 0.056667 
-0.062427 0.012657 0.049365 
0.014131 0.044019 0.005653 
0.021686 0.070864 0.056421 
-0.057727 -0.043444 0.051666 
-0.020817 0.030400 0.000000 
-0.006392 0.023513 0.000000 
0.039643 0.050476 0.030307 
-0.022281 0.017926 0.000000 
-0.040966 -0.044468 0.021686 
0.003081 0.004167 0.002452 
0.006952 -0.049487 0.020974 
0.070204 -0.012760 0.048766 
0.052853 0.038220 0.042147 
-0.011511 0.069865 0.046588 
-0.043534 0.044797 0.026274 
0.039227 0.022055 0.010758 
-0.063144 0.011564 0.050082 
-0.015861 0.048196 0.018310 
-0.008880 -0.002373 0.000000 
-0.039448 -0.033346 0.022650 
-0.000315 0.066576 0.055153 
0.031881 -0.045285 0.032675 
-0.025823 -0.034976 0.000442 
0.060558 0.028039 0.055328 
0.041584 0.032657 0.024053 
0.031054 -0.068074 0.058371 
-0.029381 0.030419 0.000000 
-0.002262 -0.045110 0.001875 
0.051599 0.001656 0.021627 
-0.055370 0.044408 0.047940 
-0.001692 0.062277 0.046554 
-0.062313 0.041501 0.059166 
0.020237 -0.037310 0.000000 
0.018958 -0.058093 0.037406 
-0.024217 -0.067434 0.049855 
-0.002827 -0.012983 0.000000 
0.045750 0.032417 0.029594 
-0.025755 0.064695 0.043217 
0.000491 -0.040837 0.003673 
0.021215 0.034570 0.000000 
0.013427 0.044983 0.011965 
0.066709 -0.033993 0.059038 
0.050497 0.020386 0.012595 
-0.054328 -0.039433 0.046954 
-0.066718 0.023468 0.046567 
-0.018113 -0.055021 0.020248 
0.009564 -0.019689 0.002705 
-0.020033 0.062082 0.035309 
-0.031634 0.011370 0.000000 
-0.064767 -0.022817 0.060215 
-0.017698 -0.054138 0.016280 
0.019059 0.053113 0.030229 
-0.004354 -0.003963 0.002897 
-0.025136 -0.054939 0.040573 
0.036654 0.003971 0.003000 
0.042060 -0.037756 0.015816 
-0.034757 -0.027411 0.007564 
-0.021607 0.035936 0.005495 
0.018159 0.070121 0.051747 
-0.017237 -0.025780 0.003000 
0.065681 0.016082 0.057857 
0.052838 0.000751 0.023444 
-0.016155 0.028300 0.002122 
-0.024243 -0.072256 0.062346 
-0.040357 0.064864 0.062018 
0.041346 -0.041209 0.018555 
-0.040345 0.035417 0.027044 
0.057449 0.016506 0.020631 
0.044464 -0.017305 0.017551 
0.020315 0.062870 0.036053 
0.024168 -0.044907 0.007312 
0.006207 0.050489 0.007702 
-0.009713 -0.070138 0.047307 
0.022423 -0.068195 0.055194 
-0.047547 -0.051459 0.044013 
-0.046172 0.038804 0.039358 
0.047587 0.038823 0.041053 
-0.019217 -0.039074 0.000901 
-0.066787 -0.017185 0.060653 
-0.015562 -0.012876 0.003000 
-0.054624 -0.018458 0.038098 
0.039224 0.028371 0.010072 
0.056378 0.038654 0.041115 
-0.021881 0.003601 0.000000 
-0.028650 -0.004455 0.003000 
0.007418 -0.003264 0.000000 
-0.035410 0.042950 0.033381 
-0.047448 0.034050 0.022321 
0.071183 0.000000 0.057811 
0.008190 -0.001439 0.000000 
0.063505 0.000000 0.035834 
-0.038269 -0.051466 0.030456 
-0.053621 0.039244 0.048258 
0.022620 -0.062773 0.050150 
-0.017262 -0.062518 0.032130 
-0.032822 -0.047800 0.017573 
0.036860 -0.000853 0.003000 
0.036152 0.025853 0.002037 
-0.057210 0.031514 0.033224 
0.055660 0.005035 0.014732 
0.018329 0.044844 0.015944 
0.048512 -0.025621 0.030514 
-0.048294 0.039261 0.025756 
-0.046307 -0.051090 0.040793 
0.030515 -0.018750 0.000000 
-0.037837 0.034398 0.022452 
0.045654 -0.023212 0.007616 
-0.025790 -0.029595 0.003000 
0.012982 -0.027911 0.000000 
0.048752 -0.035097 0.025994 
0.038214 0.018966 0.000119 
0.047221 -0.055797 0.064000 
0.048600 -0.054730 0.053111 
0.050191 -0.020153 0.030262 
-0.027484 0.070604 0.061667 
-0.053664 -0.038956 0.039006 
0.048909 0.035771 0.021999 
-0.057295 -0.035446 0.038491 
0.005990 0.021401 0.002247 
0.053593 0.021338 0.037877 
-0.063329 0.022961 0.057473 
-0.012795 0.039364 0.000000 
-0.048270 0.001319 0.014913 
-0.036199 -0.021418 0.003000 
0.008963 -0.054431 0.030861 
0.006518 0.054402 0.013183 
0.058249 0.027061 0.050302 
0.020314 0.034748 0.002029 
-0.016979 -0.015756 0.000000 
-0.057809 -0.031563 0.034913 
0.056423 0.000000 0.029151 
-0.025822 0.071399 0.064000 
0.027217 0.007044 0.003000 
-0.014122 0.054419 0.030839 
0.007563 0.020102 0.000000 
0.044320 -0.018191 0.004732 
-0.051403 -0.049923 0.063435 
-0.042509 -0.010471 0.009697 
-0.013799 -0.065797 0.037206 
0.025077 -0.049794 0.014613 
-0.056193 0.036306 0.037504 
0.026723 -0.054121 0.022017 
0.034899 0.063452 0.051951 
0.052487 0.007483 0.027114 
-0.037889 0.013575 0.003000 
0.011015 -0.056681 0.035362 
-0.034223 0.021461 0.003000 
-0.028594 -0.039315 0.019461 
0.076697 0.003433 0.063193 
-0.060063 -0.000000 0.026818 
-0.047388 0.025892 0.011372 
-0.011567 -0.069771 0.047020 
0.000989 -0.071905 0.050414 
-0.010991 -0.056708 0.035417 
-0.052213 0.051450 0.053325 
-0.022939 0.070341 0.060571 
0.046141 0.033932 0.016746 
0.060838 -0.013866 0.026255 
0.018324 0.066035 0.040733 
-0.054192 0.004395 0.028297 
-0.014782 0.072936 0.057311 
0.038802 -0.028072 0.011524 
0.040192 -0.046716 0.024289 
-0.004997 0.070916 0.063832 
0.008333 -0.021870 0.002737 
0.070351 -0.024159 0.056944 
-0.018087 -0.055492 0.026563 
-0.056951 -0.001627 0.016574 
-0.015635 0.048027 0.008111 
-0.028001 -0.044140 0.008776 
0.043000 0.003942 0.001910 
-0.017166 0.053365 0.022045 
-0.052194 0.037460 0.031645 
0.011822 -0.014277 0.002631 
0.066777 -0.008492 0.055232 
-0.034506 0.004837 0.000000 
0.026518 -0.054333 0.041036 
-0.033634 0.003880 0.000000 
0.074845 -0.005689 0.064000 
-0.057149 0.009164 0.036974 
-0.074567 -0.014381 0.061826 
0.018943 -0.069761 0.051309 
-0.055548 0.000524 0.028537 
0.038732 0.011474 0.003019 
-0.048548 -0.034780 0.022870 
-0.059013 0.017844 0.045946 
0.063258 0.005905 0.028738 
-0.004597 -0.000499 0.000000 
0.041818 -0.045775 0.045283 
0.008448 -0.015312 0.000000 
-0.020433 0.070365 0.062730 
-0.030217 0.030256 0.006755 
0.023824 -0.022686 0.003000 
-0.043705 -0.031405 0.018623 
0.054284 0.041346 0.052997 
-0.058604 -0.000000 0.025749 
-0.031441 0.062650 0.060469 
-0.020334 0.064113 0.050227 
-0.039861 -0.023429 0.012813 
0.035880 0.066807 0.061280 
0.044502 0.039668 0.038786 
0.039231 0.005728 0.003000 
-0.044865 0.054600 0.063283 
0.016574 -0.057970 0.021614 
0.019849 -0.052726 0.030494 
-0.033401 -0.027132 0.000270 
-0.061281 0.002913 0.024042 
-0.010889 -0.074970 0.060606 
-0.048810 -0.022919 0.011790 
-0.022340 -0.069001 0.055856 
0.022027 -0.000142 0.002687 
0.009300 -0.002735 0.002515 
-0.013560 -0.061032 0.044064 
-0.015735 0.049047 0.012959 
0.012529 0.026971 0.002161 
-0.019112 -0.059018 0.028330 
-0.031215 -0.063318 0.045537 
-0.025270 0.065391 0.044920 
0.055247 0.010648 0.015357 
0.040485 -0.046932 0.025081 
0.015860 0.026187 0.002151 
0.057786 0.018030 0.022129 
0.069141 -0.015687 0.047346 
0.073549 0.011051 0.057024 
-0.020038 0.070134 0.062267 
0.019388 -0.058397 0.025583 
-0.022014 0.056143 0.038730 
0.010102 -0.046522 0.015044 
-0.069003 -0.011276 0.061297 
0.011206 0.011895 0.002339 
0.024115 0.070936 0.064000 
-0.068989 -0.004884 0.042638 
0.019321 0.064347 0.050694 
-0.041421 -0.023542 0.015875 
0.036702 0.062382 0.051741 
-0.056624 -0.023166 0.044808 
0.058069 0.017315 0.022301 
0.016828 0.016384 0.000000 
-0.054045 -0.035369 0.047308 
-0.000475 -0.028573 0.000000 
0.047831 -0.037585 0.039288 
0.004721 0.063572 0.029484 
0.049728 0.033120 0.020480 
0.002659 0.046670 0.003670 
0.001984 0.054150 0.030300 
-0.042758 0.053376 0.040514 
-0.003448 0.072344 0.051584 
0.070095 0.025842 0.064000 
-0.013308 -0.027924 0.000000 
0.043196 -0.021865 0.018030 
-0.008093 -0.007723 0.000000 
0.012763 0.060435 0.024665 
0.006315 -0.033109 0.000000 
0.048291 -0.000057 0.014174 
-0.002222 -0.007552 0.000000 
0.050484 -0.006627 0.007765 
-0.037802 0.031270 0.006048 
-0.027107 0.070623 0.064000 
-0.003869 0.042262 0.000000 
-0.021130 -0.013044 0.003000 
-0.034388 0.042192 0.030958 
-0.034009 -0.065135 0.053817 
-0.002102 -0.048049 0.018097 
-0.028285 -0.052678 0.040681 
-0.016486 0.067356 0.056712 
-0.033810 0.004216 0.000000 
-0.018407 -0.016651 0.000000 
-0.058933 -0.018870 0.046614 
-0.007411 -0.075081 0.064000 
-0.029877 -0.048514 0.035841 
0.021165 -0.066736 0.055472 
0.027349 0.057614 0.029633 
-0.038571 -0.035473 0.010045 
-0.060844 -0.040282 0.053066 
-0.066466 0.006643 0.053488 
-0.004161 0.073388 0.064000 
0.060970 -0.042864 0.058302 
0.013916 0.005316 0.000000 
0.071026 -0.014105 0.051704 
-0.069577 0.022205 0.064000 
0.062062 0.035118 0.048461 
0.002003 -0.063093 0.028346 
0.069062 -0.023231 0.052734 
0.001355 0.055498 0.032996 
0.020867 0.000418 0.002397 
-0.009429 0.043061 0.001093 
0.053289 0.008875 0.012162 
-0.026819 0.070694 0.061163 
-0.010201 -0.000949 0.002471 
-0.018134 0.051228 0.012355 
0.012947 -0.058252 0.020300 
0.039518 -0.010421 0.003786 
0.046269 -0.011439 0.004592 
0.042991 0.005315 0.007297 
0.015897 0.049072 0.012227 
-0.034055 -0.010775 0.003000 
0.043019 -0.038212 0.034546 
0.005203 -0.053353 0.011382 
0.003175 0.042552 0.007104 
0.008623 0.026514 0.000000 
-0.029181 0.056794 0.048371 
-0.020411 -0.025465 0.000000 
0.005440 -0.007964 0.000000 
-0.016658 0.050754 0.011040 
0.017076 -0.051127 0.024594 
0.042424 -0.021432 0.004330 
-0.069134 -0.020948 0.051162 
0.003063 0.058373 0.038747 
-0.051520 0.035034 0.026363 
0.052271 -0.020994 0.034814 
-0.043563 -0.059083 0.055001 
0.031576 -0.050113 0.040175 
0.054316 0.030362 0.044773 
-0.011962 -0.054556 0.014763 
0.007139 0.053170 0.028340 
-0.029997 0.048110 0.035332 
0.052605 0.045025 0.042217 
-0.052230 -0.027218 0.019411 
0.035017 0.062998 0.064000 
0.050046 -0.036134 0.035118 
0.039419 0.051447 0.031979 
0.053686 -0.048518 0.063854 
-0.066070 -0.028012 0.048908 
0.054545 0.000000 0.021481 
-0.059470 -0.013917 0.023256 
-0.012355 -0.069011 0.060022 
-0.041412 0.052356 0.055605 
-0.068353 0.001458 0.040942 
-0.018874 -0.027316 0.003000 
0.020382 0.066010 0.054020 
0.005506 0.061677 0.024984 
-0.047948 0.018558 0.024968 
-0.041203 0.035850 0.013159 
-0.029077 -0.030382 0.003000 
0.066905 0.036262 0.061273 
0.060945 -0.021540 0.051973 
-0.055985 -0.036899 0.037797 
0.040192 -0.042992 0.038818 
-0.064771 0.003532 0.048282 
-0.046820 0.031430 0.030980 
-0.046444 -0.051508 0.041925 
0.058510 -0.036316 0.042448 
0.034722 0.000861 0.003000 
-0.026408 0.038693 0.003535 
-0.052312 0.019526 0.033987 
0.059109 0.042445 0.053331 
-0.033131 0.025073 0.001883 
-0.046562 0.044318 0.030310 
0.047498 -0.009191 0.005309 
-0.052001 0.036107 0.043794 
-0.008895 -0.028195 0.003000 
0.017891 -0.054631 0.031196 
0.001912 -0.019344 0.002725 
0.004283 0.073532 0.054752 
-0.018303 0.056656 0.033942 
-0.045192 0.044988 0.029203 
0.026306 -0.034021 0.000149 
-0.002965 -0.063533 0.029390 
-0.002241 -0.006482 0.002726 
-0.040636 0.014999 0.008813 
0.032127 -0.006761 0.000000 
-0.072266 -0.022632 0.060963 
0.076047 0.006339 0.061458 
-0.056067 -0.005079 0.015318 
0.054521 0.019780 0.017938 
0.004759 -0.066387 0.036168 
-0.037751 0.034422 0.008173 
0.032817 -0.023803 0.000000 
0.034055 -0.029688 0.010302 
-0.025966 0.033767 0.007278 
-0.059699 -0.016072 0.046377 
0.017256 0.065899 0.053798 
-0.050278 -0.027088 0.016637 
-0.005561 0.055876 0.015047 
-0.017573 -0.040079 0.001090 
-0.033641 -0.034053 0.016959 
0.020271 -0.062141 0.042170 
0.031169 0.019179 0.002756 
0.032318 0.033507 0.014522 
-0.024041 0.053020 0.036133 
-0.021655 -0.019503 0.003000 
0.042405 0.027345 0.020083 
-0.017436 0.022328 0.000000 
0.042668 -0.029328 0.008198 
0.013365 0.055525 0.033050 
-0.054465 -0.029099 0.025252 
0.014050 0.072596 0.064000 
-0.075834 -0.005742 0.060890 
-0.068363 0.007389 0.041100 
-0.030646 -0.033074 0.001978 
-0.068930 0.027048 0.055994 
-0.058032 -0.000000 0.021772 
0.026337 -0.042429 0.006275 
0.007507 0.075121 0.064000 
0.031746 0.010181 0.000000 
-0.009229 -0.002880 0.000000 
-0.027746 -0.027702 0.000000 
-0.016125 0.026218 0.002145 
0.032430 0.058659 0.055198 
-0.000734 0.030576 0.000000 
-0.023558 0.027936 0.002082 
-0.035759 -0.050369 0.024818 
-0.043381 0.048075 0.031222 
0.068236 -0.016333 0.045328 
0.039718 0.024750 0.003413 
-0.019867 -0.059380 0.041365 
-0.018211 0.059258 0.040516 
0.070137 0.000000 0.051180 
-0.018373 -0.041075 0.002187 
0.016535 0.011482 0.000000 
0.049831 0.056151 0.058403 
0.002396 -0.054999 0.012915 
0.006541 -0.004988 0.002552 
-0.008192 0.020157 0.002860 
0.033119 0.050217 0.021180 
0.054756 -0.020972 0.039621 
0.048377 0.040386 0.044503 
0.040235 -0.014530 0.001486 
0.031425 -0.040670 0.008103 
-0.029226 -0.024510 0.000000 
-0.054860 0.047188 0.051165 
0.048032 -0.035760 0.020575 
0.009618 -0.045703 0.013406 
0.051829 0.008286 0.026359 
-0.004330 -0.070972 0.063944 
0.019077 0.044764 0.016725 
-0.040554 -0.049499 0.049990 
-0.046185 -0.013726 0.018929 
-0.060552 -0.016259 0.027137 
0.046897 -0.026548 0.028032 
-0.020310 0.047814 0.023165 
-0.047896 0.034418 0.021220 
0.045501 -0.001155 0.002428 
0.020770 0.008762 0.002314 
0.037792 -0.020021 0.000498 
0.015807 -0.035050 0.003000 
0.020578 -0.050349 0.027489 
0.049723 -0.035677 0.026578 
0.022768 -0.041936 0.004369 
0.018507 -0.057360 0.036720 
-0.059279 0.013967 0.022865 
-0.029878 -0.059622 0.035822 
-0.026844 0.068949 0.056679 
0.050846 0.034910 0.040892 
-0.048185 0.008473 0.019162 
0.066554 -0.037035 0.061876 
-0.034558 0.047806 0.040208 
0.046519 0.051730 0.042569 
-0.065795 -0.000000 0.036306 
0.035499 -0.063105 0.050810 
0.033037 0.058409 0.055511 
-0.037682 0.038060 0.028172 
0.064336 0.005523 0.031299 
-0.007679 0.042967 0.000669 
-0.059852 0.047906 0.063836 
0.051607 0.057196 0.063802 
-0.018404 0.056955 0.034583 
-0.061396 -0.036342 0.062003 
-0.050868 0.037275 0.027890 
0.017098 -0.070579 0.063158 
0.041058 -0.042511 0.039064 
0.053313 0.000000 0.016782 
-0.050927 0.057573 0.063562 
-0.034352 0.063448 0.051131 
0.020335 0.052478 0.030751 
-0.034894 0.040919 0.012004 
-0.059276 0.003849 0.037819 
0.073739 -0.008507 0.064000 
-0.006447 -0.045919 0.013839 
-0.018637 0.056128 0.020159 
0.054616 0.035458 0.048458 
0.032770 0.061683 0.060473 
-0.055586 -0.015526 0.017631 
0.000999 0.063841 0.030121 
-0.039201 0.046642 0.043794 
0.015941 -0.025336 0.003000 
-0.030065 0.007851 0.003000 
0.050298 0.055602 0.057900 
0.061312 -0.037206 0.062353 
-0.023070 0.065115 0.042157 
0.043057 -0.053047 0.058599 
0.017632 -0.021861 0.003000 
0.056031 -0.025859 0.045109 
0.034973 -0.055970 0.053751 
0.021071 -0.062261 0.047476 
-0.032266 -0.035782 0.018129 
0.050014 0.034906 0.022937 
0.028001 -0.028448 0.000000 
0.048696 -0.007059 0.006117 
-0.048847 -0.043787 0.033107 
-0.032358 0.065444 0.054166 
-0.004431 0.029363 0.002155 
-0.017581 0.053946 0.019320 
-0.028630 -0.029618 0.000000 
0.000220 0.028880 0.002164 
0.023101 0.065834 0.044380 
0.057807 0.012382 0.040494 
-0.013867 -0.060347 0.025169 
-0.003387 -0.003959 0.000000 
0.034517 0.057109 0.036853 
0.004841 0.047025 0.016050 
-0.005671 -0.072778 0.052742 
-0.038614 0.060123 0.064000 
-0.040140 -0.008901 0.004086 
0.005193 0.036101 0.002077 
-0.070891 -0.007486 0.047817 
0.026535 0.069699 0.064000 
0.071953 -0.017441 0.056620 
0.032041 -0.026110 0.002212 
0.030500 -0.008719 0.003000 
-0.053632 -0.018496 0.036218 
-0.052773 0.053719 0.064000 
-0.044921 -0.004499 0.001964 
0.043772 -0.004731 0.000896 
0.032573 0.009369 0.003000 
-0.007674 -0.052259 0.026518 
-0.046390 0.012798 0.018356 
-0.007280 0.060405 0.042810 
0.033026 0.010484 0.000000 
-0.030236 0.053594 0.024442 
-0.045694 -0.024345 0.024561 
0.021666 -0.045466 0.020830 
0.036000 -0.066416 0.064000 
-0.012398 0.073254 0.056528 
0.040621 -0.033496 0.010117 
-0.061289 -0.025545 0.034987 
-0.007970 -0.056165 0.034331 
0.027584 0.040910 0.006024 
0.055034 0.042026 0.043216 
0.014663 -0.006090 0.000000 
-0.069007 0.021866 0.051529 
0.039952 -0.039600 0.033095 
-0.056795 -0.008835 0.036344 
0.057276 -0.024430 0.025845 
-0.041601 0.018062 0.012588 
-0.013582 0.070203 0.048750 
-0.043448 0.008888 0.010285 
-0.025222 0.024845 0.002100 
-0.058997 -0.032963 0.038764 
0.049953 0.049695 0.045295 
-0.012935 0.021611 0.002210 
0.041393 0.042550 0.039776 
-0.000194 0.061064 0.044128 
-0.042543 -0.043601 0.022812 
-0.047135 -0.000000 0.010693 
-0.040634 0.031920 0.008600 
0.062416 0.043694 0.062673 
0.004257 -0.041407 0.000000 
0.012038 0.024917 0.000000 
-0.018372 0.056540 0.034379 
-0.022249 -0.056943 0.023459 
-0.056836 0.041522 0.053966 
-0.001174 0.076979 0.064000 
-0.020063 0.064317 0.037892 
-0.042784 0.025267 0.019402 
0.031361 -0.050837 0.020521 
-0.016127 0.045847 0.014894 
-0.006162 -0.064583 0.031885 
-0.022021 0.064990 0.053073 
-0.014450 -0.036766 0.003000 
-0.075067 -0.009615 0.060034 
-0.011837 -0.040529 0.000000 
-0.005919 0.035297 0.002084 
0.034702 -0.021616 0.003000 
0.045541 -0.032753 0.022448 
0.051737 -0.027151 0.037615 
-0.062265 0.032238 0.061134 
0.013792 0.072692 0.055924 
0.043468 0.020279 0.004817 
-0.005911 0.025970 0.002190 
-0.053465 -0.013076 0.013681 
-0.019544 -0.059237 0.026403 
-0.040265 -0.024263 0.014097 
-0.027235 -0.050446 0.016979 
-0.025116 0.059632 0.048152 
0.030426 -0.054568 0.026870 
0.035336 -0.025361 0.001903 
0.035477 0.041366 0.030906 
-0.020622 -0.067624 0.046816 
-0.025638 -0.032194 0.000000 
-0.027421 0.006640 0.000000 
-0.067373 0.037003 0.064000 
-0.010661 0.058634 0.039267 
0.001237 0.066078 0.054157 
-0.050842 -0.050945 0.064000 
-0.025781 -0.031333 0.003109 
0.024520 0.054149 0.038545 
0.010573 0.070323 0.047438 
0.026277 -0.007275 0.003000 
0.021746 -0.067778 0.057556 
0.026217 -0.055011 0.023364 
-0.060046 -0.027351 0.053926 
0.029025 0.017570 0.000000 
0.069512 -0.011805 0.062581 
0.056339 -0.022930 0.022802 
-0.000662 0.020892 0.000000 
0.037122 0.023188 0.007412 
-0.065568 0.013615 0.056049 
0.011210 0.061988 0.027593 
-0.062546 -0.029303 0.059914 
0.014248 -0.043013 0.007385 
0.060877 -0.040160 0.063330 
0.041972 -0.053736 0.058431 
0.026110 -0.059766 0.032157 
0.022842 0.006162 0.000000 
-0.018796 -0.049561 0.010373 
0.003335 0.055871 0.015036 
0.033529 0.031160 0.012163 
0.015377 -0.046817 0.015634 
-0.005932 -0.062383 0.026660 
0.067785 -0.035306 0.063087 
-0.032702 -0.059835 0.057416 
-0.050395 -0.029667 0.018503 
-0.036698 0.013229 0.000204 
0.064545 0.037105 0.064000 
-0.005531 0.060476 0.022130 
-0.029220 -0.069192 0.059939 
0.039160 0.058735 0.063238 
0.053836 0.040036 0.037834 
-0.019495 -0.059797 0.041203 
-0.050091 0.036900 0.025801 
0.039090 -0.010414 0.000000 
0.049364 0.000000 0.008698 
0.063859 0.030405 0.046565 
-0.061460 0.005737 0.024467 
-0.067268 0.025275 0.064000 
0.028410 0.046306 0.030558 
0.039109 -0.041091 0.016200 
-0.022131 0.067767 0.051279 
0.034377 -0.051883 0.026297 
-0.066211 0.009096 0.054507 
-0.018653 -0.057211 0.032771 
-0.008549 -0.029518 0.003000 
-0.065735 -0.014466 0.037490 
0.023030 -0.070970 0.063522 
-0.072828 -0.019286 0.064000 
-0.026277 0.035673 0.010743 
0.011246 -0.001087 0.002485 
0.062007 -0.009106 0.046360 
0.041114 -0.034555 0.026459 
0.022961 -0.048546 0.027385 
0.063511 -0.008722 0.030099 
0.047608 -0.010092 0.005558 
0.039259 0.040510 0.033977 
-0.037601 -0.004169 0.003000 
-0.026110 -0.067640 0.062242 
0.005032 0.070942 0.063885 
0.065622 -0.006890 0.052004 
0.060636 -0.023481 0.052573 
-0.018533 0.057228 0.035409 
-0.058403 0.027118 0.030428 
0.020268 -0.062125 0.042050 
-0.028006 -0.004319 0.000000 
-0.059097 -0.006716 0.039439 
-0.031342 -0.052860 0.024365 
0.040168 -0.050109 0.050381 
-0.020400 0.062685 0.044069 
0.066514 0.018036 0.060649 
0.003985 0.016058 0.000000 
-0.058158 -0.024376 0.027785 
-0.011780 -0.038014 0.003000 
-0.048966 0.053430 0.050793 
0.049858 -0.007059 0.021536 
0.054721 -0.049451 0.054435 
0.026790 0.046232 0.010359 
0.016300 -0.054975 0.031950 
-0.038423 0.041792 0.016215 
0.015255 0.020533 0.000000 
-0.071921 0.000838 0.050456 
-0.059907 -0.022533 0.030327 
-0.047929 0.044060 0.032065 
-0.009891 -0.015585 0.000000 
-0.009535 -0.058109 0.019154 
-0.008298 -0.026434 0.000000 
-0.025061 0.014832 0.002224 
0.004269 0.067257 0.038236 
-0.058428 0.042431 0.055229 
0.012752 0.065329 0.052657 
-0.022815 -0.008891 0.000000 
0.003432 0.025141 0.000000 
0.042091 -0.040445 0.018536 
-0.058242 0.009346 0.039207 
-0.044995 -0.052848 0.042735 
-0.030170 -0.061138 0.039184 
-0.003911 0.034663 0.000000 
-0.061269 -0.038297 0.050870 
0.019765 -0.059615 0.028914 
-0.031687 -0.030003 0.008131 
-0.061417 -0.036044 0.061863 
0.052268 0.038138 0.040153 
0.035217 0.019860 0.000000 
-0.068720 -0.018704 0.048304 
0.042519 0.038708 0.034906 
0.039750 0.019811 0.010382 
0.030640 0.027459 0.002029 
0.004268 0.041249 0.000000 
0.005285 0.043040 0.008080 
-0.016343 -0.037544 0.000000 
-0.032160 0.045376 0.014041 
0.053181 -0.015032 0.032900 
0.023662 0.060065 0.047088 
0.028045 0.063522 0.057880 
-0.020395 0.058110 0.039950 
0.002280 0.071932 0.050486 
-0.052494 0.040852 0.036055 
0.020121 -0.013331 0.003000 
-0.065974 0.039390 0.064000 
-0.044357 -0.044610 0.046581 
-0.025173 0.034608 0.007675 
0.008786 0.052604 0.027207 
0.009768 -0.023138 0.002742 
-0.053043 -0.054621 0.061327 
0.009615 0.023968 0.000000 
0.015533 -0.022961 0.003000 
-0.037188 0.047530 0.021493 
0.049303 -0.023185 0.012490 
-0.044816 -0.045085 0.047888 
0.042592 0.019389 0.003790 
-0.071352 0.018360 0.055365 
0.008853 -0.040431 0.000000 
-0.017814 0.049989 0.010423 
0.005349 -0.016933 0.000000 
0.066135 -0.034697 0.058365 
-0.019721 0.066077 0.054155 
-0.044504 0.052951 0.060201 
0.012617 -0.045063 0.012126 
0.061531 0.009087 0.025759 
0.042647 0.035826 0.030410 
-0.032052 -0.054758 0.048465 
-0.042203 0.030166 0.008802 
-0.044872 -0.000000 0.005456 
-0.019532 0.035978 0.003041 
0.011544 0.061641 0.026906 
0.030611 -0.002537 0.003000 
0.046889 0.050895 0.059693 
-0.044291 -0.056364 0.049812 
0.049670 0.035806 0.031938 
0.003721 -0.026151 0.002804 
0.017248 -0.068102 0.045501 
-0.051135 -0.000018 0.019668 
-0.058709 -0.020962 0.026385 
0.066455 0.027083 0.049752 
0.003148 0.073952 0.055872 
-0.019426 0.055859 0.019629 
-0.032929 0.057371 0.035395 
0.015006 0.060182 0.025525 
0.042913 -0.049205 0.052169 
0.055621 0.040224 0.046513 
0.066720 0.001290 0.036961 
0.056855 -0.024766 0.046032 
-0.045899 -0.000000 0.003169 
-0.023585 0.042637 0.018754 
0.065411 -0.028247 0.047289 
-0.035172 -0.045797 0.017622 
0.042786 0.040186 0.037604 
-0.016366 -0.049807 0.020568 
0.003114 -0.076012 0.061364 
-0.060762 -0.038182 0.061912 
-0.061355 0.041274 0.056690 
0.017477 0.057278 0.020769 
0.018068 -0.038573 0.000060 
0.056092 0.028249 0.027111 
-0.023488 0.036378 0.008497 
0.048761 -0.029346 0.015978 
0.021862 0.067543 0.049828 
-0.053272 0.035134 0.030188 
0.055220 -0.022667 0.041565 
0.067690 -0.020750 0.047207 
0.015670 0.047958 0.015537 
0.044529 0.051733 0.058266 
0.048611 0.000367 0.004988 
0.009490 0.015027 0.002311 
0.000799 0.069264 0.060528 
-0.025091 -0.034932 0.001577 
0.036165 0.006590 0.000000 
-0.007481 -0.061132 0.044264 
0.021708 -0.044024 0.005756 
0.028273 -0.043142 0.007886 
-0.045040 0.055631 0.049578 
0.012466 -0.070100 0.048345 
-0.009560 0.064884 0.033694 
-0.034694 -0.021615 0.001744 
0.054826 0.000000 0.017087 
-0.044244 0.032102 0.024420 
0.053999 -0.014431 0.034115 
0.043029 0.032378 0.025302 
-0.043012 -0.008242 0.009230 
-0.037481 -0.035495 0.008976 
0.067138 -0.036311 0.064000 
0.031666 0.044296 0.012293 
-0.067446 -0.023945 0.048909 
-0.048509 -0.018750 0.008861 
0.073078 -0.003113 0.064000 
0.005238 0.042420 0.006839 
0.044600 -0.059046 0.056646 
0.034321 0.050678 0.023568 
0.056538 0.040861 0.047573 
-0.025512 -0.070009 0.057946 
-0.040861 0.063093 0.059353 
-0.022878 -0.057983 0.042760 
0.076166 -0.001565 0.061776 
-0.022068 -0.045020 0.020774 
-0.048725 0.035332 0.030955 
0.004821 0.044713 0.001832 
0.060913 -0.021565 0.031299 
-0.029352 -0.047111 0.013701 
0.053609 0.001801 0.011200 
-0.064466 -0.035678 0.064000 
0.063519 -0.012121 0.051154 
0.069109 0.006535 0.042958 
0.010932 -0.069636 0.046365 
-0.005708 -0.041696 0.005391 
0.063364 -0.008720 0.048753 
-0.051085 -0.011978 0.009910 
-0.061043 -0.000000 0.033474 
0.027307 -0.030414 0.003000 
0.026374 0.063846 0.041166 
-0.017595 0.073744 0.061579 
-0.009022 0.057803 0.037607 
0.007380 -0.042187 0.003000 
-0.050597 -0.016154 0.028967 
-0.013995 -0.042531 0.005789 
-0.007527 0.073935 0.055828 
-0.041117 0.005854 0.000000 
-0.067448 -0.005845 0.054999 
-0.061087 -0.026941 0.055673 
-0.060888 0.006411 0.023225 
0.044549 -0.052671 0.041687 
0.018333 -0.053577 0.015786 
0.036311 -0.003385 0.003000 
0.002266 -0.039395 0.000000 
0.019464 -0.059086 0.029800 
-0.041112 0.039520 0.016633 
0.045951 -0.024880 0.008710 
0.047759 -0.056224 0.055352 
-0.058075 0.014294 0.041936 
0.001186 -0.010649 0.002624 
0.013681 -0.070496 0.049995 
0.020885 -0.018485 0.000000 
-0.042329 -0.049717 0.052428 
-0.009565 0.005429 0.000000 
0.024679 0.003339 0.002907 
-0.030160 -0.005353 0.000000 
0.014711 0.053831 0.014551 
-0.030748 0.051218 0.041226 
-0.063659 -0.000000 0.036821 
-0.019738 -0.024251 0.003000 
0.001683 0.076300 0.062132 
-0.060804 0.020592 0.051114 
0.064890 0.007912 0.033118 
0.048568 -0.046630 0.054696 
0.019850 -0.038576 0.000596 
0.031999 -0.066302 0.054183 
0.013635 0.071235 0.051699 
0.017232 0.052772 0.021158 
0.048040 -0.055708 0.064000 
-0.001273 -0.033378 0.000000 
0.029985 0.051322 0.020049 
0.007172 0.047463 0.016927 
-0.019318 -0.060480 0.028915 
0.038149 0.027779 0.010789 
-0.042641 0.034893 0.028901 
0.027620 -0.070356 0.060836 
0.043850 0.061329 0.060661 
-0.014465 -0.006256 0.002507 
-0.002197 -0.060197 0.021468 
-0.038279 0.011402 0.002053 
0.040770 0.051306 0.033524 
-0.042794 0.031125 0.020621 
0.051076 -0.057379 0.064000 
0.045257 0.033382 0.015193 
-0.042301 0.013230 0.010856 
0.059415 0.034916 0.057333 
0.011062 -0.013174 0.000000 
0.025506 -0.032089 0.003925 
-0.011903 0.043819 0.009639 
0.014493 0.037990 0.000000 
-0.045667 0.033330 0.028965 
0.041332 0.063131 0.060709 
0.044076 0.031073 0.025563 
-0.000068 -0.044825 0.011651 
-0.013541 -0.072723 0.056388 
-0.071605 -0.011801 0.064000 
-0.025437 -0.041446 0.019075 
0.039976 -0.058437 0.047344 
0.046651 0.050006 0.057978 
-0.009794 -0.075574 0.061465 
0.049957 0.002861 0.019221 
-0.002557 0.016826 0.002302 
0.024231 -0.001360 0.000000 
-0.033996 -0.054960 0.051079 
-0.022835 -0.064253 0.052867 
-0.061742 -0.000000 0.035186 
0.003651 0.041418 0.000000 
0.018715 -0.057101 0.026651 
0.049132 -0.012720 0.023620 
-0.043628 -0.051941 0.057542 
-0.033536 0.055809 0.051906 
0.040809 0.036689 0.029640 
-0.016983 0.058097 0.038193 
0.052300 0.023842 0.036926 
0.015853 0.048887 0.011244 
-0.051509 0.043308 0.052897 
0.007616 -0.061237 0.024435 
-0.027033 0.031169 0.002023 
0.013709 0.063669 0.032432 
-0.023110 -0.070639 0.057035 
-0.020560 0.035767 0.000000 
-0.039827 0.013258 0.003000 
-0.012480 -0.048921 0.019843 
0.055798 0.005552 0.032288 
-0.019853 0.061046 0.043859 
-0.029406 -0.055192 0.026500 
0.058512 -0.020668 0.025409 
0.014019 0.042522 0.005930 
0.026023 -0.068722 0.063882 
-0.019305 0.073105 0.060981 
0.058266 -0.024321 0.027717 
0.066904 0.000000 0.049303 
-0.045642 -0.007864 0.014087 
-0.050936 -0.043754 0.052942 
-0.019117 0.062307 0.032837 
-0.062278 -0.000000 0.035812 
-0.054346 0.017895 0.036926 
0.037410 -0.027150 0.008143 
-0.042193 0.029841 0.008095 
-0.061412 -0.014337 0.048605 
0.065388 -0.033796 0.064000 
0.014614 0.074217 0.060810 
-0.037476 -0.013143 0.001662 
0.049544 0.033339 0.020412 
-0.009698 -0.026780 0.003000 
-0.003314 -0.014388 0.002654 
-0.007728 -0.052735 0.011105 
0.004600 -0.059039 0.019438 
0.019600 0.039959 0.001807 
0.017030 -0.053754 0.029509 
-0.036854 -0.045668 0.039462 
0.047984 -0.020300 0.026139 
0.058327 -0.030022 0.052130 
-0.064006 -0.013696 0.053188 
0.041422 0.018926 0.002660 
-0.013853 0.066514 0.038836 
-0.015943 0.026794 0.002140 
0.043262 0.000363 0.004621 
0.038847 -0.027850 0.006487 
0.044425 0.055978 0.049123 
-0.005217 0.043404 0.008808 
0.044989 -0.049223 0.054667 
0.019202 -0.058777 0.032635 
0.044581 -0.003806 0.001581 
0.008365 0.046036 0.003773 
-0.043796 0.019676 0.004907 
-0.015463 0.059954 0.025308 
0.020072 -0.060908 0.044084 
-0.044144 -0.055852 0.048396 
-0.063597 -0.009436 0.030701 
-0.042337 -0.034623 0.028108 
-0.048657 -0.057418 0.064000 
0.030368 -0.058828 0.052934 
-0.025288 -0.035075 0.000217 
-0.062198 0.013680 0.029152 
0.018704 0.056404 0.021276 
0.058606 -0.023254 0.048495 
-0.019204 -0.058983 0.036040 
0.005774 0.017115 0.000000 
0.049927 0.000000 0.015245 
0.052460 -0.039538 0.047913 
0.025558 -0.031046 0.002328 
-0.043937 0.020689 0.018693 
0.055039 0.029607 0.026459 
-0.050006 0.030295 0.018638 
-0.047690 -0.034501 0.026042 
0.018423 -0.007040 0.002591 
0.058870 -0.043077 0.059615 
0.000932 -0.023191 0.000000 
0.053471 -0.045590 0.058830 
-0.029708 -0.023810 0.003000 
-0.031612 0.052218 0.023502 
-0.073300 0.015877 0.064000 
0.037431 0.053945 0.034366 
-0.057218 0.046824 0.056103 
-0.044712 0.052849 0.042376 
0.045448 -0.042470 0.025621 
-0.005175 -0.052430 0.026860 
-0.076648 0.002775 0.064000 
0.071381 -0.000168 0.059024 
-0.015199 0.026498 0.002146 
-0.000902 0.075200 0.059201 
0.044227 -0.031800 0.020251 
-0.007237 -0.055705 0.033411 
-0.020883 0.064283 0.048114 
-0.053646 -0.019533 0.036877 
0.019652 -0.019611 0.000000 
0.067324 0.021728 0.046873 
0.052318 -0.037959 0.038820 
0.018644 0.030931 0.000000 
-0.034379 -0.060511 0.043968 
0.044810 0.051194 0.057729 
-0.044679 0.032013 0.015440 
0.011366 -0.043080 0.001573 
0.001325 -0.034621 0.002895 
0.066598 0.025317 0.048648 
0.061971 -0.041770 0.058837 
0.061438 -0.036200 0.048863 
-0.059928 -0.037296 0.046619 
-0.022066 0.059247 0.043824 
-0.025184 -0.057883 0.027643 
0.002895 0.065291 0.033565 
-0.037664 -0.026943 0.004876 
0.044896 -0.016382 0.004564 
0.060644 -0.007825 0.023161 
0.040904 -0.047255 0.046606 
-0.050404 0.038056 0.028004 
-0.048703 -0.050279 0.043964 
0.034736 0.059617 0.042527 
0.034326 0.052678 0.047787 
0.065769 -0.016458 0.038827 
-0.032878 0.028161 0.000204 
0.018529 0.062949 0.047898 
0.031297 -0.019603 0.003000 
0.011846 -0.027021 0.000000 
-0.003613 -0.049171 0.020343 
0.018070 -0.046614 0.006645 
0.007715 -0.062722 0.027923 
0.000970 0.050903 0.023805 
-0.022442 -0.057635 0.041666 
0.070610 -0.018525 0.053691 
-0.000766 -0.018289 0.002944 
0.062977 -0.009275 0.029038 
0.069385 -0.001158 0.055764 
0.055253 0.042374 0.044263 
0.044467 0.031885 0.013932 
0.053075 -0.046858 0.046271 
-0.005701 -0.070767 0.047377 
-0.009251 0.008613 0.002370 
-0.042340 0.030604 0.019043 
-0.044066 -0.031681 0.019880 
-0.032741 0.063968 0.064000 
0.041422 0.035324 0.012938 
0.011455 -0.008101 0.000000 
0.059598 -0.001766 0.020347 
0.054349 0.039558 0.048082 
0.010314 0.022961 0.000000 
0.034215 -0.068608 0.063449 
-0.055726 -0.012680 0.036686 
-0.048875 -0.035365 0.033745 
0.025849 -0.040263 0.017331 
0.036313 0.051272 0.027406 
0.024549 0.013331 0.002231 
0.042150 -0.054032 0.059124 
0.005173 0.030540 0.000000 
-0.041079 -0.043598 0.041095 
-0.066687 0.018968 0.061522 
0.004458 -0.011334 0.000000 
0.056529 -0.040110 0.054937 
-0.047100 -0.033988 0.022978 
-0.029306 0.055007 0.026053 
0.046062 -0.007273 0.003623 
-0.065430 -0.031572 0.052830 
0.000331 0.075312 0.059499 
-0.058876 -0.038821 0.058682 
-0.006715 -0.033032 0.003000 
-0.066757 0.014919 0.059159 
-0.048586 0.020709 0.010077 
0.023196 0.030751 0.002058 
0.016676 -0.060960 0.028307 
-0.049816 0.048547 0.059350 
0.011651 -0.060034 0.023224 
0.059065 -0.013242 0.021932 
0.039132 0.011094 0.003000 
0.028673 0.070345 0.062313 
0.009618 0.001291 0.002468 
0.021694 -0.067057 0.048042 
-0.050376 0.036473 0.033591 
-0.012377 0.061857 0.027675 
-0.047904 0.047666 0.055682 
0.001927 0.010887 0.000000 
-0.059125 -0.043185 0.061824 
-0.070214 0.016299 0.050697 
-0.018797 -0.073212 0.060925 
-0.026178 -0.062792 0.038384 
0.011080 0.059894 0.022724 
-0.052966 0.013516 0.031546 
0.033555 -0.055532 0.032600 
0.043442 -0.036422 0.015864 
0.063988 0.000000 0.034902 
-0.060549 -0.025389 0.033357 
-0.018471 0.069995 0.051612 
0.015095 -0.017573 0.000000 
0.074150 0.000877 0.056399 
0.009523 -0.046602 0.015203 
-0.036484 0.050209 0.046348 
0.059290 -0.021825 0.048939 
-0.027301 -0.053702 0.041174 
-0.024754 -0.037277 0.001814 
-0.062120 0.002165 0.042296 
0.004785 -0.024254 0.000000 
-0.056070 -0.043157 0.047374 
-0.008338 -0.075392 0.060047 
-0.003221 -0.039125 0.000249 
0.041306 0.046300 0.045717 
-0.022743 -0.048616 0.027420 
-0.049163 -0.039047 0.027461 
0.031109 -0.037462 0.005714 
0.019718 0.036386 0.003928 
-0.064083 -0.042026 0.063150 
-0.007054 -0.047539 0.017078 
-0.004337 -0.051903 0.009088 
-0.020765 0.063728 0.046072 
-0.031272 -0.038100 0.020696 
-0.025285 -0.053873 0.020337 
0.000854 -0.017725 0.002704 
-0.060022 0.032391 0.039900 
-0.066672 0.024949 0.047587 
-0.036299 -0.055119 0.054044 
0.022812 0.064788 0.053706 
0.034233 -0.051875 0.026098 
-0.051631 -0.034420 0.025615 
0.019733 0.065413 0.052826 
0.067604 0.015058 0.042538 
-0.044524 0.034073 0.015147 
0.056803 0.033164 0.034546 
0.033102 0.037658 0.007166 
0.067064 -0.004699 0.053449 
0.056369 0.044118 0.049555 
0.047213 -0.023491 0.009708 
-0.032793 -0.068648 0.062310 
-0.027522 0.064744 0.044910 
0.028312 0.063814 0.042757 
0.060661 -0.006146 0.022590 
-0.068663 0.008361 0.042251 
-0.052224 -0.040173 0.048684 
-0.022572 -0.007732 0.000000 
0.018881 -0.035444 0.003000 
-0.057345 0.042419 0.049246 
-0.002905 -0.065390 0.052780 
0.011527 0.063505 0.049009 
0.037041 -0.054798 0.035725 
0.021773 0.034080 0.002690 
-0.032040 -0.051671 0.043477 
-0.049639 0.014745 0.025853 
0.048234 0.027094 0.013461 
0.058380 0.034628 0.039589 
0.070041 -0.016431 0.064000 
0.026832 -0.000954 0.003000 
0.019793 -0.063748 0.049496 
0.066966 0.020356 0.044951 
0.028547 -0.053483 0.042065 
0.038373 0.054787 0.037358 
-0.048546 -0.043856 0.050294 
-0.016659 -0.056252 0.019016 
0.015289 -0.044296 0.011346 
-0.036230 0.014692 0.000242 
0.025487 0.031152 0.002458 
0.047148 -0.021800 0.025500 
0.000820 0.039506 0.000000 
-0.021676 0.068205 0.058411 
-0.050215 -0.011167 0.025091 
0.016569 0.069852 0.049866 
0.055525 -0.038703 0.052136 
0.051293 -0.028435 0.018848 
-0.024398 -0.018295 0.000000 
0.027088 0.014643 0.000000 
-0.025484 -0.031338 0.000000 
0.059712 -0.030538 0.037157 
0.013303 0.059903 0.041806 
-0.043529 0.013834 0.002508 
-0.021944 -0.066655 0.046582 
-0.010659 -0.023549 0.000000 
-0.015883 0.045309 0.013725 
0.010481 -0.041718 0.005435 
-0.012129 0.072465 0.054110 
-0.019334 0.047745 0.008112 
-0.034199 -0.027292 0.006718 
0.047941 0.000000 0.011594 
-0.010883 -0.025292 0.000000 
-0.030419 -0.052594 0.022709 
-0.055130 -0.007382 0.032176 
-0.055190 -0.001723 0.013744 
-0.060580 0.019464 0.029230 
0.043955 -0.026348 0.022314 
-0.017407 -0.003779 0.000000 
-0.039984 -0.054225 0.056938 
0.018919 0.058004 0.036135 
0.057878 0.021633 0.025170 
0.055762 -0.040584 0.048463 
0.046893 0.034203 0.029332 
-0.050161 -0.047400 0.041123 
0.041337 0.051726 0.054500 
-0.026206 0.020895 0.002129 
0.075353 -0.007829 0.059616 
0.060674 0.031469 0.057644 
-0.000646 -0.063851 0.030146 
-0.044857 0.045894 0.049241 
-0.001448 -0.019903 0.000000 
-0.003150 -0.067437 0.038662 
-0.001378 -0.035816 0.000000 
0.056052 -0.049154 0.057045 
0.001088 0.040210 0.002420 
0.006998 -0.073993 0.055981 
-0.031944 -0.046279 0.034671 
-0.029722 -0.034385 0.012843 
0.029734 -0.008697 0.003000 
0.048550 -0.004522 0.005550 
-0.055511 0.026284 0.044361 
-0.049578 0.035550 0.025705 
0.024848 -0.071759 0.061459 
-0.013375 0.034763 0.000000 
0.025345 -0.067867 0.061685 
-0.015216 0.040314 0.004822 
0.027585 -0.060266 0.034637 
-0.017433 -0.048517 0.020807 
-0.056332 -0.013581 0.038397 
-0.040740 -0.045658 0.023213 
-0.048815 -0.035389 0.034282 
0.055163 -0.044078 0.046694 
0.026181 -0.052947 0.038379 
-0.024680 0.036201 0.009658 
-0.042416 0.023123 0.017343 
-0.040986 -0.064176 0.062431 
-0.019024 0.058995 0.030817 
-0.037578 0.012060 0.000000 
0.056343 0.023255 0.023256 
0.045403 0.052187 0.060026 
0.008410 -0.065582 0.034828 
-0.058635 -0.000000 0.021244 
0.038425 -0.013429 0.003000 
0.043740 0.052242 0.058159 
-0.048463 0.048745 0.058078 
0.064367 0.033299 0.064000 
-0.025050 -0.009334 0.003000 
-0.047818 -0.000899 0.013803 
0.005975 0.046712 0.004007 
0.005294 0.056994 0.035988 
-0.023378 -0.046888 0.025391 
0.039685 -0.050792 0.031007 
0.053591 0.010138 0.012889 
-0.056693 0.041043 0.049401 
0.017060 0.049769 0.009686 
-0.003337 0.043701 0.009402 
0.027548 -0.011120 0.003000 
0.027299 -0.030509 0.000000 
-0.060894 0.010249 0.044908 
0.062966 0.017577 0.033324 
0.060507 -0.041198 0.063255 
-0.017998 -0.024731 0.003000 
0.061825 0.006922 0.044863 
-0.003372 -0.048754 0.019509 
0.044642 -0.060004 0.064000 
0.032354 -0.005839 0.003000 
0.039548 0.035707 0.026573 
0.050347 0.036664 0.033525 
-0.019725 0.061737 0.045475 
-0.044653 -0.057343 0.052645 
0.049560 0.025629 0.014319 
0.071380 0.004411 0.061666 
0.025730 0.019009 0.000000 
0.015351 -0.067045 0.041168 
0.046150 -0.019648 0.022240 
0.049367 -0.037095 0.040340 
-0.051955 -0.037496 0.030821 
-0.032355 -0.067736 0.059123 
-0.032037 -0.061276 0.042176 
0.073152 -0.019950 0.064000 
0.007817 -0.061286 0.044572 
0.004262 -0.045700 0.013400 
-0.027000 0.056518 0.026734 
-0.003529 -0.023526 0.002748 
-0.029914 0.024934 0.000000 
-0.016918 -0.052096 0.018880 
0.031828 0.038865 0.007128 
0.017222 0.006622 0.002365 
0.050557 0.000000 0.014757 
0.052464 0.007936 0.027365 
-0.000910 0.073874 0.055664 
-0.017384 -0.058121 0.022461 
-0.018583 0.000098 0.002597 
0.050018 -0.043456 0.051251 
0.011355 0.070237 0.062474 
-0.015407 -0.038958 0.000000 
0.042607 0.030587 0.015799 
-0.058664 0.032141 0.054090 
-0.057922 0.041950 0.052674 
0.001249 0.043305 0.000305 
-0.015854 0.014616 0.002272 
0.054673 -0.040210 0.039645 
-0.058810 -0.012330 0.020866 
-0.039029 0.045336 0.041486 
0.041260 -0.045082 0.023126 
-0.021747 -0.022051 0.003000 
-0.022312 0.068761 0.058474 
-0.004590 -0.060940 0.023232 
0.022126 -0.042549 0.016626 
0.070761 -0.018148 0.053846 
-0.032161 -0.019969 0.000000 
-0.034624 -0.029831 0.002513 
-0.060766 -0.022074 0.052086 
-0.032172 0.045262 0.033300 
-0.019668 -0.009900 0.000000 
-0.022128 0.036935 0.000015 
-0.049892 -0.030008 0.018091 
-0.045760 -0.029085 0.027581 
-0.053699 -0.038638 0.037161 
-0.010442 -0.071487 0.064000 
-0.017618 -0.049229 0.009238 
-0.019605 -0.042198 0.003533 
0.057672 -0.013801 0.040849 
-0.047561 0.031447 0.032399 
-0.015343 -0.053335 0.028671 
0.005645 -0.060775 0.043550 
-0.051624 -0.037427 0.034913 
0.019991 -0.029460 0.000000 
0.019291 0.057397 0.037452 
0.008728 -0.060303 0.042606 
0.000089 -0.045254 0.002003 
-0.031152 0.005006 0.003000 
0.062031 -0.022524 0.034384 
-0.046450 0.050307 0.058227 
0.054086 -0.016846 0.035774 
0.034961 0.057180 0.037599 
0.008857 0.075566 0.060557 
0.065477 0.000000 0.047280 
0.001521 -0.011231 0.000000 
-0.052867 0.054205 0.064000 
-0.048970 -0.008363 0.006560 
-0.058134 0.025798 0.049149 
-0.057200 -0.027682 0.048669 
-0.005027 0.024523 0.002209 
0.054279 0.015705 0.015872 
-0.017033 0.037421 0.002017 
-0.042472 -0.042336 0.040700 
-0.015278 -0.047771 0.010948 
-0.036819 0.057761 0.041487 
0.003023 -0.069489 0.043970 
-0.030696 -0.001070 0.003000 
0.006496 -0.013370 0.002649 
-0.049755 0.039291 0.044358 
0.054060 0.039458 0.044085 
0.022081 0.068107 0.058214 
0.013119 0.022068 0.000000 
-0.043559 -0.031252 0.016190 
0.073675 -0.012926 0.058567 
0.002774 -0.075296 0.059457 
-0.068686 -0.017174 0.047027 
-0.033813 -0.057143 0.036021 
0.028210 0.058018 0.031374 
0.003522 -0.062506 0.026952 
-0.021860 -0.067325 0.047269 
-0.016597 0.043328 0.003473 
0.026007 -0.022416 0.000000 
-0.017942 0.053063 0.014839 
