
# .PCD v.6 - Point Cloud Data file format
FIELDS x y z 
SIZE 4 4 4 
TYPE F F F 
COUNT 1 1 1 
WIDTH 1647
HEIGHT 1
VIEWPOINT 0.000000 0.000000 0.000000 1.000000 0.000000 0.000000 0.00000
POINTS 1647
DATA ascii
0.090430 -0.021907 0.043982 
0.091394 0.040091 0.060677 
-0.060251 -0.001722 0.003328 
-0.089928 0.029643 0.048348 
-0.017508 0.090146 0.041223 
0.064614 0.019676 0.005301 
-0.054799 -0.074216 0.042609 
-0.005489 0.065101 0.017622 
0.043543 -0.029934 0.000000 
-0.013412 0.000148 0.002544 
0.001044 0.053788 0.002068 
-0.021783 -0.048281 0.003000 
0.079123 -0.004759 0.019112 
-0.092318 -0.038821 0.061617 
-0.064383 0.046542 0.033877 
0.054147 -0.096618 0.090427 
-0.043989 0.042597 0.003000 
-0.024928 -0.069977 0.029498 
-0.043865 -0.005365 0.003000 
-0.100720 -0.036726 0.080648 
0.002922 -0.059027 0.005861 
0.034535 -0.062839 0.008895 
0.039215 0.090454 0.057365 
-0.075680 -0.079973 0.090306 
-0.073856 -0.075481 0.077674 
0.075088 0.069134 0.067444 
-0.076796 0.020250 0.044802 
0.083381 0.039212 0.042974 
-0.025564 0.059993 0.003403 
-0.057887 0.059610 0.049912 
0.065707 0.069048 0.073824 
0.087436 -0.000000 0.050687 
0.054465 -0.090660 0.076858 
0.048592 0.078780 0.069738 
-0.033117 -0.058772 0.005021 
-0.074917 -0.023299 0.018295 
-0.086108 -0.002415 0.030224 
0.031872 0.047401 0.000000 
-0.059331 -0.043263 0.023143 
-0.085653 0.063917 0.088204 
-0.000850 -0.084216 0.027176 
-0.005287 0.096287 0.078002 
0.002538 0.107559 0.081971 
-0.047961 -0.030329 0.000000 
-0.017301 -0.025269 0.000000 
-0.077626 0.064152 0.063343 
0.070537 -0.081626 0.083764 
-0.084845 -0.062629 0.075758 
0.057609 0.052759 0.039091 
0.042149 0.063750 0.014653 
-0.054756 0.066323 0.056908 
0.076476 0.020363 0.019501 
-0.023809 -0.074272 0.025485 
0.020303 0.052624 0.002643 
-0.029524 0.068171 0.031643 
-0.085218 -0.013682 0.056675 
-0.070759 0.051532 0.033070 
0.062266 0.065565 0.039261 
0.025958 0.057157 0.001188 
0.083941 -0.010227 0.052254 
0.058614 0.039576 0.008045 
0.087884 0.001236 0.054364 
0.093818 -0.032831 0.059375 
0.019484 0.056584 0.002243 
-0.039341 -0.094911 0.068812 
0.018905 -0.098835 0.061590 
0.022121 0.034703 0.000000 
-0.053511 -0.026508 0.000000 
0.046013 -0.035149 0.003000 
0.047360 -0.055211 0.009687 
-0.026161 0.081527 0.041813 
-0.059600 0.030604 0.004402 
-0.009789 -0.069464 0.026068 
0.064367 -0.003003 0.002366 
-0.055215 -0.071932 0.039358 
-0.041306 -0.049521 0.002526 
0.003661 -0.072886 0.032695 
0.057134 0.084074 0.087552 
0.042353 0.085162 0.049851 
-0.030965 -0.019717 0.000000 
0.082580 0.013639 0.051753 
0.104835 0.024519 0.081179 
0.083497 -0.026928 0.033059 
0.089032 0.033449 0.075207 
-0.043898 0.065360 0.043067 
0.105288 0.002552 0.075418 
0.049922 0.087691 0.064598 
-0.032166 -0.097641 0.068268 
0.005327 -0.057364 0.000000 
-0.032691 -0.100953 0.083060 
0.000261 0.045858 0.002136 
0.020432 0.090450 0.066701 
0.008991 -0.036129 0.000000 
0.080237 0.042253 0.039764 
-0.033478 -0.025131 0.000000 
-0.090451 0.049272 0.070569 
-0.001307 -0.092775 0.044343 
0.097362 0.022059 0.058920 
0.103168 0.012163 0.089087 
0.062061 0.022627 0.004124 
0.053963 0.079537 0.076942 
-0.059655 0.073728 0.048922 
0.038756 -0.047783 0.009869 
0.067018 0.035234 0.035411 
-0.022009 0.067435 0.009565 
-0.008186 -0.046697 0.000000 
0.073577 -0.074751 0.075657 
-0.037682 -0.049023 0.010857 
0.041229 0.047688 0.012689 
0.000515 0.008118 0.000000 
-0.025969 0.081105 0.037410 
-0.047017 0.059907 0.038037 
-0.009512 0.011726 0.000000 
0.004768 0.006569 0.003000 
0.043549 0.094231 0.088091 
0.032159 -0.079204 0.028728 
-0.048804 0.055951 0.033847 
-0.057647 0.006260 0.001138 
0.023656 -0.020640 0.003000 
-0.053741 -0.074875 0.042375 
0.090727 0.025888 0.047355 
0.103839 0.037217 0.091000 
0.078491 0.025537 0.051070 
-0.020431 -0.063026 0.004729 
-0.070752 -0.041378 0.045896 
0.013166 -0.030244 0.000000 
-0.005237 0.089435 0.064735 
0.012719 -0.031822 0.003000 
0.006775 0.101015 0.087156 
0.033797 0.034924 0.000000 
-0.059412 -0.066651 0.036558 
0.032331 0.099993 0.074352 
0.040900 -0.012871 0.000000 
0.008185 0.013543 0.003000 
0.098631 -0.005865 0.057615 
0.043988 0.017161 0.000000 
-0.005538 -0.015854 0.003000 
-0.007449 0.038908 0.002206 
-0.059082 0.070140 0.067821 
0.086264 -0.064367 0.089606 
0.048132 -0.049313 0.006384 
-0.033586 0.075151 0.023615 
0.090501 0.008886 0.063689 
0.028561 0.088169 0.044011 
-0.013341 0.100631 0.065191 
0.002759 0.026094 0.000000 
-0.044533 0.049805 0.004503 
0.049531 0.046908 0.020721 
-0.039013 -0.042705 0.003000 
-0.011733 -0.008595 0.003000 
0.086422 0.052899 0.081640 
0.073285 -0.066048 0.077514 
-0.003968 -0.089895 0.065627 
0.005669 0.104596 0.074424 
0.013979 0.101833 0.088740 
-0.082491 -0.060441 0.079161 
0.028129 -0.006411 0.003000 
0.052711 0.043348 0.005779 
0.027079 -0.000407 0.003000 
0.041480 -0.071457 0.049907 
-0.087706 -0.005299 0.056403 
0.105872 -0.024967 0.091000 
-0.059207 0.016735 0.003000 
-0.030440 0.104082 0.083170 
-0.057512 0.074728 0.073251 
0.010357 0.084194 0.054589 
-0.060524 -0.090806 0.091000 
0.058156 -0.042298 0.012517 
0.093166 0.039648 0.086468 
0.063360 -0.080995 0.089742 
0.085771 -0.035796 0.044826 
-0.061619 0.045019 0.023057 
-0.050264 0.036549 0.001527 
0.027444 -0.003492 0.003000 
0.067772 -0.079464 0.074030 
-0.099249 0.002490 0.058410 
-0.079842 0.043386 0.040239 
-0.064032 0.030870 0.027300 
-0.013350 0.093553 0.047887 
0.076833 0.070551 0.073769 
-0.041163 0.076985 0.032134 
-0.066991 0.000880 0.015351 
-0.024194 0.043646 0.000000 
-0.049367 -0.032539 0.001103 
-0.020238 0.076216 0.019075 
0.069575 0.040847 0.021236 
0.068363 -0.034916 0.015350 
0.005940 0.101686 0.066295 
-0.041037 -0.045335 0.003000 
0.020567 0.001034 0.003000 
-0.077699 -0.059150 0.054833 
0.022449 -0.099536 0.084293 
0.068281 -0.049886 0.036248 
-0.055352 0.090182 0.077437 
-0.066185 0.002526 0.003836 
-0.020716 -0.042757 0.003000 
-0.077908 -0.056614 0.062576 
-0.056289 0.062988 0.053407 
0.034878 0.067524 0.036853 
-0.033614 0.102806 0.082709 
0.106115 0.031487 0.089519 
-0.081653 0.055054 0.074030 
0.077165 0.040219 0.031548 
-0.019682 0.097985 0.059416 
-0.110059 -0.000046 0.091000 
-0.099350 -0.019330 0.086160 
-0.002814 0.043809 0.002158 
-0.012485 -0.029630 0.000000 
0.098999 -0.013250 0.081974 
0.089441 0.045918 0.083191 
-0.036666 -0.060762 0.008395 
-0.068133 -0.049745 0.037774 
-0.009623 -0.045063 0.003000 
0.093116 0.000941 0.063907 
-0.007652 -0.003571 0.003000 
-0.027881 -0.059368 0.003713 
-0.011336 0.056772 0.001494 
-0.026797 0.063547 0.006603 
-0.048197 0.099368 0.090571 
0.072708 0.057275 0.063174 
0.095864 -0.045851 0.091000 
-0.055007 0.022861 0.005914 
-0.102485 0.041318 0.091000 
0.069655 0.071608 0.082233 
0.026354 0.101712 0.088505 
0.073687 0.060414 0.049966 
-0.014849 0.101234 0.087581 
0.025734 -0.080153 0.043284 
0.062673 -0.082694 0.071351 
0.056954 -0.066861 0.033345 
0.080742 0.002919 0.021674 
0.074727 0.005783 0.012151 
-0.025310 0.077390 0.024829 
-0.102076 0.011411 0.068734 
0.056960 0.076757 0.050023 
-0.084601 0.065958 0.081405 
0.075653 -0.001539 0.031820 
0.067190 -0.048968 0.031190 
-0.102066 -0.000945 0.080531 
-0.055987 -0.021504 0.006956 
-0.106118 0.009882 0.079657 
-0.039663 -0.022271 0.003000 
-0.001209 0.021019 0.000000 
-0.010919 0.014657 0.002417 
0.096419 0.026889 0.085105 
-0.046581 0.085027 0.054334 
0.011132 0.084134 0.054472 
-0.086700 0.063150 0.088189 
-0.047425 0.098042 0.086550 
-0.082510 -0.057501 0.077051 
-0.005467 -0.092335 0.070350 
-0.038911 0.086257 0.048425 
-0.034111 -0.079949 0.031290 
0.101787 -0.042666 0.090299 
0.059953 0.057283 0.048932 
-0.023657 0.097641 0.080623 
0.040449 -0.093762 0.067158 
0.030313 0.097383 0.080124 
0.020527 0.092406 0.047131 
0.062213 -0.045448 0.024499 
-0.037560 0.062333 0.009984 
-0.023060 -0.070562 0.014596 
-0.066449 -0.066272 0.070342 
0.057969 -0.020845 0.003000 
-0.030039 -0.091321 0.051552 
0.000750 0.105120 0.074553 
-0.064661 -0.047201 0.022468 
0.026840 0.082439 0.037741 
-0.026390 -0.081402 0.038325 
0.082199 -0.047337 0.070556 
0.008523 -0.066387 0.020110 
0.072344 -0.074602 0.072892 
0.076830 0.032939 0.025657 
-0.030904 -0.094655 0.072218 
-0.096640 0.035888 0.069488 
-0.084846 0.032196 0.066685 
-0.053751 -0.080554 0.053341 
0.005926 0.056294 0.002040 
0.023244 -0.071802 0.018036 
-0.033597 -0.027594 0.000000 
0.011051 0.068844 0.007251 
-0.007634 0.000093 0.000000 
0.094833 -0.016005 0.075836 
-0.050373 0.024810 0.000000 
0.074456 -0.051856 0.058833 
-0.015814 0.065555 0.018500 
-0.105856 -0.024042 0.083249 
0.105046 0.020205 0.091000 
-0.079585 -0.000000 0.020531 
0.107185 0.011698 0.083065 
-0.056566 0.006173 0.000000 
0.066139 -0.055021 0.052066 
0.037788 -0.090285 0.055773 
-0.053948 -0.000640 0.003000 
0.073469 0.053428 0.041588 
0.006228 0.104111 0.073198 
-0.092073 -0.035973 0.082309 
0.014184 0.034628 0.000000 
-0.099357 -0.009946 0.060780 
-0.062082 -0.045228 0.031002 
0.012558 -0.096520 0.078453 
-0.037687 -0.100261 0.080591 
0.040104 -0.038265 0.000000 
-0.059489 -0.020575 0.001080 
0.025100 -0.016742 0.003000 
0.069900 -0.061224 0.066087 
-0.022414 0.041597 0.003000 
0.044787 -0.091801 0.067188 
0.044450 0.000624 0.003000 
-0.053984 0.039359 0.012500 
-0.056841 0.039594 0.019056 
-0.008266 0.055879 0.002045 
-0.064521 -0.073996 0.056497 
0.103146 0.022804 0.075111 
-0.049385 0.046735 0.020020 
-0.071116 0.032203 0.016998 
0.062544 -0.045743 0.022310 
-0.048144 0.060576 0.015835 
-0.041165 0.086494 0.051210 
-0.048259 0.036157 0.002113 
-0.030929 0.000217 0.000000 
0.028094 0.072801 0.037439 
-0.037921 -0.045377 0.003000 
-0.026828 -0.081941 0.031385 
0.014553 -0.099280 0.083798 
0.077693 -0.019119 0.020289 
0.047827 0.022583 0.003000 
0.046003 0.080976 0.045479 
-0.015637 0.070151 0.027398 
0.092825 0.045575 0.071614 
0.109346 0.001484 0.086665 
0.094567 0.013215 0.050090 
-0.074219 -0.063153 0.074216 
0.008223 0.057375 0.002028 
0.005445 -0.097877 0.055799 
-0.022357 0.091741 0.069200 
-0.075614 0.048804 0.059202 
-0.087339 -0.000000 0.038402 
0.090815 0.023952 0.073008 
-0.037224 -0.061537 0.009237 
0.022889 0.070950 0.021557 
0.073964 0.044305 0.029709 
-0.067705 -0.069094 0.053503 
-0.003435 -0.017039 0.003000 
-0.096819 0.034490 0.068537 
0.060556 0.087062 0.077581 
-0.037156 -0.075347 0.051568 
0.023839 -0.033565 0.000000 
0.014370 0.066655 0.006158 
0.040037 -0.099602 0.081641 
0.039908 -0.031087 0.003000 
0.011691 0.054222 0.002051 
0.069773 -0.075065 0.087701 
-0.084380 -0.040312 0.046072 
-0.010309 0.071779 0.030552 
-0.015839 -0.034676 0.003000 
-0.056568 0.083277 0.085618 
0.079447 -0.018436 0.048672 
0.025412 -0.087634 0.040602 
0.029020 -0.088403 0.062543 
0.046420 -0.080526 0.045047 
0.020222 -0.054387 0.003000 
0.007475 -0.077126 0.015949 
-0.066805 -0.004028 0.004912 
-0.049632 0.036460 0.001191 
-0.021914 -0.057321 0.006446 
-0.015536 -0.106205 0.091000 
-0.026365 -0.075209 0.039241 
-0.069284 -0.075298 0.087551 
-0.069757 -0.014880 0.009000 
0.024705 -0.101091 0.070827 
-0.052466 0.082350 0.055593 
-0.081494 0.025668 0.056671 
0.031109 -0.099589 0.072194 
0.039493 0.004920 0.000000 
0.073370 0.080298 0.086335 
0.007585 0.088508 0.062941 
0.057133 0.078291 0.078565 
0.100978 0.020082 0.067868 
-0.014419 -0.065540 0.018471 
-0.094468 0.028860 0.082618 
0.037894 -0.048577 0.000062 
-0.002459 -0.033254 0.000000 
0.078671 0.027746 0.052683 
0.104737 0.035119 0.089068 
-0.064185 0.056724 0.028911 
0.009220 -0.106930 0.081773 
-0.075271 0.069321 0.084914 
0.073866 0.068568 0.063867 
0.084430 0.057686 0.080720 
-0.021927 0.068146 0.014381 
0.018590 -0.090642 0.067074 
0.106905 -0.007794 0.081371 
0.068366 0.048029 0.045327 
-0.022271 0.078291 0.043160 
0.029704 0.094424 0.074396 
-0.024498 -0.009503 0.000000 
-0.050993 0.087186 0.085433 
-0.074166 0.001458 0.029012 
-0.083910 -0.000000 0.040677 
-0.001346 0.109812 0.087952 
0.010991 -0.060287 0.000304 
0.039435 -0.068994 0.043777 
0.095597 0.055725 0.089735 
0.059546 0.060888 0.054227 
0.031565 -0.089530 0.067274 
0.055410 0.041347 0.018414 
-0.071703 0.012831 0.031037 
0.004917 -0.105010 0.075406 
-0.052806 -0.010496 0.000000 
-0.016103 0.098397 0.082088 
0.020483 -0.029637 0.003000 
-0.038542 -0.079492 0.034699 
-0.033961 0.094685 0.077956 
0.062909 -0.045122 0.033519 
0.044358 0.049923 0.019754 
0.058532 -0.076233 0.051471 
-0.100838 0.043888 0.089290 
0.085017 -0.061425 0.080043 
-0.056859 -0.046932 0.028950 
-0.101215 -0.000000 0.071426 
0.010934 -0.003725 0.003000 
0.075613 -0.036005 0.051749 
0.065056 0.068653 0.048597 
-0.011839 0.100991 0.065814 
-0.068307 0.049670 0.045672 
-0.036080 0.071284 0.020261 
0.025380 -0.091369 0.048338 
-0.066322 -0.064566 0.067549 
0.026519 0.045224 0.003000 
0.094397 -0.008858 0.070877 
0.038711 0.090439 0.056844 
0.005228 0.041657 0.002166 
0.057091 -0.047745 0.011256 
-0.070526 0.021908 0.011369 
-0.001854 0.087106 0.032488 
-0.006893 -0.002040 0.000000 
0.091039 -0.029926 0.076869 
-0.007142 0.083227 0.025609 
-0.074845 0.066491 0.079981 
0.052926 0.019179 0.003000 
-0.051002 0.046197 0.006232 
-0.107280 0.013686 0.091000 
-0.089428 0.057834 0.090074 
-0.007801 -0.013019 0.000000 
-0.005427 -0.019953 0.000000 
-0.069707 0.053519 0.053755 
-0.011105 -0.012721 0.003000 
0.010167 0.012121 0.000000 
0.058749 0.037649 0.007316 
0.053410 -0.043144 0.006179 
0.027074 -0.070167 0.032083 
0.074717 0.050471 0.058521 
-0.060065 0.050236 0.017314 
-0.073421 -0.013188 0.012238 
-0.096020 0.016421 0.078282 
0.044536 -0.091252 0.084494 
-0.019998 -0.082995 0.028182 
-0.069467 -0.003233 0.007164 
0.045628 -0.038285 0.002540 
0.082847 0.061609 0.081424 
0.093357 0.025523 0.052564 
0.004184 -0.052517 0.003000 
-0.021994 0.067800 0.012124 
0.050205 -0.009428 0.000000 
0.059707 0.043193 0.017542 
-0.062764 0.045884 0.023796 
0.094305 0.051972 0.091000 
0.018905 -0.103403 0.074339 
0.014342 0.088486 0.036741 
-0.012519 -0.048430 0.000000 
0.042014 0.065112 0.016398 
0.026364 0.047525 0.000000 
-0.076425 -0.065717 0.080677 
0.022510 -0.069213 0.012808 
0.088932 0.050107 0.067632 
0.023734 -0.100383 0.068190 
0.072575 -0.019054 0.036269 
0.052093 0.095738 0.086679 
-0.041020 0.095741 0.087559 
-0.099986 0.019512 0.064956 
0.050651 0.039423 0.010024 
0.017846 0.093786 0.049197 
0.103396 0.008000 0.087097 
0.016126 0.043151 0.000000 
-0.010199 0.093004 0.045910 
0.090686 0.051105 0.088507 
0.089164 0.003072 0.057813 
-0.035735 0.059799 0.025351 
-0.044019 0.086747 0.054934 
-0.059711 0.039534 0.024339 
0.084736 -0.001771 0.048824 
-0.043498 -0.017901 0.000000 
-0.077877 -0.051278 0.064851 
0.065430 0.075336 0.060874 
-0.087084 -0.005528 0.032252 
0.096198 -0.013035 0.076646 
0.013982 0.083238 0.026853 
0.012749 -0.009506 0.003000 
0.020589 -0.065081 0.017581 
-0.064617 -0.067862 0.046643 
-0.035397 -0.076207 0.050931 
-0.106281 -0.021930 0.083140 
0.072370 0.052598 0.049913 
-0.005218 -0.056093 0.000000 
0.080295 0.027069 0.055303 
0.020737 0.093920 0.050422 
0.090359 -0.046018 0.066136 
-0.105577 0.014978 0.091000 
0.076919 0.024827 0.047743 
0.074576 -0.054275 0.060077 
-0.060633 -0.040629 0.010024 
-0.036849 -0.077077 0.028644 
-0.066199 -0.000000 0.006246 
-0.008089 -0.107380 0.082768 
-0.048204 -0.049259 0.006394 
-0.070175 0.042666 0.023516 
0.046522 0.040348 0.001616 
0.050990 -0.073275 0.063562 
0.074497 0.050336 0.038015 
-0.089134 0.056954 0.077368 
-0.055478 0.002929 0.000000 
-0.010519 -0.079770 0.046022 
0.007229 -0.022361 0.000000 
0.046061 -0.002890 0.003000 
-0.006661 0.081132 0.022293 
0.076883 0.054444 0.047100 
-0.031899 0.036785 0.003000 
0.094827 0.015885 0.075774 
-0.087384 0.056500 0.072538 
-0.008996 0.067807 0.022859 
0.032234 0.099211 0.080957 
-0.010555 -0.088547 0.063017 
-0.071730 0.003204 0.025501 
-0.022465 -0.005769 0.000000 
-0.019903 0.091074 0.067909 
0.070953 -0.051251 0.048272 
-0.029864 0.090793 0.050298 
-0.031815 0.038892 0.003000 
0.088518 0.036983 0.051500 
0.042031 0.068886 0.021344 
-0.005279 -0.024033 0.003000 
0.014859 0.090042 0.040273 
-0.006752 0.040484 0.002192 
-0.019237 -0.049798 0.000000 
-0.100476 0.041336 0.085391 
-0.035911 -0.079250 0.056236 
-0.068422 -0.033159 0.014055 
-0.075456 -0.054819 0.051295 
0.029975 -0.093191 0.064866 
0.056322 0.013897 0.003137 
-0.073429 -0.066607 0.078697 
-0.100289 0.029321 0.091000 
-0.077034 -0.000000 0.030192 
-0.024874 0.060588 0.003729 
-0.095800 -0.013971 0.052893 
0.081596 -0.000000 0.028110 
0.101370 0.010325 0.084688 
0.068705 -0.017842 0.028379 
-0.100037 -0.000000 0.073654 
-0.026534 0.094475 0.055588 
-0.016000 -0.079858 0.022355 
-0.024736 -0.065152 0.007435 
0.000102 0.046513 0.002131 
-0.049833 -0.067864 0.054167 
0.025111 0.077577 0.037630 
-0.095551 -0.003510 0.069929 
0.106264 -0.015128 0.081366 
0.025194 -0.090353 0.046099 
0.083352 0.037676 0.041381 
-0.067026 0.033058 0.034122 
0.005814 -0.110233 0.090211 
-0.059653 -0.004080 0.000000 
0.099621 -0.003986 0.059889 
-0.076500 -0.008829 0.015066 
-0.083190 -0.042349 0.045852 
0.061825 -0.000000 0.002144 
-0.018890 0.001181 0.002542 
-0.095897 -0.013349 0.076290 
-0.032254 0.050422 0.000000 
-0.105282 -0.000000 0.079600 
0.078829 -0.000000 0.020294 
0.074335 0.076936 0.081541 
0.076260 0.071979 0.075478 
-0.080216 -0.011611 0.046178 
0.041480 0.048212 0.013807 
-0.045223 -0.037636 0.003000 
0.015902 -0.000384 0.003000 
-0.011527 0.098817 0.059668 
-0.082968 0.060008 0.073341 
0.026857 0.100731 0.086607 
0.070929 0.051505 0.042778 
-0.002391 0.053092 0.000000 
0.008760 0.107366 0.082884 
-0.082920 0.071516 0.088281 
-0.071754 0.032655 0.018228 
0.038009 -0.070465 0.020459 
-0.034054 0.013560 0.000000 
0.085086 -0.056503 0.081237 
-0.009345 -0.075377 0.013724 
0.073759 -0.053632 0.043315 
0.010719 -0.005250 0.000000 
-0.051705 0.092138 0.091000 
-0.053479 0.076591 0.045491 
-0.028845 -0.088361 0.061682 
-0.085850 0.012355 0.030488 
0.082083 -0.047597 0.070492 
-0.054696 -0.087598 0.071009 
-0.072447 -0.029847 0.042357 
-0.098572 -0.007753 0.057983 
-0.038212 0.010410 0.003000 
0.039189 -0.098974 0.090562 
0.022402 0.082007 0.050355 
0.061136 0.001162 0.000000 
-0.093879 -0.058371 0.089746 
-0.035750 0.080711 0.034176 
-0.098987 -0.004524 0.058245 
0.030731 -0.000958 0.003000 
-0.099042 0.036723 0.076347 
-0.052263 -0.024333 0.003000 
-0.010943 0.103245 0.071879 
-0.090561 -0.011959 0.065586 
0.062681 -0.008933 0.012022 
-0.055326 -0.040285 0.014577 
-0.029540 0.021740 0.000000 
-0.097880 0.037162 0.073882 
0.067222 0.057054 0.034106 
-0.017960 -0.040536 0.000000 
0.090526 -0.018846 0.042303 
0.043279 0.018614 0.000000 
0.074710 -0.027267 0.044999 
0.026570 -0.082766 0.037416 
-0.023327 -0.089335 0.064541 
0.048132 0.058424 0.013265 
-0.079672 0.050617 0.067777 
-0.034407 0.076639 0.050229 
-0.019629 0.034147 0.000000 
-0.046888 0.041174 0.000698 
0.070568 0.063194 0.048763 
0.056105 0.064114 0.055379 
-0.029837 0.083819 0.035931 
-0.098257 -0.038841 0.076803 
-0.006584 -0.069491 0.026120 
0.034507 -0.105280 0.091000 
0.003700 0.098617 0.056973 
-0.063419 -0.033762 0.009008 
0.024605 0.037897 0.000000 
0.010387 0.083121 0.026117 
0.030646 -0.099528 0.071645 
-0.012831 -0.024547 0.000000 
0.070331 0.029728 0.014290 
-0.099050 0.020996 0.062720 
-0.038660 -0.023585 0.000000 
0.087250 0.037931 0.049605 
-0.070157 -0.022014 0.033569 
0.076170 -0.042300 0.056445 
-0.088403 -0.000000 0.040950 
0.029722 0.069717 0.034473 
-0.055566 0.014217 0.003000 
0.022466 -0.081257 0.026788 
-0.009675 -0.092104 0.043776 
-0.015513 -0.053551 0.003000 
-0.004347 0.062526 0.012635 
-0.105005 -0.007532 0.089810 
0.058348 0.033359 0.018243 
-0.009002 -0.056919 0.000000 
-0.069342 -0.064938 0.049504 
-0.079963 0.058519 0.073260 
0.016651 -0.068453 0.008127 
0.062088 -0.065996 0.039663 
-0.091382 -0.018407 0.044071 
-0.079820 0.003713 0.020216 
0.092302 0.005103 0.064826 
-0.020673 0.041033 0.002807 
-0.099676 0.022367 0.065262 
-0.039530 0.063512 0.012299 
-0.049734 -0.069424 0.056481 
0.031419 0.073608 0.042426 
0.002299 -0.086191 0.058454 
-0.032484 0.052234 0.000000 
0.032718 -0.047203 0.000000 
-0.027346 0.039796 0.003000 
0.030786 0.093354 0.072402 
-0.054114 -0.023098 0.000000 
0.020231 -0.017061 0.003000 
0.033566 0.105144 0.088469 
0.059806 0.043529 0.014587 
-0.101092 -0.002600 0.063663 
-0.043383 -0.039449 0.001942 
0.018919 0.099005 0.083265 
0.019736 0.026561 0.003000 
0.099712 -0.031875 0.073164 
0.065864 0.058191 0.033453 
-0.096326 -0.000000 0.064512 
0.074672 0.048895 0.036591 
-0.007245 -0.011209 0.003000 
0.024858 0.077404 0.037830 
0.002964 -0.075256 0.012988 
-0.010007 -0.109193 0.088281 
0.102871 -0.022195 0.091000 
-0.046347 0.037310 0.000000 
0.075963 0.062194 0.056386 
0.104788 0.013345 0.076795 
-0.066216 -0.072558 0.079850 
-0.034577 0.076015 0.049438 
-0.107684 0.003573 0.082565 
0.030860 -0.063911 0.026445 
0.014315 -0.080989 0.048384 
-0.018593 -0.094920 0.051943 
-0.030827 -0.073524 0.019609 
0.100494 0.007351 0.063213 
0.060176 0.005159 0.005196 
0.027541 0.093870 0.055027 
0.107100 -0.025795 0.088046 
0.027688 -0.086089 0.041894 
-0.022789 -0.024436 0.000000 
-0.049137 0.033408 0.003000 
-0.038792 0.077233 0.055956 
-0.060068 0.030166 0.019545 
0.079034 -0.009776 0.019207 
-0.099980 -0.012242 0.083220 
-0.064089 -0.046862 0.019020 
0.067128 -0.028958 0.009944 
-0.036597 0.092506 0.077452 
0.041503 -0.036852 0.003000 
-0.091702 -0.006416 0.042147 
-0.007572 0.053815 0.002065 
0.067483 0.059859 0.038643 
0.066867 0.085620 0.085260 
-0.071826 -0.000000 0.018428 
-0.034311 -0.034490 0.003000 
0.026029 0.074565 0.018850 
-0.024383 0.076055 0.029202 
0.059108 0.073227 0.047207 
-0.018093 -0.056207 0.000000 
0.075662 -0.068105 0.066572 
0.015023 0.040498 0.000000 
0.084117 -0.049609 0.075436 
-0.025893 -0.094083 0.073735 
-0.001344 0.016476 0.002534 
0.029791 -0.005988 0.003000 
-0.093237 0.010354 0.046437 
-0.044985 -0.063707 0.042265 
-0.063254 -0.084969 0.077172 
0.000372 -0.064869 0.017173 
-0.093049 0.050590 0.078477 
0.048695 0.061486 0.017543 
-0.033481 -0.038594 0.000000 
0.063083 0.011487 0.002567 
-0.016634 -0.108382 0.087660 
0.032770 0.074656 0.022355 
0.008171 -0.006893 0.003000 
0.044172 -0.073145 0.028554 
-0.085460 0.064320 0.088619 
-0.023366 0.071121 0.012924 
-0.056296 0.020824 0.007116 
0.074749 -0.027721 0.045336 
0.036618 0.064300 0.033795 
0.023137 -0.048170 0.000000 
-0.078967 -0.000000 0.023935 
0.042792 -0.100520 0.087199 
0.084370 -0.061059 0.073667 
0.019693 -0.100097 0.085380 
-0.033419 -0.051763 0.000000 
0.053168 -0.024714 0.003000 
-0.031186 -0.060591 0.021933 
-0.020285 0.063071 0.006581 
-0.079560 -0.052208 0.068510 
-0.029486 -0.014364 0.000000 
-0.004173 0.082762 0.051816 
-0.093186 0.038010 0.062974 
-0.069385 -0.071892 0.082373 
0.004548 0.074545 0.035906 
-0.022699 0.090179 0.044009 
0.058900 -0.024167 0.001884 
0.004079 0.108223 0.084189 
0.075168 -0.063623 0.057187 
-0.070034 -0.017074 0.009727 
-0.041562 -0.090339 0.079811 
-0.023889 -0.081929 0.028496 
0.009240 0.030495 0.000000 
-0.051535 -0.059683 0.043357 
-0.076300 0.039414 0.055004 
-0.081547 0.036936 0.063309 
0.082664 -0.060311 0.066889 
-0.022293 -0.069163 0.010100 
0.042142 -0.013265 0.000000 
-0.089639 -0.028005 0.046561 
-0.022054 -0.006142 0.000000 
-0.100025 0.024607 0.067863 
-0.075923 -0.065750 0.062703 
-0.002439 -0.096498 0.078411 
-0.037402 -0.045615 0.000000 
-0.037513 -0.052796 0.002764 
0.000228 0.071937 0.030857 
-0.020530 -0.100754 0.086651 
-0.024591 -0.102836 0.075471 
-0.013200 -0.067216 0.006364 
-0.035577 0.042848 0.003000 
-0.007551 0.013051 0.002426 
-0.047412 0.006460 0.000000 
-0.036080 -0.099200 0.076080 
0.097057 0.030609 0.065371 
0.023520 -0.073170 0.027733 
0.012223 -0.085553 0.057219 
-0.015265 -0.023931 0.003000 
-0.001349 -0.042441 0.000000 
-0.063565 -0.082102 0.071700 
-0.038587 -0.001794 0.003000 
0.042284 0.057532 0.008424 
0.072855 -0.016301 0.012631 
0.018609 -0.018747 0.000000 
0.023593 -0.095501 0.055682 
0.006728 0.029481 0.000000 
0.101612 -0.012162 0.086195 
0.077848 -0.051258 0.064770 
0.031881 -0.096786 0.078968 
0.065527 -0.074038 0.058327 
-0.041917 -0.056163 0.026989 
-0.009808 0.080272 0.046995 
0.101081 0.013550 0.066500 
0.073648 0.071205 0.086088 
-0.076371 0.024661 0.046574 
0.060871 -0.051652 0.040790 
-0.097624 -0.018402 0.058082 
-0.030790 0.077612 0.025621 
-0.029960 -0.088950 0.064631 
0.094342 0.055590 0.091000 
-0.071755 0.004477 0.026287 
-0.086681 -0.059696 0.086059 
-0.091769 0.049857 0.074478 
0.041812 0.010309 0.000000 
0.024103 0.055570 0.006134 
-0.038592 0.038809 0.003000 
-0.054343 0.090411 0.076474 
0.099703 -0.000000 0.074005 
0.077679 0.056394 0.057748 
0.095400 -0.039538 0.070295 
0.076454 -0.072015 0.075938 
-0.020519 0.055852 0.002525 
0.085885 0.006048 0.029817 
-0.075643 0.022824 0.019183 
-0.066181 -0.029092 0.009298 
0.022262 0.101961 0.071445 
-0.083194 0.060536 0.076856 
0.050310 -0.089584 0.069131 
-0.029672 0.003089 0.003000 
0.014071 -0.053210 0.003000 
-0.027209 -0.016893 0.002702 
0.080552 -0.056742 0.072974 
-0.083879 0.042296 0.047188 
-0.041734 0.094260 0.086040 
-0.071606 -0.035734 0.044210 
-0.019166 0.084094 0.029297 
0.031971 0.014741 0.000000 
-0.001072 -0.033882 0.000000 
0.009174 0.107015 0.082001 
0.026811 -0.035121 0.000000 
-0.028633 0.089124 0.047465 
0.065661 -0.047422 0.036310 
-0.072306 -0.066459 0.056628 
-0.102608 0.040037 0.089341 
-0.092581 -0.024548 0.050278 
-0.097090 -0.036619 0.091000 
-0.035737 0.065274 0.011756 
0.082130 0.053829 0.056637 
-0.057779 0.071831 0.068999 
-0.054025 -0.015628 0.000000 
-0.065148 0.000399 0.002886 
-0.022026 -0.056808 0.000000 
-0.023581 0.054848 0.004307 
-0.049844 0.030131 0.000582 
0.048754 -0.079785 0.046458 
0.041193 0.076222 0.030636 
0.040958 0.050273 0.016514 
-0.082551 0.048955 0.072149 
0.008036 -0.084883 0.055922 
0.070348 -0.065960 0.074041 
0.070959 -0.045949 0.048915 
-0.096007 -0.009664 0.074358 
0.046474 0.056089 0.009767 
-0.048090 0.084958 0.078635 
-0.024528 0.053958 0.003000 
0.024265 0.100303 0.068786 
0.037439 0.044168 0.000000 
-0.065898 0.064128 0.042747 
-0.064869 -0.084693 0.091000 
-0.017807 0.065789 0.006152 
0.008872 0.105770 0.078452 
-0.057220 -0.072724 0.043594 
-0.056961 0.095293 0.090857 
-0.065048 0.026762 0.007533 
0.020359 0.063319 0.011069 
-0.063909 0.068073 0.045854 
-0.032684 -0.018854 0.003000 
0.051315 0.047428 0.023546 
-0.070717 -0.041701 0.046020 
0.086275 -0.044564 0.054669 
0.030576 0.104160 0.083796 
-0.003825 -0.103793 0.071665 
0.065428 0.062315 0.039122 
0.105846 -0.030471 0.088100 
0.030794 0.074382 0.020857 
0.049888 -0.070263 0.029443 
0.094148 0.047586 0.091000 
-0.071889 -0.052605 0.035514 
0.018775 0.082895 0.052073 
0.110645 -0.000834 0.090201 
0.089411 -0.053875 0.087744 
-0.070863 -0.079748 0.080362 
-0.009047 0.105858 0.078633 
-0.037109 0.058842 0.025359 
-0.086924 -0.067170 0.088581 
0.051933 0.086956 0.065505 
0.034903 0.084704 0.063580 
-0.030120 -0.093590 0.057634 
-0.100229 -0.019092 0.065530 
-0.028336 -0.054888 0.002343 
0.030236 -0.003128 0.003000 
0.095351 0.004426 0.049846 
0.010136 0.065632 0.018650 
0.055827 0.086466 0.089804 
-0.080130 -0.058280 0.067200 
0.069887 0.008433 0.007767 
0.045491 -0.008327 0.000000 
0.054372 0.052881 0.013518 
-0.007891 0.087263 0.032842 
0.098862 -0.005157 0.058069 
-0.067370 0.073309 0.060358 
-0.030023 0.093637 0.065041 
-0.025694 0.080221 0.036108 
0.067139 0.079936 0.091000 
-0.082427 -0.000000 0.029831 
-0.049145 0.070795 0.029531 
0.046587 -0.065146 0.019991 
-0.024229 0.007716 0.000000 
-0.101334 0.028302 0.074258 
0.084717 0.000061 0.047796 
-0.024825 -0.023804 0.002762 
-0.073810 -0.081380 0.089380 
0.050838 -0.088019 0.066226 
0.096969 -0.007512 0.054342 
-0.019727 0.064815 0.017067 
-0.052872 -0.014902 0.003000 
-0.002286 0.063970 0.002155 
-0.067100 0.062067 0.064233 
0.084299 -0.045817 0.052160 
-0.015366 0.003926 0.000000 
-0.049461 0.025391 0.000000 
0.005389 -0.097653 0.055321 
-0.072634 0.052711 0.054536 
0.080776 0.025580 0.027693 
-0.053123 -0.062965 0.023751 
0.057427 0.058852 0.048615 
0.081035 -0.000000 0.035140 
-0.036887 0.042998 0.000000 
0.032651 -0.063981 0.028513 
-0.071958 -0.009373 0.029536 
0.075462 0.012904 0.038104 
-0.058193 0.042318 0.012724 
-0.019267 -0.059776 0.002161 
-0.020246 -0.099852 0.064770 
0.035280 -0.007989 0.000000 
-0.071139 0.017042 0.010692 
-0.084829 0.031386 0.039202 
-0.013123 -0.028886 0.003000 
-0.073888 -0.019569 0.039071 
0.027045 -0.075088 0.039745 
0.102841 -0.018485 0.072663 
0.087077 0.030357 0.069789 
0.035377 0.053418 0.001958 
-0.097400 -0.000000 0.057161 
0.034652 0.053573 0.014735 
-0.062063 -0.044505 0.031594 
0.036957 -0.056996 0.022306 
-0.010913 0.039451 0.000000 
-0.082816 -0.058734 0.078332 
-0.066440 -0.003045 0.015595 
0.037313 -0.009609 0.003000 
0.086649 0.063694 0.089001 
0.090059 -0.000000 0.048151 
-0.009193 0.045441 0.002142 
-0.028963 0.089101 0.046121 
-0.080922 -0.058890 0.073687 
0.012188 -0.103855 0.073896 
0.097740 0.045669 0.083873 
0.109502 0.001656 0.087147 
0.079361 -0.022581 0.024140 
0.080444 -0.051575 0.050925 
-0.054188 -0.049017 0.009913 
-0.058483 -0.086961 0.091000 
0.045978 0.069181 0.024902 
0.048279 -0.073995 0.034506 
-0.025150 -0.007237 0.002614 
-0.006590 0.081980 0.050301 
0.071010 0.080105 0.081394 
-0.015713 0.042693 0.002159 
-0.059143 0.029433 0.017404 
-0.023054 -0.103095 0.075037 
0.058789 -0.015224 0.003000 
0.074083 0.081329 0.091000 
-0.049133 0.039344 0.008115 
0.021685 0.096588 0.056619 
-0.037379 0.094710 0.066576 
-0.049752 -0.036032 0.001272 
0.034427 0.090497 0.072048 
0.064291 0.021286 0.022250 
-0.085377 -0.066288 0.083661 
0.019870 -0.061674 0.009890 
0.048070 -0.043789 0.013896 
-0.001835 0.100718 0.062301 
0.030407 -0.082864 0.034491 
-0.007686 0.042607 0.000000 
-0.056055 0.033151 0.013848 
0.034672 -0.103437 0.085264 
0.073662 0.011819 0.034129 
0.056791 -0.078307 0.078057 
0.028422 0.088986 0.049039 
0.065575 0.016120 0.005436 
-0.041090 -0.088606 0.055455 
-0.014475 0.088255 0.036382 
0.000541 -0.093608 0.045915 
-0.086415 0.042416 0.052458 
0.028809 0.094318 0.074191 
-0.108011 0.011902 0.091000 
-0.043892 -0.052503 0.023353 
0.075608 0.061354 0.054560 
0.072364 0.042739 0.026332 
0.064663 -0.016238 0.004641 
0.100982 -0.025350 0.071580 
-0.025438 0.037943 0.003000 
-0.063588 -0.054325 0.025732 
-0.060347 -0.089556 0.083464 
-0.027894 0.034333 0.000000 
0.062705 -0.050924 0.021260 
-0.021193 -0.094029 0.050964 
0.034625 -0.092968 0.059046 
0.084068 0.051730 0.058430 
-0.049659 -0.068458 0.054894 
-0.020293 -0.014802 0.002680 
0.007785 0.059026 0.002015 
0.039757 0.019027 0.000000 
-0.057569 -0.000650 0.000000 
-0.106105 0.029228 0.087758 
-0.046901 -0.073759 0.032248 
0.024960 0.077595 0.035464 
0.003065 0.029639 0.002271 
0.033995 0.088514 0.049047 
-0.017752 0.079727 0.045940 
0.018949 -0.058902 0.001571 
0.031260 0.074710 0.043959 
0.069740 -0.068399 0.077184 
-0.080899 -0.029565 0.057871 
-0.021393 -0.074982 0.017694 
0.088847 0.038539 0.077813 
-0.072308 -0.039314 0.023846 
-0.016901 -0.096239 0.077909 
0.043235 -0.022533 0.003000 
0.077477 -0.039385 0.057171 
0.102029 0.002193 0.081190 
0.063063 0.088305 0.091000 
-0.075752 -0.021193 0.018746 
0.075955 -0.055309 0.061319 
0.050743 -0.057140 0.037918 
-0.055895 0.068532 0.061675 
0.043086 0.043914 0.000034 
0.023631 -0.076345 0.039391 
-0.054104 -0.007566 0.000000 
-0.043740 0.054448 0.025746 
0.063843 0.046485 0.035946 
0.078716 -0.000000 0.028969 
-0.061845 -0.067777 0.067513 
-0.057915 -0.082290 0.085656 
0.005179 -0.104977 0.075375 
0.074004 -0.001357 0.011006 
-0.061387 -0.071632 0.072990 
-0.062508 -0.078898 0.085540 
0.075740 0.011096 0.014598 
-0.059906 0.068888 0.041104 
0.025287 0.078224 0.028180 
0.069650 -0.067805 0.076148 
-0.006789 -0.102095 0.067692 
0.060352 -0.091726 0.087817 
0.000269 0.101555 0.064316 
-0.053334 0.028386 0.006031 
-0.087600 -0.034217 0.072995 
0.097450 0.039459 0.091000 
-0.014700 -0.021075 0.000000 
-0.023864 -0.074386 0.024784 
-0.009900 0.069412 0.025967 
-0.012195 0.002100 0.000000 
0.053149 -0.021002 0.003000 
0.000949 -0.011647 0.000000 
-0.066356 -0.056563 0.054939 
0.055369 0.066720 0.058602 
-0.068601 0.032437 0.013734 
-0.080070 -0.010367 0.045181 
-0.085302 -0.000000 0.030960 
-0.023052 -0.071360 0.024585 
0.091648 -0.038207 0.059328 
-0.086582 0.060663 0.076586 
-0.077333 0.005830 0.037430 
0.071253 -0.029462 0.039858 
0.036445 0.069226 0.017716 
0.018583 -0.055066 0.003000 
0.059713 -0.063981 0.058855 
0.058377 -0.028279 0.015313 
-0.019442 0.059759 0.000829 
0.064184 -0.041502 0.033772 
-0.091326 -0.014750 0.043061 
-0.075024 -0.068413 0.065874 
0.026592 0.081350 0.028902 
0.012204 -0.086647 0.032195 
-0.061751 -0.076134 0.056015 
0.030172 0.094370 0.058525 
-0.004590 -0.006701 0.003000 
-0.039464 0.072551 0.024277 
-0.013371 -0.002642 0.000000 
-0.009631 0.026379 0.002315 
0.035109 -0.077906 0.052979 
0.032226 -0.092528 0.072685 
0.089554 -0.006737 0.037997 
-0.047740 -0.082284 0.050082 
-0.061270 -0.019394 0.015535 
-0.009231 0.072634 0.032206 
-0.050295 -0.033662 0.003481 
0.090227 -0.051260 0.072437 
-0.017733 -0.102154 0.070557 
-0.065667 0.077855 0.087424 
-0.053418 0.022419 0.003000 
0.002979 -0.092889 0.044928 
0.082667 0.070676 0.086172 
-0.017423 0.090182 0.041285 
0.058269 -0.042349 0.013265 
-0.051700 0.088095 0.087664 
-0.039389 -0.046666 0.009002 
0.086213 0.063359 0.079986 
-0.058710 -0.042800 0.022460 
-0.051535 0.022404 0.003000 
0.035034 -0.021234 0.003000 
0.061258 0.078971 0.084252 
-0.009372 -0.010210 0.003000 
-0.053060 -0.013193 0.000000 
0.021403 0.086234 0.058538 
0.066992 -0.079734 0.073152 
0.001441 0.094833 0.048644 
-0.027189 -0.084872 0.045768 
0.071439 -0.000000 0.021973 
0.006911 0.084258 0.027242 
-0.025366 0.077714 0.038619 
0.092557 -0.050485 0.077156 
0.048859 0.048450 0.006300 
0.058274 -0.042541 0.018359 
0.052154 -0.045094 0.006403 
-0.096847 0.026916 0.085909 
0.044191 -0.081253 0.068384 
0.063453 -0.031452 0.026566 
0.046788 -0.061329 0.040013 
-0.035825 0.050140 0.000343 
0.068876 -0.000000 0.007872 
-0.044325 -0.056873 0.009096 
-0.086809 -0.061238 0.077789 
-0.076924 -0.032416 0.025506 
0.091329 -0.058719 0.091000 
0.078487 0.032846 0.055299 
-0.094585 -0.000000 0.048198 
-0.030393 -0.050489 0.005052 
0.011332 -0.084238 0.054673 
0.055103 0.043579 0.021634 
0.003610 -0.106055 0.078013 
-0.029079 0.088561 0.061465 
0.082121 -0.023061 0.028302 
0.057362 -0.072710 0.043858 
-0.014396 0.036816 0.002215 
-0.057217 -0.054293 0.018277 
-0.056882 -0.076026 0.048676 
0.009443 -0.071081 0.029200 
-0.058756 -0.004977 0.000000 
-0.012714 0.045692 0.002134 
0.053972 -0.087972 0.070094 
-0.017472 -0.095193 0.075884 
-0.013840 -0.080830 0.048074 
0.080524 0.005925 0.021330 
-0.031886 -0.072314 0.018410 
-0.008291 0.104481 0.074586 
0.058809 0.004791 0.000000 
-0.028162 -0.087033 0.041257 
0.002090 0.106277 0.091000 
0.082446 -0.039505 0.066469 
0.036373 0.077924 0.054693 
-0.044695 0.096398 0.079225 
-0.055908 -0.025485 0.009133 
-0.061751 0.060962 0.056424 
-0.102240 0.010882 0.069057 
0.080737 0.033683 0.032606 
-0.018611 -0.057891 0.002594 
0.101587 -0.012004 0.067520 
0.048519 0.037851 0.000708 
0.088254 -0.058584 0.077970 
0.022521 -0.023899 0.003000 
0.025801 -0.012731 0.003000 
0.025319 0.055882 0.007990 
-0.008043 -0.074729 0.036262 
-0.027791 0.085572 0.039017 
0.067863 0.030798 0.011420 
0.010281 -0.028064 0.003000 
-0.088997 -0.062573 0.084924 
0.021837 -0.073958 0.016087 
0.043970 -0.026701 0.000000 
0.029258 0.045941 0.000000 
-0.083150 -0.057648 0.078322 
-0.022879 -0.045965 0.003000 
0.096853 -0.017515 0.055965 
-0.026300 0.067444 0.009679 
-0.076459 0.019427 0.043698 
-0.028178 0.080797 0.049911 
-0.100000 0.000218 0.076270 
-0.108990 0.017491 0.089573 
0.006344 -0.043971 0.003000 
-0.006053 0.098716 0.057895 
-0.070064 -0.038813 0.043134 
-0.053600 0.080764 0.078298 
0.009507 0.073121 0.033149 
-0.079308 -0.012881 0.045232 
-0.054589 -0.079553 0.052257 
-0.022679 0.086150 0.035627 
-0.003932 0.094939 0.049383 
0.084753 0.066655 0.083031 
-0.064824 0.024994 0.025345 
0.034417 -0.087209 0.046722 
0.078629 -0.011455 0.043101 
0.027734 -0.087491 0.060972 
-0.040998 0.075532 0.029363 
0.065187 0.047409 0.025597 
0.048609 -0.085214 0.056994 
0.080854 -0.042087 0.041210 
-0.063086 -0.041471 0.013227 
-0.086822 -0.014028 0.033022 
0.019301 0.014695 0.000000 
0.002359 0.074013 0.034877 
-0.000401 0.045409 0.002141 
-0.060073 -0.038167 0.024228 
0.073696 -0.079503 0.085399 
-0.016454 -0.101926 0.088920 
0.064475 0.066885 0.044866 
0.017984 -0.082159 0.026069 
0.029307 -0.059870 0.018426 
-0.036130 0.017212 0.003000 
-0.010171 0.099058 0.083367 
0.065708 -0.081634 0.074785 
0.061529 -0.040765 0.028423 
0.032154 0.040862 0.003000 
0.095194 -0.049562 0.082438 
0.087355 -0.017893 0.035130 
-0.022654 0.101945 0.071624 
0.075981 -0.055440 0.063899 
-0.081250 0.007455 0.022480 
0.022626 -0.065244 0.019518 
-0.032419 -0.092962 0.056857 
0.009977 -0.108293 0.085759 
0.069558 -0.050722 0.044035 
-0.030516 0.095318 0.065602 
0.065188 -0.076332 0.084487 
0.032829 -0.009474 0.000000 
-0.076158 -0.073049 0.077415 
-0.030626 0.025742 0.003000 
0.088143 -0.051924 0.068404 
-0.008462 -0.035233 0.000000 
0.007378 0.036213 0.000000 
0.037475 0.100743 0.081953 
0.083125 0.029504 0.034329 
0.087549 -0.019122 0.036070 
-0.041642 0.049359 0.015492 
-0.069526 0.074118 0.066288 
0.106843 0.005164 0.080440 
0.081018 0.032008 0.059507 
-0.023170 -0.071272 0.018427 
0.053093 -0.058787 0.018719 
-0.079299 -0.042643 0.062482 
-0.087592 -0.056980 0.073043 
0.051612 -0.034813 0.000444 
0.074586 0.046647 0.056061 
-0.015123 -0.017305 0.003000 
-0.081240 0.055494 0.056693 
0.077910 0.056513 0.054510 
-0.047795 0.057641 0.035358 
-0.011496 0.084540 0.028315 
0.055556 0.017175 0.003000 
-0.067481 0.029123 0.032673 
0.068605 -0.000465 0.018108 
0.065776 -0.011469 0.019239 
0.046511 -0.069607 0.025880 
0.076854 0.034317 0.053122 
0.020258 -0.063130 0.010155 
0.027705 -0.030079 0.000000 
-0.058730 0.019544 0.000002 
0.071000 -0.003703 0.024435 
-0.085428 0.005161 0.052075 
0.056813 0.019777 0.007483 
0.083497 0.017146 0.027604 
0.053930 -0.092455 0.080277 
0.053288 -0.025814 0.004449 
0.025151 0.077530 0.030875 
0.061059 0.046060 0.014331 
-0.028843 0.023271 0.000000 
0.045023 -0.084753 0.052026 
0.030796 0.044173 0.003000 
-0.023252 0.071444 0.028355 
0.015778 0.038349 0.000000 
0.066557 0.074763 0.061765 
-0.065155 -0.013057 0.019052 
0.003944 -0.082945 0.052171 
0.040788 -0.095138 0.086347 
-0.025499 0.002365 0.002601 
0.005422 0.052872 0.002070 
-0.053104 0.090470 0.074810 
0.046353 -0.049020 0.020169 
-0.054941 0.052044 0.034672 
-0.031783 -0.070698 0.038312 
0.030941 -0.075346 0.022362 
-0.017923 0.095035 0.075579 
0.019602 -0.087978 0.037294 
0.010357 -0.073132 0.033171 
0.028721 -0.067422 0.010227 
0.083068 -0.018314 0.027438 
0.087435 -0.058159 0.086561 
0.023438 0.095033 0.075574 
0.012056 -0.040608 0.000000 
-0.012502 0.090159 0.066138 
-0.000038 -0.035454 0.003000 
-0.037915 0.060410 0.028693 
0.031041 0.096639 0.072270 
0.070306 -0.026391 0.036316 
0.049120 -0.069506 0.055514 
-0.051539 0.025931 0.000000 
0.094513 -0.049535 0.091000 
-0.008602 0.012447 0.002433 
-0.020861 -0.052466 0.003000 
-0.040427 -0.062103 0.011083 
-0.033773 0.104489 0.087029 
-0.034129 -0.061948 0.027346 
-0.059711 -0.014732 0.000363 
0.079666 0.029811 0.055726 
0.063081 -0.071377 0.074306 
0.085432 -0.000000 0.030349 
0.063526 0.020018 0.004382 
0.035514 0.076779 0.027334 
0.010812 0.012333 0.003000 
-0.100820 0.011991 0.065375 
-0.063298 -0.074104 0.078977 
-0.022312 0.097677 0.080693 
-0.051759 0.026084 0.001772 
-0.019432 -0.066094 0.019544 
0.004665 -0.091504 0.068742 
-0.035623 0.050336 0.010432 
0.078326 0.056833 0.056914 
0.027399 0.100529 0.072114 
0.042697 -0.078685 0.062650 
-0.018908 0.018292 0.000000 
0.069848 0.041898 0.022387 
0.021410 -0.101537 0.088166 
0.009662 0.096763 0.054218 
-0.002049 -0.045405 0.003000 
-0.051986 -0.021327 0.003000 
-0.018959 0.026111 0.002310 
0.019224 -0.059730 0.002639 
-0.076800 -0.066075 0.081654 
0.071641 0.017267 0.011303 
-0.056627 0.032100 0.014296 
-0.059716 0.066816 0.063316 
-0.035386 -0.046337 0.004002 
0.045798 -0.012078 0.000000 
0.022365 -0.087736 0.038705 
-0.104084 0.028644 0.081850 
-0.024568 -0.075607 0.026517 
0.084017 0.069130 0.086120 
0.025268 0.087364 0.039942 
0.026919 -0.061514 0.018383 
0.027404 -0.084371 0.050434 
0.094705 -0.030899 0.084242 
0.010928 -0.101674 0.067489 
0.049891 -0.074189 0.063751 
0.019407 0.080117 0.046695 
0.065995 -0.048196 0.026119 
0.057624 -0.031254 0.003088 
0.099286 -0.021553 0.087325 
0.072437 -0.052706 0.039364 
-0.084586 0.064547 0.078748 
0.095069 -0.000000 0.061528 
-0.040858 0.040842 0.000000 
0.097180 -0.047510 0.084769 
-0.002732 0.097844 0.055165 
-0.030803 0.092600 0.071239 
0.084944 -0.000000 0.044871 
-0.021419 0.066462 0.011436 
0.040305 -0.020062 0.000000 
0.106582 -0.002856 0.090024 
0.065368 0.080553 0.091000 
0.052161 0.033299 0.001775 
0.019945 0.056099 0.002332 
-0.022707 -0.070637 0.022097 
-0.053967 -0.023323 0.000000 
-0.066981 -0.081748 0.077301 
0.104220 0.011645 0.090739 
0.013118 0.098118 0.081547 
-0.049923 -0.003963 0.003000 
0.047139 -0.067608 0.023760 
-0.048616 -0.078616 0.069510 
-0.002398 0.099220 0.058283 
0.060136 -0.080945 0.086002 
0.029583 0.091231 0.055980 
-0.056717 -0.017099 0.003000 
-0.015371 0.001743 0.002533 
-0.044961 -0.087944 0.079904 
-0.020051 -0.103175 0.091000 
0.086885 0.062594 0.088116 
0.051768 -0.014393 0.003000 
-0.041021 0.070979 0.023228 
0.034955 -0.029581 0.000000 
0.103184 0.002661 0.069484 
-0.064546 -0.000000 0.004532 
0.100020 -0.002569 0.077671 
0.035867 -0.001583 0.000000 
0.076191 0.032402 0.024416 
-0.020607 -0.058197 0.000557 
0.066185 0.077735 0.087861 
0.095438 -0.048472 0.081707 
0.012753 0.042228 0.000000 
0.008221 0.083702 0.026361 
-0.011891 0.086832 0.032570 
-0.011060 0.093088 0.071809 
-0.040051 0.073231 0.025599 
-0.009494 0.068374 0.023959 
-0.033634 -0.103610 0.088778 
0.036287 0.053583 0.016577 
-0.045889 0.036482 0.000000 
0.039870 -0.034372 0.003000 
0.028777 0.088474 0.049008 
0.105208 -0.005436 0.076079 
-0.074044 -0.026327 0.043278 
-0.051193 -0.018176 0.003000 
-0.005306 -0.057815 0.000000 
0.063728 0.046408 0.022002 
-0.011057 0.098873 0.083010 
0.038076 -0.048339 0.001451 
-0.024115 -0.073681 0.018976 
0.026409 0.069297 0.011392 
0.077618 0.052793 0.065248 
-0.063788 -0.071413 0.075344 
-0.031369 -0.049288 0.000000 
0.005680 0.093543 0.072690 
-0.039223 0.063406 0.034809 
0.052552 0.037291 0.009770 
0.003776 -0.061235 0.000000 
-0.025812 0.079030 0.027624 
0.019221 0.069567 0.026267 
0.064320 -0.071232 0.051537 
-0.069895 -0.080916 0.081011 
0.022076 -0.067983 0.011416 
-0.009497 -0.070748 0.028555 
0.015507 -0.058528 0.003000 
0.017336 -0.058146 0.004155 
-0.078400 0.030382 0.053661 
0.056402 0.014957 0.000000 
-0.062328 0.082483 0.070220 
0.065032 -0.086099 0.082884 
-0.031337 0.096088 0.063632 
-0.067897 -0.077926 0.090078 
0.053336 0.089831 0.074174 
-0.023281 -0.105647 0.082121 
0.027385 0.083366 0.033779 
-0.003492 0.099426 0.059160 
-0.059458 0.088815 0.080409 
0.030508 -0.050984 0.000000 
-0.023030 -0.096294 0.078016 
-0.010800 0.042416 0.002168 
-0.001354 0.093971 0.073519 
0.074844 0.016808 0.015677 
-0.102226 0.041090 0.089588 
-0.103828 -0.025437 0.078785 
0.064653 0.050872 0.043951 
-0.072313 -0.028059 0.041071 
-0.066768 0.079737 0.072659 
-0.004108 0.078701 0.018443 
-0.018470 0.066980 0.021260 
0.065046 -0.055746 0.051965 
-0.063826 0.046480 0.035665 
0.001387 -0.074267 0.035369 
-0.063336 -0.028772 0.024836 
-0.052073 0.068602 0.029427 
0.094879 -0.001980 0.048852 
-0.064181 0.006792 0.013564 
0.097768 -0.031576 0.067996 
0.045763 0.044907 0.002243 
0.007064 -0.095460 0.051115 
0.068808 -0.073467 0.084093 
-0.079333 0.026447 0.025916 
-0.018873 0.059021 0.001996 
-0.028939 0.090527 0.051046 
-0.024324 0.038571 0.000000 
0.086136 -0.000000 0.033947 
-0.079629 0.046575 0.043396 
0.079973 -0.057981 0.058063 
-0.081758 0.028681 0.030800 
0.086795 0.062002 0.079077 
-0.043922 -0.075402 0.059247 
-0.081610 0.035450 0.062564 
-0.014370 0.085654 0.030559 
0.018007 0.080798 0.048013 
0.015118 0.087589 0.034966 
-0.014128 0.077940 0.042479 
-0.089997 -0.044882 0.083622 
-0.009503 -0.004835 0.000000 
-0.079679 0.005045 0.041331 
0.105830 0.021780 0.091000 
-0.011238 -0.096444 0.053825 
-0.083641 0.059985 0.080585 
-0.059272 -0.035662 0.021291 
-0.092931 -0.043183 0.088081 
0.006396 0.060252 0.008233 
0.065269 -0.048314 0.040536 
-0.009894 0.074726 0.036257 
-0.011541 0.007288 0.000000 
-0.070476 -0.040524 0.044890 
-0.034865 -0.082890 0.038052 
-0.026814 -0.036638 0.003000 
0.087523 -0.006295 0.056625 
0.020480 0.098992 0.062429 
0.100198 -0.031922 0.074459 
0.072534 -0.068682 0.061432 
-0.051603 -0.023668 0.000077 
-0.081984 -0.057599 0.061022 
-0.022371 -0.022861 0.000000 
0.030115 -0.093325 0.063087 
0.053273 0.027910 0.005655 
0.023195 -0.013940 0.003000 
0.048212 -0.080529 0.071811 
0.062828 -0.011179 0.013601 
-0.053290 0.096160 0.088431 
0.010607 -0.012887 0.003000 
-0.105962 0.018907 0.081481 
-0.032811 -0.047059 0.002277 
-0.078954 -0.003927 0.018844 
-0.057006 -0.014494 0.000000 
-0.029775 0.033744 0.003000 
0.044189 0.099838 0.087111 
-0.014007 0.094945 0.075404 
0.067555 -0.003380 0.005092 
-0.026957 0.004266 0.000000 
0.105635 -0.001818 0.087663 
0.020067 -0.062353 0.006933 
-0.053908 0.088206 0.090346 
0.026582 0.081659 0.031890 
0.042865 -0.081658 0.043331 
0.004283 -0.059195 0.006187 
-0.050536 -0.057966 0.015103 
0.024611 -0.076521 0.033096 
-0.103428 0.024563 0.091000 
-0.035749 -0.063160 0.031050 
0.025574 0.060182 0.015000 
0.023290 -0.072323 0.024988 
0.030365 0.040182 0.000000 
-0.049997 0.055997 0.035274 
-0.002342 0.104408 0.072877 
-0.066093 0.047764 0.035111 
0.016679 -0.055399 0.003000 
-0.048913 0.045364 0.017328 
0.063315 -0.010172 0.013919 
0.001621 0.037476 0.000000 
-0.032951 0.067954 0.035055 
0.004940 -0.086894 0.059817 
0.081771 -0.054947 0.074187 
0.084754 0.012655 0.055216 
-0.076765 0.053674 0.064171 
-0.047184 0.049774 0.022297 
0.082133 0.013929 0.024792 
0.079068 0.016354 0.046815 
0.008850 -0.030789 0.000000 
-0.109183 -0.010330 0.088329 
-0.030173 -0.093730 0.065365 
0.042149 -0.052614 0.005107 
-0.087550 0.063339 0.086590 
-0.059287 -0.087941 0.078191 
0.071699 0.025960 0.038717 
0.032016 -0.099682 0.078091 
-0.088973 0.013919 0.037706 
0.094011 -0.010522 0.048198 
-0.064617 -0.047109 0.034478 
0.084395 -0.029779 0.037174 
0.110411 -0.002326 0.089896 
0.020468 0.055542 0.002026 
0.077064 -0.000000 0.030091 
-0.012025 -0.056509 0.000000 
0.055545 0.011646 0.000000 
0.021510 0.079001 0.023446 
-0.003183 0.061431 0.000000 
-0.080558 -0.026822 0.027842 
-0.037982 -0.093006 0.062496 
-0.022170 -0.063940 0.017020 
0.065595 -0.035243 0.032741 
0.049198 -0.022832 0.000000 
0.014409 -0.072461 0.011451 
-0.035242 -0.069857 0.040888 
0.060236 -0.083575 0.090250 
-0.077549 0.028899 0.024482 
-0.100151 -0.000000 0.072006 
0.058283 -0.023347 0.012267 
-0.080674 -0.061986 0.079597 
0.059831 0.070681 0.069766 
-0.031564 -0.097995 0.072987 
0.007819 0.092168 0.043878 
0.068233 -0.031426 0.035406 
0.037943 0.045155 0.004973 
0.007568 -0.077131 0.015958 
0.082341 0.011210 0.049891 
0.069328 -0.050991 0.049352 
-0.083098 -0.023154 0.058233 
0.034194 0.031416 0.003000 
0.011643 0.055125 0.000000 
0.080555 0.057525 0.073438 
-0.069757 -0.050830 0.034328 
0.030707 0.093714 0.070689 
-0.052667 0.096817 0.089326 
-0.082557 0.062126 0.081873 
0.044711 -0.044172 0.010741 
-0.078656 0.020730 0.022625 
-0.079339 -0.013698 0.020553 
-0.029951 0.106892 0.090423 
-0.065289 -0.080142 0.090595 
0.061454 0.027722 0.005120 
-0.077940 0.009105 0.017581 
0.011791 -0.073180 0.033264 
-0.086430 0.061270 0.086501 
-0.061016 0.078870 0.083740 
-0.038666 -0.067682 0.041350 
0.037343 -0.049397 0.010847 
-0.084282 0.060918 0.078629 
-0.030326 0.066085 0.029260 
-0.050691 0.070888 0.059470 
-0.083943 0.002885 0.026744 
0.053066 0.079404 0.050514 
-0.037587 0.040658 0.003000 
0.051150 0.062195 0.046834 
0.062087 -0.075760 0.080066 
0.074385 -0.057229 0.046409 
-0.029212 0.089829 0.047811 
-0.083891 0.038991 0.068855 
