
# .PCD v.6 - Point Cloud Data file format
FIELDS x y z 
SIZE 4 4 4 
TYPE F F F 
COUNT 1 1 1 
WIDTH 1649
HEIGHT 1
VIEWPOINT 0.000000 0.000000 0.000000 1.000000 0.000000 0.000000 0.00000
POINTS 1649
DATA ascii
0.071169 0.032836 0.045042 
-0.020680 -0.003073 0.003000 
-0.008405 0.039618 0.000000 
0.038874 0.042796 0.003780 
0.045784 0.023089 0.004770 
0.065880 -0.000000 0.027712 
0.027358 0.039066 0.002123 
0.033592 0.038953 -0.000000 
-0.002790 -0.073645 0.032750 
-0.029319 0.054516 0.024523 
-0.071783 0.008400 0.044883 
0.030592 0.019149 0.000000 
-0.021879 -0.052891 0.013447 
0.041723 -0.040816 0.004360 
0.059286 0.023264 0.011747 
0.011925 0.067405 0.021134 
0.022634 0.042102 0.000000 
-0.025632 0.057761 0.011246 
-0.026375 -0.034326 0.000000 
-0.068721 -0.033056 0.039539 
0.052495 -0.001678 0.003858 
0.052779 -0.032857 0.009690 
0.074434 -0.003152 0.034892 
0.040099 0.066149 0.050000 
0.056841 0.009747 0.017480 
-0.066632 -0.011521 0.019505 
-0.010142 -0.071718 0.029087 
0.063567 -0.039815 0.047471 
0.065181 0.013990 0.017353 
0.059671 0.046863 0.038118 
-0.053412 -0.033510 0.025085 
0.037789 -0.065349 0.036100 
0.055319 0.032478 0.012778 
-0.045198 -0.033049 0.009073 
-0.054391 -0.039717 0.028072 
0.057597 -0.047878 0.035053 
0.044569 0.049582 0.034305 
-0.025528 0.022990 0.002183 
0.035517 0.068359 0.042112 
-0.058033 -0.021845 0.009062 
0.064221 0.027071 0.023078 
0.006938 0.057061 0.016121 
0.043131 -0.031861 0.005318 
0.048243 -0.029033 0.002664 
-0.036761 0.034733 0.002310 
0.005761 -0.074317 0.034574 
-0.014274 0.024180 0.000000 
0.044341 -0.029765 0.001253 
-0.015100 -0.071277 0.029611 
0.010576 0.007594 0.002535 
-0.020013 0.018771 0.000000 
0.020242 0.071347 0.044694 
0.038300 -0.063930 0.033568 
0.014888 -0.029452 0.000000 
0.049193 -0.040053 0.011177 
-0.014015 0.069579 0.025979 
-0.012513 0.051204 0.000000 
-0.025757 0.055028 0.007329 
0.027889 0.033509 0.000000 
0.047098 -0.047378 0.016424 
0.066021 0.021593 0.041800 
-0.020901 -0.004092 0.000000 
-0.040428 -0.055660 0.039706 
0.024083 -0.073972 0.048922 
-0.017631 -0.063432 0.015416 
-0.062841 -0.041172 0.046970 
-0.043547 0.047729 0.030097 
-0.038807 -0.047567 0.008164 
-0.034489 0.050470 0.023980 
-0.009109 0.058744 0.005304 
-0.023506 0.025559 0.000000 
0.014080 0.062368 0.026736 
0.047302 0.017303 0.003980 
0.062857 -0.000948 0.023357 
-0.068238 0.001662 0.034122 
-0.044396 0.044327 0.010095 
-0.054092 0.009418 0.001522 
0.010245 0.037147 0.000000 
0.025835 -0.041340 0.003000 
-0.005235 0.054099 0.000942 
-0.021891 -0.040300 0.000000 
0.044316 0.063870 0.043146 
-0.066863 0.026310 0.045905 
0.054739 -0.017649 0.003560 
-0.026913 0.065317 0.039280 
-0.005801 0.008887 0.002600 
0.022760 0.012928 0.000000 
0.000347 -0.053942 0.001078 
0.052211 -0.000000 0.001729 
0.018126 -0.032372 0.003000 
0.046581 -0.024818 0.007049 
-0.051518 0.047091 0.038367 
0.009088 -0.075113 0.037392 
0.047325 0.001558 0.002914 
0.010361 0.020547 0.002975 
0.051234 0.049870 0.042556 
-0.009000 -0.067634 0.037267 
-0.026474 0.050906 0.015329 
0.040727 -0.067753 0.048093 
-0.044148 0.001893 0.000000 
0.005751 -0.052534 0.007067 
0.048435 0.035209 0.016786 
0.000284 0.062862 0.027724 
-0.074374 0.012663 0.050000 
0.017002 -0.056873 0.015747 
-0.026870 -0.047947 0.001505 
-0.059579 0.037048 0.038283 
-0.062760 0.004252 0.025105 
-0.036232 -0.015353 0.000000 
0.013342 0.025517 0.000000 
0.040218 -0.000439 0.000000 
-0.050249 -0.012403 0.006507 
-0.028177 0.024949 0.002152 
0.043649 0.006403 0.002530 
-0.068403 -0.036514 0.043625 
0.056652 0.028143 0.028075 
0.049416 -0.041998 0.028109 
0.045677 -0.050920 0.019505 
-0.077102 0.018554 0.050000 
-0.031373 -0.039253 0.003115 
0.019515 0.039432 0.002165 
0.006010 0.051518 0.005035 
-0.067138 0.035483 0.038521 
-0.050494 0.033277 0.019365 
-0.021446 -0.055505 0.017123 
-0.036709 0.004525 0.003000 
-0.065414 0.039275 0.039386 
0.007438 -0.036783 0.000000 
0.059386 -0.036280 0.037463 
0.055678 -0.047682 0.044187 
0.024649 0.007409 0.002676 
-0.069395 -0.023956 0.049416 
0.021829 -0.062401 0.028601 
0.025197 -0.045863 0.005887 
-0.000404 -0.070318 0.042636 
0.030899 0.021184 0.000000 
0.002601 0.022723 0.002361 
0.030167 -0.036740 0.003000 
-0.075509 -0.009518 0.050000 
-0.053856 -0.039348 0.029044 
-0.076216 0.011493 0.041133 
0.056749 -0.019516 0.005961 
0.020134 0.076639 0.050000 
-0.052678 0.026044 0.004960 
-0.051430 -0.057011 0.050000 
0.046971 0.051933 0.040932 
-0.031175 0.048930 0.004181 
0.017589 -0.002666 0.002653 
0.017725 -0.038641 0.003000 
0.008383 0.043228 0.002138 
-0.026696 0.006131 0.000000 
0.043208 0.054658 0.040971 
0.038296 0.045439 0.020452 
-0.018272 -0.055362 0.010100 
0.073687 0.023125 0.041870 
-0.031294 -0.016908 0.003000 
0.023882 0.056268 0.021023 
0.070147 0.010070 0.025989 
-0.056573 -0.042509 0.025969 
-0.001160 0.077889 0.044271 
-0.052562 -0.008190 0.002982 
0.057446 0.003868 0.014876 
0.027276 -0.045788 0.008186 
0.054396 0.019882 0.004013 
-0.052161 0.039376 0.027289 
-0.069950 0.003990 0.038778 
0.066117 -0.012224 0.036226 
-0.067641 0.020260 0.024443 
-0.054942 -0.045898 0.027118 
-0.023319 -0.004912 0.000000 
0.069963 0.033220 0.050000 
-0.059756 0.021712 0.029545 
-0.065512 0.009846 0.033671 
0.078553 -0.010924 0.047650 
-0.019001 -0.002459 0.003000 
0.074764 -0.005013 0.048635 
-0.053596 -0.000520 0.003000 
0.040494 0.062244 0.033352 
-0.035902 0.053291 0.030216 
-0.007353 0.072220 0.029289 
0.011915 -0.071741 0.029629 
0.059953 0.046467 0.047201 
0.059130 0.053740 0.050000 
-0.022398 -0.073509 0.049019 
0.046944 -0.014187 0.001230 
0.009887 -0.011171 0.000000 
0.050170 -0.040049 0.026006 
0.033085 -0.028303 0.000000 
0.041419 0.049723 0.030856 
0.045324 -0.033275 0.006507 
-0.032235 -0.072040 0.046642 
-0.021611 0.074621 0.043491 
0.072721 0.005761 0.030349 
0.022416 0.046331 0.000000 
0.047690 -0.023609 0.000000 
-0.053280 0.053162 0.036157 
-0.046585 0.021873 0.000000 
-0.049036 0.061822 0.046713 
-0.071840 -0.023338 0.050000 
0.049275 -0.053827 0.046704 
0.032367 0.026640 0.002295 
0.004845 -0.054743 0.011486 
0.040058 -0.034996 0.000000 
-0.060037 0.043292 0.036191 
-0.023873 -0.014156 0.000000 
-0.029324 0.066612 0.044201 
0.067311 -0.024501 0.045707 
-0.014106 0.074139 0.037079 
-0.074220 -0.000000 0.039829 
-0.044951 -0.056607 0.046302 
0.017446 -0.028498 0.000000 
-0.060962 -0.000000 0.010184 
-0.060411 -0.036614 0.024786 
-0.058182 -0.026392 0.029931 
0.023405 0.072047 0.045767 
-0.064217 -0.000000 0.023166 
-0.037127 0.018957 0.003000 
0.038384 -0.045646 0.005527 
0.048159 0.036942 0.006955 
-0.069949 0.016494 0.027398 
0.005475 -0.021547 0.000000 
-0.066240 0.012325 0.018962 
-0.045320 0.042475 0.009075 
0.051427 0.037065 0.015980 
0.063837 0.018348 0.035898 
0.059826 -0.019307 0.010333 
0.044042 0.062186 0.050000 
0.013588 -0.065051 0.016986 
-0.058152 0.008561 0.018765 
0.033519 -0.063539 0.027247 
-0.010579 0.057635 0.017270 
0.042439 -0.047006 0.010889 
0.028317 -0.016967 0.003000 
-0.036239 0.016866 0.003000 
0.026294 -0.057473 0.011309 
-0.061735 0.009473 0.026189 
-0.017336 0.056111 0.014222 
0.061987 -0.022210 0.015064 
0.057434 -0.036543 0.034051 
0.055284 -0.011905 0.015206 
-0.028275 0.044004 0.002011 
-0.030135 -0.013279 0.003000 
0.014582 0.010262 0.000000 
0.047739 0.033818 0.014702 
-0.067758 -0.029851 0.049708 
0.002981 0.056501 0.015002 
-0.009895 -0.052687 0.007374 
-0.045988 -0.054531 0.044208 
-0.037925 -0.030867 0.003000 
0.029988 0.019424 0.000000 
0.075226 0.002168 0.037042 
0.046304 0.055226 0.045510 
-0.067523 -0.006568 0.019865 
-0.011888 0.061202 0.009658 
0.044415 0.032199 0.007599 
-0.054577 0.039265 0.018339 
-0.006284 0.062901 0.011319 
0.003453 0.066912 0.035825 
0.020493 -0.019508 0.003000 
-0.072081 -0.017642 0.033167 
-0.033837 0.045977 0.016096 
-0.072599 -0.000000 0.038372 
-0.071438 0.009476 0.028352 
0.017487 0.064433 0.030866 
-0.065378 0.031046 0.045820 
-0.027726 -0.057309 0.027705 
0.051613 -0.002005 0.002353 
0.031157 -0.013984 0.003000 
0.042577 0.054652 0.022546 
-0.007879 -0.051132 0.004263 
-0.031014 -0.009219 0.000000 
0.053786 -0.017589 0.015821 
-0.037144 -0.061892 0.045798 
0.039029 0.039577 0.012346 
-0.062315 -0.000000 0.011205 
-0.045950 -0.045966 0.013607 
0.004860 0.069191 0.040382 
-0.043920 -0.022958 0.000000 
-0.051086 -0.030258 0.018915 
0.046877 0.050478 0.020662 
-0.015738 0.021211 0.000000 
-0.065274 -0.042253 0.050000 
0.013912 0.040341 0.002167 
0.022255 -0.068144 0.035366 
0.045978 0.003662 0.000000 
0.067725 0.002165 0.033552 
0.048994 0.061914 0.050000 
-0.008807 0.067015 0.036030 
-0.013223 0.019319 0.000000 
-0.003571 0.037736 0.002792 
0.061299 0.046743 0.049222 
0.033634 0.071336 0.046794 
0.024984 0.070450 0.034391 
0.070352 -0.031504 0.041444 
0.052506 -0.034306 0.023674 
0.058788 0.035070 0.035972 
-0.027066 0.070657 0.037649 
0.076315 0.001220 0.039999 
-0.058150 -0.012553 0.021796 
0.046704 -0.064871 0.049316 
-0.042779 -0.028447 0.000000 
-0.025783 -0.057146 0.010455 
0.040490 0.048402 0.027623 
-0.019191 -0.074680 0.041897 
-0.019847 0.050870 0.000890 
0.008880 -0.001092 0.002967 
0.006676 -0.050815 0.003631 
0.008118 -0.058928 0.019855 
0.048865 0.059869 0.042880 
0.025520 -0.065436 0.024304 
0.065980 0.033936 0.032739 
0.028474 0.070450 0.049451 
0.004604 0.007533 0.000000 
-0.020823 0.001779 0.000000 
0.000881 0.072991 0.047982 
0.017500 0.053440 0.007994 
0.035905 -0.060579 0.042074 
0.047547 0.060328 0.041529 
-0.020669 0.062844 0.016491 
-0.036028 -0.022768 0.003000 
0.065882 -0.023276 0.042243 
-0.044452 -0.065936 0.048528 
0.023717 -0.072826 0.046184 
-0.029858 -0.007354 0.003000 
-0.003753 0.050693 0.000000 
-0.021128 -0.070398 0.042797 
-0.024707 0.030954 0.002138 
0.031722 -0.040297 0.000000 
-0.015056 -0.013554 0.003000 
0.075148 0.006161 0.036829 
-0.019708 -0.059433 0.016181 
-0.003577 0.043965 0.000000 
-0.045071 -0.028487 0.000000 
0.034846 -0.059793 0.039559 
0.010938 -0.067999 0.022021 
0.069707 -0.002194 0.023317 
-0.076804 -0.019774 0.048531 
-0.011345 0.069750 0.041499 
-0.055316 -0.022919 0.022630 
-0.020411 0.023305 0.000000 
-0.066780 -0.043547 0.049454 
-0.052812 -0.006940 0.000330 
0.003612 0.064550 0.031099 
-0.049216 -0.058753 0.040032 
-0.037491 0.041557 0.002032 
0.059085 -0.000000 0.015533 
-0.059192 -0.050959 0.044462 
0.022442 -0.022041 0.000000 
-0.003276 -0.038746 0.003000 
-0.030403 -0.072700 0.046413 
0.030492 0.052201 0.022128 
0.013182 0.062321 0.011994 
-0.072293 -0.009896 0.030146 
0.011288 0.060987 0.009120 
-0.040345 0.065266 0.041269 
0.022623 -0.072748 0.038757 
0.048333 -0.037299 0.019671 
0.007616 0.034878 0.000000 
-0.052480 -0.027561 0.019981 
-0.051563 -0.018299 0.012812 
-0.058394 0.010433 0.005199 
0.020820 0.063317 0.016303 
0.023919 0.043234 0.002083 
-0.059059 0.044652 0.043363 
0.018682 -0.056143 0.007551 
0.064650 -0.040968 0.039256 
0.028773 0.053158 0.021676 
-0.037781 0.059718 0.042864 
-0.022574 0.074191 0.042939 
-0.059248 -0.009451 0.005787 
-0.031036 0.035359 0.000000 
0.043986 0.003441 0.000000 
0.011364 0.048664 0.002049 
-0.040077 -0.031454 0.003000 
0.053968 0.039034 0.023561 
-0.072906 0.021283 0.038239 
-0.007886 0.040831 0.000000 
-0.049355 0.014874 0.000000 
0.028712 0.001632 0.000000 
-0.026021 -0.010776 0.000000 
-0.013258 -0.067516 0.037031 
-0.008879 0.008713 0.000000 
0.013369 -0.058779 0.019557 
-0.025710 0.064615 0.022543 
0.047354 0.041719 0.010620 
0.063505 -0.006877 0.012501 
-0.055181 0.036966 0.030188 
0.009336 -0.075730 0.039215 
0.023461 0.060763 0.014241 
0.064972 -0.000000 0.018452 
0.044382 -0.053217 0.039998 
-0.018141 0.072301 0.034174 
-0.056008 -0.034730 0.030607 
-0.054153 0.049059 0.029774 
0.003263 -0.021274 0.003000 
-0.040625 -0.011229 0.003000 
0.035288 0.071279 0.048980 
-0.030410 0.021091 0.002674 
-0.055997 -0.006954 0.014066 
-0.053914 0.031324 0.024431 
-0.032525 -0.004643 0.000000 
0.005973 -0.053005 0.001186 
-0.010313 -0.002383 0.003000 
-0.016084 0.073097 0.048194 
-0.037800 0.023528 0.002884 
0.073378 -0.018097 0.037293 
0.051019 -0.028760 0.017572 
-0.006754 0.071530 0.045060 
0.059851 0.047696 0.039730 
-0.065581 0.022432 0.021593 
0.040257 -0.063828 0.037442 
0.072855 -0.003951 0.044341 
0.042950 -0.033181 0.007125 
-0.053395 0.042143 0.032951 
0.070247 -0.000000 0.026271 
0.038075 0.043951 0.004130 
-0.001778 0.060629 0.007153 
0.022724 -0.069882 0.040815 
0.029953 -0.032831 0.003000 
0.051420 0.012625 0.003000 
-0.016144 -0.030441 0.003000 
-0.005817 -0.062014 0.026028 
0.008021 0.063351 0.012518 
0.018923 0.020042 0.000000 
-0.047884 0.040785 0.010292 
0.051776 -0.000004 0.000000 
0.019941 0.060610 0.023483 
-0.003965 -0.027671 0.000000 
0.006135 -0.004676 0.000000 
-0.067263 -0.027598 0.029526 
-0.031893 0.036483 0.000000 
0.051385 0.007858 0.005777 
0.018478 -0.069659 0.027832 
-0.035331 -0.002256 0.003000 
-0.036956 -0.002253 0.000000 
-0.043376 -0.028482 0.003562 
-0.049747 0.005872 0.001289 
0.041734 -0.059953 0.047861 
-0.019196 0.008005 0.000000 
0.017184 0.006958 0.002577 
-0.013302 0.028005 0.002231 
0.059642 -0.036040 0.023264 
0.061578 0.029532 0.020443 
0.054810 -0.047497 0.028823 
0.063399 -0.033446 0.043419 
-0.066945 -0.034556 0.036737 
0.065115 0.004298 0.014724 
-0.054367 0.024014 0.005479 
-0.032269 -0.072527 0.047950 
0.038566 -0.058674 0.042081 
0.065970 -0.000000 0.018267 
0.017714 0.037116 0.000000 
0.027965 0.049165 0.014239 
-0.048393 0.058184 0.050000 
0.020035 -0.069692 0.041384 
-0.007604 0.068053 0.038105 
0.033389 0.054607 0.012691 
-0.034336 0.052244 0.026685 
0.004694 0.038638 0.000000 
-0.001810 -0.066891 0.035782 
0.066768 -0.026576 0.045878 
-0.064406 0.005834 0.014077 
-0.025862 -0.058517 0.012524 
-0.004767 -0.049313 0.000626 
0.002062 -0.064399 0.013376 
-0.053875 -0.001873 0.006730 
-0.050396 -0.013812 0.000000 
-0.027166 -0.038022 0.003000 
-0.010868 -0.052026 0.000697 
0.061424 -0.000832 0.020533 
0.047967 -0.000250 0.003000 
-0.076228 0.005332 0.050000 
-0.061961 -0.031891 0.023326 
-0.051935 -0.035413 0.010606 
-0.032130 0.062232 0.040354 
0.029408 -0.018533 0.003000 
0.045803 0.022791 0.000000 
0.027217 -0.019463 0.000000 
-0.042083 0.054309 0.021317 
0.016232 -0.026787 0.003000 
0.046319 0.026469 0.002280 
0.063750 0.035541 0.045473 
-0.011670 -0.055803 0.003192 
0.029722 0.005907 0.002630 
0.063643 0.045814 0.045334 
-0.063223 -0.012951 0.013550 
-0.011364 -0.051559 0.003000 
0.002250 0.028757 0.000000 
0.028464 -0.054874 0.024107 
-0.010664 0.047813 0.000000 
-0.063814 -0.036547 0.030311 
-0.027267 0.066492 0.027572 
0.047711 0.041130 0.010572 
0.008410 -0.018675 0.000000 
-0.038549 -0.042335 0.003256 
0.026797 0.047131 0.009682 
0.023089 -0.038111 0.003000 
0.029575 0.012179 0.002544 
0.006834 0.048240 0.002068 
0.027174 -0.030310 0.000000 
0.077344 -0.010659 0.050000 
-0.078974 0.001674 0.050000 
-0.035603 0.054225 0.031386 
0.022040 -0.070402 0.042805 
-0.024718 0.046903 0.002004 
-0.025366 -0.069221 0.031613 
0.008383 0.013412 0.002474 
-0.062619 -0.000000 0.012968 
0.018250 -0.071606 0.032224 
0.013310 -0.069298 0.040595 
0.070114 0.022232 0.030850 
-0.044039 -0.022476 0.001020 
-0.058849 -0.007024 0.019597 
0.068429 0.028019 0.032607 
-0.071371 0.024864 0.037012 
0.007467 0.028738 0.000000 
0.020180 0.060851 0.014037 
-0.039310 0.041626 0.003291 
0.066039 0.005045 0.032155 
-0.003342 0.013071 0.000000 
0.050181 -0.051452 0.027319 
0.062612 0.026647 0.038317 
-0.049130 -0.013693 0.005182 
-0.059628 0.017662 0.026930 
-0.046987 0.034045 0.013418 
0.051980 0.011117 0.001299 
-0.037429 -0.033540 0.000000 
-0.014937 0.050286 0.002572 
-0.025771 -0.065098 0.037844 
0.038014 0.059547 0.042858 
0.058055 0.044570 0.031223 
0.002403 0.005928 0.002490 
0.020088 -0.014061 0.003000 
-0.013383 0.068807 0.039613 
0.060251 -0.052478 0.049877 
-0.061820 -0.010571 0.027585 
0.059644 0.007574 0.021478 
-0.051808 0.012154 0.001947 
-0.003720 0.066819 0.035638 
0.008766 -0.052381 0.000000 
-0.060952 -0.047589 0.041986 
0.016203 0.048295 0.002042 
-0.046417 0.036143 0.004808 
-0.065570 -0.009685 0.016918 
-0.009830 0.078701 0.047579 
0.047464 0.020501 0.000000 
0.027348 -0.045791 0.002676 
0.063693 -0.007351 0.028711 
-0.001950 -0.024667 0.000000 
-0.025164 -0.007859 0.000000 
0.069881 -0.037516 0.048673 
0.012965 0.050594 0.002016 
-0.051693 -0.025539 0.017371 
-0.034681 -0.062040 0.043250 
-0.023713 -0.032154 0.003000 
0.038409 -0.014630 0.002878 
0.028725 0.039224 0.000000 
0.016979 -0.069960 0.041920 
0.014461 0.060948 0.023896 
-0.027998 0.070598 0.038591 
0.019724 -0.060245 0.019625 
0.076999 -0.006291 0.041854 
-0.039892 -0.038409 0.001534 
-0.067474 -0.023765 0.026714 
-0.018465 -0.073054 0.036613 
0.068321 0.025171 0.048106 
0.075682 0.019885 0.050000 
0.017890 -0.008067 0.003000 
-0.021792 -0.006651 0.000000 
-0.015267 -0.045478 0.000000 
0.058216 -0.048028 0.047712 
-0.044196 -0.002632 0.000000 
0.001657 0.072832 0.047664 
-0.019291 -0.028390 0.000000 
0.079227 0.010011 0.049116 
-0.054780 -0.021402 0.020774 
-0.024183 -0.048067 0.008504 
-0.057134 -0.046934 0.032658 
0.011857 0.042769 0.002136 
0.052516 0.053256 0.049559 
0.007798 -0.023118 0.003000 
0.007621 -0.014990 0.000000 
0.000306 0.001443 0.003000 
-0.039802 0.037022 0.009339 
-0.047591 -0.042158 0.026561 
-0.011339 0.035257 0.000000 
-0.039916 -0.021546 0.000000 
0.014750 -0.023778 0.000000 
0.065418 0.024418 0.042276 
-0.001857 0.070188 0.024439 
0.023158 -0.055113 0.018299 
-0.051389 0.010867 0.000000 
0.005536 0.059232 0.020463 
-0.021255 -0.010310 0.003000 
0.032857 -0.070008 0.042430 
-0.057961 -0.053104 0.050000 
0.051992 0.037880 0.023283 
-0.008097 -0.016288 0.003000 
0.003199 0.059048 0.020095 
-0.043729 0.045451 0.010598 
-0.012042 -0.008370 0.003000 
0.041663 0.013065 0.002434 
0.048027 0.023452 0.009316 
0.027920 -0.052538 0.005598 
0.007037 0.071217 0.044434 
-0.057412 0.018001 0.006138 
0.034443 -0.025471 0.000000 
-0.053185 -0.035582 0.025835 
0.011116 -0.014869 0.000000 
-0.016196 -0.038506 0.000000 
-0.037609 -0.025668 0.000000 
-0.051036 -0.054082 0.049201 
-0.066006 -0.039415 0.040583 
0.025504 -0.023379 0.003000 
0.035539 0.056842 0.035569 
0.029543 -0.035297 0.000000 
0.046660 0.056433 0.047888 
-0.016574 -0.041404 0.003000 
-0.069717 -0.008350 0.041175 
0.065700 0.010415 0.017368 
-0.011962 -0.051037 0.003000 
0.037339 0.019382 0.002373 
0.059473 -0.023729 0.012651 
0.005131 -0.043449 0.003000 
0.047783 -0.003539 0.002968 
0.010073 0.038329 0.002206 
-0.008586 0.064039 0.030078 
0.062481 -0.045621 0.048669 
0.002268 -0.069040 0.040079 
0.021715 0.074884 0.044337 
-0.025499 -0.022019 0.000000 
0.042523 0.038187 0.003140 
0.025447 0.070837 0.035938 
-0.023383 -0.012873 0.003000 
-0.004695 0.070332 0.024845 
0.054394 0.007577 0.011385 
0.038790 -0.014203 0.002877 
0.038730 0.005631 0.002608 
-0.035589 0.030161 0.000000 
0.027060 -0.074637 0.050000 
-0.012008 -0.073863 0.035340 
0.034553 0.061124 0.023826 
0.051091 0.053787 0.048758 
-0.017671 -0.050801 0.000061 
0.040678 0.011362 0.000000 
-0.014152 0.051475 0.002139 
0.044386 0.009120 0.000000 
0.031247 -0.071785 0.050000 
-0.055722 -0.034675 0.015335 
0.075044 -0.020641 0.044021 
-0.032883 0.041717 0.002005 
0.018206 0.054849 0.004310 
-0.041144 0.038320 0.002309 
0.042567 0.048368 0.029994 
-0.053655 -0.013453 0.013729 
0.047743 -0.034673 0.006855 
-0.035801 0.011515 0.000000 
0.042141 -0.031072 0.000428 
0.030134 -0.062106 0.037818 
0.009676 0.061156 0.024312 
0.007538 0.052471 0.006941 
0.043157 0.010586 0.000000 
0.052893 -0.055599 0.040483 
-0.023625 0.066613 0.037548 
-0.050327 0.037011 0.015745 
-0.034604 0.057164 0.035000 
0.047945 0.036924 0.006650 
0.068934 0.026699 0.032438 
-0.022926 0.069698 0.032348 
-0.065947 0.029576 0.028638 
-0.039744 0.011751 0.003000 
-0.051898 -0.030327 0.006133 
0.040138 0.066151 0.050000 
0.007867 0.043314 0.000000 
0.068676 -0.034614 0.050000 
0.058264 0.049116 0.038714 
0.007914 0.005400 0.002534 
0.051986 -0.011086 0.001887 
-0.046264 -0.034194 0.006635 
-0.006780 -0.079484 0.048600 
0.022873 -0.052777 0.003641 
-0.021083 0.063850 0.023160 
-0.018875 0.057591 0.015787 
0.032628 -0.034446 0.000000 
-0.049061 -0.024095 0.001099 
-0.001726 0.066359 0.034718 
0.052605 0.027621 0.020249 
0.016235 0.055097 0.012193 
-0.007281 0.030631 0.000000 
-0.057234 0.020236 0.007112 
0.007631 -0.012674 0.000000 
0.025303 0.074990 0.047477 
-0.059037 0.000032 0.015476 
-0.065036 -0.002010 0.013998 
0.010627 0.041502 0.002158 
0.023175 -0.015372 0.003000 
0.071523 -0.009523 0.045041 
-0.031571 0.022303 0.000000 
-0.070323 -0.014899 0.027684 
-0.053885 -0.044837 0.023896 
0.027739 -0.018858 0.000000 
-0.025511 -0.044258 0.000000 
0.038197 0.008721 0.002558 
-0.066554 -0.005012 0.033125 
0.020807 0.045884 0.000821 
0.020889 0.063267 0.018281 
0.007899 0.075091 0.036674 
0.068029 0.003061 0.034711 
0.073948 -0.009875 0.034301 
-0.049931 0.018567 0.000000 
-0.034036 0.066241 0.049100 
0.070524 0.012773 0.045183 
0.058144 0.048644 0.048629 
0.058061 0.008872 0.004741 
0.034338 0.065423 0.048121 
0.024656 -0.064978 0.022612 
0.061543 -0.048799 0.045607 
0.034375 -0.056092 0.015637 
0.002629 -0.045785 0.000000 
0.005637 -0.030108 0.000000 
0.044544 0.032382 0.005142 
-0.044184 0.061726 0.038802 
0.060699 0.012219 0.008842 
0.009106 0.066945 0.035890 
0.059755 -0.001106 0.017484 
0.056550 -0.040831 0.024909 
-0.057046 -0.033095 0.015734 
-0.057236 -0.016534 0.005541 
-0.042605 0.050386 0.033319 
0.026160 -0.000244 0.002688 
-0.032320 -0.009877 0.003000 
0.020923 0.022243 0.002417 
-0.047652 -0.003473 0.000000 
-0.018813 0.058618 0.008233 
0.042990 0.048026 0.029930 
-0.014774 0.049802 0.001604 
0.006953 0.075126 0.036771 
-0.072276 -0.000000 0.040731 
-0.012342 -0.062175 0.026350 
-0.019416 0.058566 0.014696 
-0.047128 -0.026534 0.009440 
0.047887 -0.026289 0.001217 
0.061795 0.009556 0.026885 
0.027973 0.067642 0.044298 
-0.010419 -0.071625 0.045249 
0.059138 0.045024 0.044024 
0.043309 0.045346 0.010021 
0.022306 -0.067611 0.029473 
0.000020 0.078886 0.050000 
-0.031985 -0.066074 0.046551 
-0.042567 -0.036192 0.001991 
0.031993 -0.017167 0.000000 
-0.064407 -0.035686 0.046776 
0.061798 0.050011 0.048576 
-0.051700 -0.007133 0.000000 
0.036755 0.041884 0.001838 
-0.035917 -0.053938 0.031905 
0.060804 -0.034023 0.038767 
-0.016583 -0.053784 0.009568 
0.033016 -0.070479 0.043814 
0.015629 0.015754 0.000000 
-0.053321 -0.052537 0.034921 
-0.041539 0.044049 0.022094 
-0.061671 0.033380 0.023957 
-0.051296 -0.029875 0.019089 
0.003363 0.050705 0.002040 
-0.002441 -0.061665 0.008617 
0.002568 0.000277 0.003000 
0.033324 0.070186 0.043525 
-0.029461 -0.002142 0.003000 
0.069166 -0.011504 0.041668 
-0.031901 0.030314 0.002093 
0.055764 -0.038722 0.032326 
-0.013237 0.063860 0.014764 
-0.050354 0.013102 0.006807 
-0.013337 -0.040300 0.000000 
-0.069208 0.004934 0.037904 
-0.015600 0.049702 0.000000 
-0.020819 0.027470 0.002189 
0.034274 -0.069399 0.050000 
-0.014398 -0.072864 0.047728 
-0.014447 0.025820 0.002241 
0.075583 0.019449 0.044725 
0.032484 0.063067 0.025488 
-0.053270 -0.019993 0.003059 
-0.025478 -0.026937 0.003000 
-0.074386 0.001060 0.045593 
-0.034064 -0.046431 0.003621 
-0.005737 -0.079035 0.047380 
-0.063624 -0.016920 0.034692 
-0.000797 -0.046531 0.003000 
-0.046316 0.030206 0.009850 
0.037281 0.008858 0.000000 
0.050327 -0.058470 0.042283 
-0.002388 0.040316 0.002283 
-0.009623 -0.073984 0.049967 
0.039340 -0.016241 0.000000 
-0.009135 0.050709 0.003418 
-0.051510 0.047811 0.039530 
-0.004182 0.049497 0.002045 
-0.045329 -0.032101 0.009245 
-0.014196 -0.011407 0.000000 
0.014102 0.071933 0.045865 
-0.024838 0.061411 0.016018 
0.023298 -0.070719 0.036910 
0.013922 0.076146 0.042518 
-0.019036 0.063925 0.016363 
-0.038961 0.053841 0.016745 
-0.000199 0.000019 0.003000 
0.049226 0.010392 0.003251 
0.042491 -0.017047 0.002922 
-0.046342 -0.049286 0.017977 
0.002773 -0.055684 0.013368 
0.040415 -0.052022 0.033423 
0.047669 0.020074 0.000000 
0.072550 0.029364 0.050000 
0.010892 0.058562 0.005366 
-0.002284 -0.007198 0.000000 
-0.017638 -0.038128 0.000000 
0.003827 0.025722 0.000000 
-0.031107 -0.072350 0.046189 
0.009651 0.050393 0.002028 
-0.045993 -0.056796 0.047776 
0.026563 0.064795 0.038022 
-0.047795 0.010772 0.000000 
-0.065596 0.030239 0.045768 
-0.034145 -0.018505 0.000000 
-0.070334 -0.015907 0.027988 
0.022049 0.045595 -0.000000 
0.010117 0.050551 0.000000 
-0.050042 -0.036695 0.012915 
0.050479 -0.011120 0.003000 
-0.039409 0.041460 0.015664 
0.056943 0.029193 0.012659 
-0.046026 -0.058602 0.034550 
-0.020375 -0.035695 0.003000 
0.038898 0.066674 0.041636 
0.008178 -0.065849 0.033698 
0.031160 -0.016495 0.000000 
0.014106 0.048049 0.002051 
0.046929 -0.035660 0.015534 
-0.073704 0.018909 0.050000 
0.026177 0.052015 0.016787 
0.040645 -0.026712 0.000000 
-0.017941 0.063935 0.029870 
0.059975 -0.036620 0.024488 
-0.040924 -0.052077 0.034632 
-0.014081 -0.049925 0.000000 
0.034078 -0.041385 0.000000 
0.024207 0.035745 0.000000 
-0.023298 -0.046507 0.004911 
-0.072512 0.027498 0.043196 
0.018985 0.040820 0.000000 
-0.025373 -0.075730 0.049633 
-0.003592 -0.059077 0.005209 
-0.019911 -0.058587 0.020204 
-0.032196 -0.065767 0.030469 
-0.049547 0.006856 0.001523 
0.002990 -0.071160 0.027319 
0.006061 0.062606 0.010683 
-0.057303 0.041322 0.027796 
0.003128 -0.067005 0.018055 
0.003681 -0.042393 0.003000 
0.075188 0.025897 0.048731 
0.015608 0.068620 0.024546 
0.066558 0.022245 0.043167 
-0.013768 0.018933 0.000000 
0.022567 -0.068499 0.029530 
-0.067638 0.035214 0.039682 
-0.006355 -0.073859 0.049717 
-0.010842 -0.014365 0.003000 
-0.041737 0.009642 0.000000 
-0.010646 -0.038664 0.000000 
0.007284 0.065242 0.015715 
-0.037753 -0.058200 0.040680 
-0.014814 0.055327 0.012653 
0.072297 0.034003 0.050000 
-0.051047 0.011830 0.000000 
0.019519 0.066878 0.035755 
-0.014991 -0.075599 0.041874 
0.048326 -0.017837 0.000000 
-0.029490 0.042604 0.000000 
0.002553 0.053867 0.000293 
0.054730 0.047503 0.042789 
0.007625 -0.006399 0.003000 
-0.018673 0.066530 0.035059 
-0.059137 0.010882 0.005863 
-0.061238 0.014858 0.028384 
0.040169 0.033565 0.004482 
0.017506 0.021528 0.000000 
0.030894 -0.039677 0.003050 
-0.000223 0.049871 0.000000 
0.066382 0.000093 0.029641 
0.052369 -0.051853 0.047106 
0.059665 0.043409 0.039956 
-0.067588 0.012938 0.021775 
-0.050621 -0.038552 0.024311 
0.021741 -0.004182 0.002693 
-0.001441 0.057731 0.003971 
0.029955 -0.022685 0.000000 
-0.050305 -0.026988 0.015609 
-0.047628 0.063839 0.048572 
0.049263 -0.035414 0.018417 
0.052536 0.012325 0.010854 
0.027123 -0.057561 0.012046 
-0.058216 0.045430 0.043573 
0.062184 -0.045027 0.043980 
-0.035917 -0.068879 0.043956 
-0.025003 0.063415 0.033956 
0.051531 -0.013815 0.001627 
0.057909 -0.025879 0.028434 
0.054028 0.016611 0.002807 
0.025175 0.069943 0.033281 
-0.042503 0.057169 0.044233 
0.024426 0.074791 0.049660 
-0.052605 -0.043262 0.033959 
-0.020435 -0.061630 0.015407 
0.024891 0.042967 0.002078 
0.069313 -0.006367 0.038943 
0.066838 0.000885 0.016936 
0.013456 0.040473 0.002166 
0.037104 -0.047438 0.006148 
-0.025886 0.074626 0.047223 
0.049943 0.045887 0.018290 
-0.040383 0.000088 0.003000 
0.066416 -0.021509 0.042236 
0.049160 0.052760 0.027765 
-0.012388 0.055875 0.013750 
0.044684 0.026236 0.000000 
0.014277 0.067917 0.022795 
-0.018221 0.055087 0.012494 
-0.055228 0.024837 0.006948 
-0.027154 -0.007769 0.003000 
0.014522 -0.015188 0.003000 
0.000087 0.060122 0.022244 
0.043294 0.001241 0.002637 
-0.010232 -0.021955 0.003000 
-0.003148 -0.017306 0.000000 
-0.000568 -0.062959 0.027918 
0.049866 -0.040702 0.026651 
-0.032199 0.008183 0.000000 
0.011545 0.065252 0.016823 
-0.077575 0.010594 0.044551 
-0.064321 0.007722 0.014178 
0.038274 -0.063475 0.032358 
-0.032047 -0.060151 0.037307 
-0.070994 0.028684 0.040335 
0.017840 -0.050567 0.004697 
0.073949 0.000944 0.044738 
0.011986 -0.006122 0.000000 
0.024772 0.008550 0.000000 
0.011700 0.065176 0.032352 
0.033234 -0.033500 0.003000 
-0.007430 -0.040782 0.000000 
0.014074 0.064018 0.030037 
-0.012771 0.016441 0.000000 
-0.043714 -0.043632 0.024502 
0.039543 0.057800 0.024145 
0.039156 -0.019729 0.003000 
-0.051716 0.012705 0.002556 
-0.029004 -0.039393 0.003000 
-0.031419 -0.073138 0.048721 
-0.003319 -0.060826 0.007297 
-0.004124 -0.030160 0.000000 
0.002444 -0.071679 0.028358 
0.057194 -0.013695 0.019928 
0.066990 0.006427 0.018779 
-0.021223 0.070995 0.043990 
-0.035003 0.058515 0.020276 
0.060171 0.043853 0.042229 
0.034873 0.064658 0.030512 
-0.051957 -0.007565 0.000000 
-0.034103 -0.024605 0.003000 
0.025266 0.068565 0.030052 
-0.032756 0.024951 0.000000 
-0.025177 -0.038491 0.000000 
-0.045558 0.053901 0.024804 
-0.017096 0.061971 0.012369 
-0.046839 0.049380 0.036627 
0.064562 -0.001273 0.026827 
0.003800 0.006134 0.002500 
-0.077355 -0.000000 0.046571 
0.050633 0.030057 0.004975 
-0.055348 0.037326 0.030713 
0.070047 -0.009369 0.042113 
0.057591 0.051413 0.050000 
0.046296 0.001236 0.000000 
-0.010113 -0.049185 0.000370 
-0.049154 -0.035799 0.009766 
-0.048609 -0.042045 0.012563 
-0.058466 0.040645 0.038441 
0.058576 0.036417 0.021611 
0.035803 -0.020364 0.003000 
-0.030039 0.009837 0.000000 
0.038285 0.052574 0.014320 
0.061923 -0.033465 0.024272 
-0.027106 0.048631 0.012367 
-0.034099 0.009692 0.000000 
0.018503 -0.055533 0.005122 
-0.078530 0.012042 0.048314 
-0.071446 -0.011951 0.046432 
-0.074775 0.004778 0.048517 
-0.018812 -0.057194 0.014278 
-0.068795 -0.017561 0.025476 
-0.053801 0.057620 0.050000 
0.021348 -0.004039 0.000000 
0.043626 -0.043121 0.023101 
0.006044 -0.020609 0.000000 
-0.042503 0.046001 0.026197 
0.003139 0.009646 0.002473 
0.000494 -0.076540 0.040609 
0.017536 -0.021287 0.003000 
0.039221 0.024425 0.000000 
0.056243 0.042770 0.025686 
0.003800 0.002116 0.000000 
-0.006187 0.038929 0.002985 
-0.034704 -0.027496 0.000000 
-0.028101 0.040274 0.000719 
0.025479 0.049918 0.012560 
0.026264 0.057872 0.011872 
-0.017155 -0.063572 0.029143 
-0.047265 0.034534 0.014012 
0.004860 -0.007485 0.003000 
0.027727 0.063523 0.037313 
0.054405 -0.039692 0.026523 
-0.007449 0.050901 0.003801 
-0.007551 0.040410 0.002982 
0.012222 -0.027187 0.000000 
-0.028103 -0.045338 0.000972 
0.047010 -0.015833 0.000000 
0.038814 0.058523 0.024338 
0.004709 0.038635 0.002192 
-0.047929 0.010157 0.003000 
-0.047242 0.044135 0.028848 
-0.048247 -0.041762 0.011837 
-0.074976 0.020349 0.043607 
-0.055070 -0.043932 0.024958 
0.021042 -0.061621 0.013669 
-0.019158 0.046758 0.000000 
-0.022662 -0.063878 0.018324 
-0.037997 0.049078 0.025812 
-0.033524 0.062127 0.041811 
0.020719 0.062495 0.018314 
-0.048095 0.021188 0.007606 
0.059399 -0.026993 0.014647 
-0.031036 -0.032226 0.000000 
0.055205 -0.012824 0.015593 
-0.071410 0.006807 0.043234 
0.028426 0.064637 0.025121 
-0.045370 -0.055856 0.045594 
-0.054220 -0.015618 0.016203 
0.011246 0.043232 0.002131 
-0.027785 -0.045703 0.009106 
0.074225 -0.000000 0.038990 
-0.072212 -0.006148 0.029162 
0.065835 -0.027009 0.026297 
-0.030959 -0.056305 0.030030 
0.008537 0.044960 0.000000 
-0.053437 0.013768 0.001553 
-0.033603 -0.050839 0.024419 
0.019304 -0.000735 0.002653 
0.059189 -0.022359 0.011319 
-0.073421 0.014813 0.035066 
-0.074594 0.020587 0.050000 
-0.002799 0.051036 0.000000 
0.027188 0.012697 0.002542 
-0.071670 -0.031313 0.044645 
0.022334 0.067876 0.034492 
-0.040622 0.056321 0.040656 
0.053544 -0.037582 0.015057 
0.073037 0.026238 0.043259 
0.069854 0.026604 0.034874 
-0.069884 -0.005185 0.024104 
0.050749 0.012589 0.007586 
0.016022 0.004252 0.002595 
0.044775 -0.029042 0.001013 
0.023877 0.070512 0.033367 
-0.022814 0.046105 0.003490 
0.058074 0.048053 0.047586 
0.056212 0.036956 0.018373 
-0.046215 -0.005143 0.003000 
0.030769 0.061025 0.020342 
-0.013524 0.072001 0.046002 
-0.024395 0.061496 0.015817 
0.010129 -0.067734 0.037468 
-0.011071 0.006435 0.003000 
0.061851 -0.040611 0.044636 
-0.033134 -0.062883 0.042831 
0.053897 -0.000000 0.001610 
-0.016420 -0.023076 0.003000 
0.019347 0.076387 0.050000 
0.003845 0.065402 0.015121 
-0.046744 -0.052336 0.041611 
-0.030992 0.063754 0.025866 
0.060729 -0.034210 0.038732 
-0.065542 -0.029735 0.045519 
-0.062040 -0.003207 0.009206 
-0.056437 0.001330 0.011235 
0.002640 0.020821 0.002378 
0.043173 -0.031580 0.004891 
0.050082 0.041203 0.027667 
0.047006 -0.025323 0.002593 
-0.060454 0.032564 0.037239 
0.017889 0.070133 0.042266 
-0.064726 0.001684 0.027381 
0.045114 0.005782 0.000000 
-0.027360 0.040774 0.000623 
-0.007779 0.020059 0.002327 
0.030349 0.038296 0.000308 
-0.059750 -0.000000 0.009238 
0.052449 -0.006487 0.006605 
-0.073138 0.006086 0.046134 
-0.019772 0.007442 0.003000 
-0.029190 0.039396 0.000642 
-0.049922 0.019695 0.002544 
0.031477 -0.016371 0.003000 
0.048105 -0.014986 0.000000 
0.007653 -0.044269 0.003000 
0.057892 -0.019598 0.024725 
-0.001118 -0.064343 0.012825 
0.016840 -0.052992 0.001745 
0.075874 0.000954 0.038800 
-0.021328 0.053020 0.012760 
-0.031314 0.038513 0.000000 
-0.040627 0.012261 0.003000 
0.013508 0.065523 0.017888 
-0.050494 0.018264 0.000915 
0.061743 0.015571 0.030428 
0.011149 0.055808 0.013615 
-0.061593 -0.000000 0.012874 
0.002146 -0.075009 0.036454 
0.050830 -0.045513 0.019140 
0.025108 0.051664 0.003774 
-0.063880 0.044503 0.044159 
-0.033769 -0.035455 0.003000 
0.056718 0.053052 0.050000 
0.003015 -0.067287 0.018675 
0.018861 -0.013878 0.003000 
0.012039 -0.048674 0.000000 
-0.033859 0.058855 0.019355 
0.005260 0.002151 0.002757 
0.012118 -0.023703 0.000000 
-0.055160 -0.016036 0.003787 
0.057700 -0.030763 0.031014 
-0.027412 0.050710 0.016106 
0.050802 0.031239 0.018941 
-0.021953 0.037518 0.002101 
-0.023445 -0.055847 0.020118 
0.010100 -0.062661 0.011813 
0.023417 -0.012278 0.000000 
0.026993 0.045188 0.006942 
-0.072897 -0.014135 0.033100 
-0.036802 0.030811 0.000000 
-0.025616 -0.061195 0.031375 
-0.068937 -0.002533 0.036118 
-0.008237 0.053984 0.009969 
-0.034666 -0.042931 0.013059 
0.038331 -0.060985 0.028141 
-0.047331 0.021544 0.006424 
-0.029720 0.040943 0.003622 
-0.025562 -0.032574 0.000000 
-0.000038 0.039864 0.002167 
-0.042467 0.065653 0.050000 
0.023867 0.074379 0.044433 
-0.037661 -0.059681 0.025347 
0.052802 0.032383 0.023311 
-0.004944 -0.077496 0.043205 
0.018108 0.055075 0.010328 
-0.002245 -0.069982 0.041964 
-0.007627 0.039769 0.002885 
0.058518 0.042682 0.039782 
-0.034448 0.033188 0.002057 
0.040188 0.005534 0.000000 
0.042328 0.031426 0.003722 
0.071939 0.019362 0.034008 
-0.067496 0.009015 0.037000 
-0.038510 -0.069687 0.049595 
0.052891 0.050645 0.045750 
0.039317 0.025350 0.002231 
0.050736 -0.025434 0.003162 
-0.001480 0.053753 0.001744 
-0.068240 0.012793 0.040642 
0.002677 -0.027680 0.000000 
0.044322 0.001891 0.002608 
0.028640 0.055516 0.010160 
-0.023756 -0.063075 0.032126 
-0.017455 -0.053285 0.007640 
0.074490 -0.015103 0.038408 
0.017152 0.052172 0.004825 
0.054325 0.014510 0.002735 
-0.014493 0.031193 0.000000 
-0.061570 -0.044672 0.043873 
-0.033096 0.041590 -0.000000 
-0.025563 0.065251 0.037595 
0.033144 -0.059021 0.036317 
-0.001348 -0.075076 0.050000 
0.018536 -0.059653 0.009905 
-0.064645 -0.016470 0.036337 
-0.018507 0.002212 0.000000 
-0.017285 -0.035851 0.000000 
0.039708 0.038532 0.001493 
0.074459 -0.023733 0.044571 
-0.002284 -0.066639 0.016938 
0.012067 -0.008181 0.003000 
-0.023847 0.043863 0.002035 
-0.043850 0.055634 0.025888 
-0.040578 0.055494 0.039261 
0.025282 -0.055616 0.021597 
-0.062679 -0.019673 0.014470 
-0.056016 -0.031773 0.013191 
0.064419 -0.013919 0.015944 
-0.049855 0.054059 0.030867 
0.027610 0.036022 0.000000 
-0.054567 0.034408 0.027505 
-0.002020 0.048166 0.002065 
-0.002522 0.053580 0.001360 
0.045652 0.032228 0.002145 
-0.054928 0.014352 0.015953 
0.039453 -0.011333 0.002986 
0.074052 0.022647 0.042586 
0.055546 0.040087 0.025953 
0.062325 0.017129 0.013010 
-0.042622 -0.031180 0.003680 
0.060615 -0.051937 0.049650 
-0.029816 -0.027887 0.003000 
0.061701 -0.035656 0.041448 
0.018822 -0.056703 0.007304 
0.026559 0.023284 0.002386 
0.042060 0.002641 0.000000 
-0.031513 0.054144 0.010304 
-0.027692 -0.074300 0.048055 
-0.054957 -0.055621 0.044888 
-0.022452 -0.068950 0.039145 
-0.044557 0.040767 0.020585 
0.062904 0.028087 0.021569 
-0.000004 0.000791 0.003000 
0.009833 -0.022818 0.000000 
-0.017565 -0.063775 0.015920 
0.067825 0.019324 0.024985 
0.049780 -0.001592 0.000000 
0.014584 -0.055993 0.013986 
-0.039836 0.045346 0.006288 
-0.011405 0.049579 0.001157 
-0.056590 0.036132 0.018095 
0.057889 -0.019924 0.024910 
0.052457 0.025144 0.018569 
-0.009921 -0.034098 0.003000 
-0.020644 0.056343 0.017365 
0.017434 -0.070251 0.042503 
0.058450 -0.000000 0.006461 
0.006189 -0.053897 0.009793 
-0.001575 0.000725 0.003000 
0.031813 0.022170 0.000000 
-0.046648 -0.034029 0.012051 
0.022838 0.071035 0.044070 
-0.078061 -0.014631 0.048627 
0.012988 -0.007319 0.003000 
-0.015837 0.053921 0.002584 
-0.052683 0.045030 0.036536 
-0.057591 -0.041807 0.034169 
0.035955 0.046745 0.019729 
0.024387 0.057359 0.009840 
0.058933 -0.016454 0.007884 
0.032763 0.059721 0.019805 
0.056265 -0.047174 0.031105 
-0.053301 0.016732 0.014412 
-0.031733 -0.059957 0.019471 
-0.038658 -0.041834 0.015966 
-0.025450 -0.020545 0.003000 
-0.044869 -0.061889 0.040053 
-0.061877 0.015853 0.012649 
-0.047376 0.032210 0.003463 
0.056347 -0.047377 0.031580 
-0.039102 -0.032017 0.000925 
0.026067 -0.032907 0.003000 
-0.046908 0.019885 0.004639 
-0.000149 -0.003189 0.003000 
-0.036826 0.069206 0.050000 
-0.055258 -0.000308 0.008386 
-0.022900 -0.073297 0.040563 
-0.019260 0.013421 0.002967 
-0.064748 -0.019312 0.017993 
0.032351 0.047668 0.016954 
-0.017156 -0.068767 0.039533 
-0.013091 -0.070018 0.026581 
-0.022954 -0.057446 0.022089 
-0.016259 0.043851 0.002159 
0.024612 0.020971 0.002426 
-0.008856 0.015169 0.002353 
-0.069639 -0.019301 0.047234 
-0.009940 0.048655 0.000000 
0.022931 -0.063393 0.017716 
-0.005195 -0.054823 0.011645 
0.045396 -0.005155 0.002729 
-0.029456 -0.012693 0.003000 
-0.044425 -0.043748 0.009490 
0.013222 0.013662 0.002497 
0.066487 0.027956 0.028163 
0.026305 -0.068336 0.043479 
-0.038037 -0.029641 0.003000 
-0.036702 -0.063329 0.047559 
-0.025042 -0.018808 0.003000 
0.072967 -0.008741 0.047360 
0.057911 -0.037631 0.035588 
-0.015265 -0.072794 0.033513 
0.054295 -0.058353 0.049259 
-0.052505 -0.056337 0.050000 
0.029569 0.055135 0.025822 
-0.012677 0.023985 0.000000 
0.072315 0.010626 0.047301 
-0.062773 0.030777 0.023835 
0.036481 -0.068618 0.050000 
-0.044120 0.023251 0.001591 
-0.010289 0.069907 0.025578 
-0.024354 -0.074052 0.044009 
-0.012782 0.000162 0.000000 
-0.054736 0.037057 0.016230 
-0.075546 -0.025233 0.048968 
-0.041839 0.038893 0.014565 
0.012560 -0.040789 0.003000 
0.043888 0.026593 0.003370 
-0.018118 0.040971 0.002091 
-0.020733 0.062772 0.020571 
-0.004879 0.023003 0.000000 
0.057009 0.037700 0.020461 
0.046146 -0.029615 0.001319 
0.029567 -0.070319 0.039417 
-0.030055 0.051211 0.005419 
0.004038 -0.052308 0.000000 
-0.029632 0.072572 0.045491 
-0.052665 0.007692 0.007737 
0.028777 0.040790 0.002293 
-0.006617 0.053420 0.008840 
0.014814 -0.065080 0.032161 
0.017077 0.014408 0.002856 
0.025311 0.023073 0.000000 
0.032468 0.000362 0.002702 
0.059074 -0.041533 0.040096 
-0.056201 0.041013 0.029284 
-0.020351 0.070773 0.043546 
-0.054738 -0.004337 0.001252 
0.047179 0.064556 0.050000 
-0.002167 -0.036100 0.003000 
-0.034181 -0.011839 0.003000 
0.031278 0.065057 0.028320 
0.025123 -0.028680 0.003000 
0.009685 0.050650 0.003300 
0.051479 -0.037686 0.019951 
-0.057750 -0.042125 0.028500 
-0.041764 0.046506 0.026110 
-0.054991 0.030896 0.026139 
-0.062552 0.010615 0.028428 
0.016980 0.076906 0.046787 
0.005919 0.003542 0.000000 
-0.009374 0.064558 0.031116 
-0.037908 0.036267 0.002012 
-0.016662 0.050772 0.002495 
-0.001055 -0.005609 0.003000 
-0.054603 0.047203 0.028086 
-0.057068 0.050063 0.049680 
0.027165 -0.044957 0.000000 
0.067958 0.035691 0.050000 
0.050951 0.014301 0.009074 
-0.065466 0.021247 0.020291 
-0.011469 -0.077191 0.044469 
0.044824 -0.038310 0.004882 
0.054151 -0.034623 0.026876 
-0.056952 -0.023604 0.008573 
0.062449 0.032189 0.024444 
-0.045449 0.041808 0.008483 
-0.014783 0.049466 0.002880 
0.038095 0.041556 0.014286 
-0.022004 -0.045740 0.003000 
0.012479 0.078128 0.047415 
-0.059408 -0.021477 0.029428 
0.035298 0.067628 0.039761 
0.031886 0.061510 0.022167 
-0.039912 -0.039554 0.002311 
-0.023195 0.070581 0.032961 
-0.028730 0.069722 0.036989 
0.030935 0.038077 -0.000000 
0.001385 0.070515 0.025202 
0.029723 -0.000566 0.002985 
0.062760 0.040817 0.035916 
-0.053039 -0.018385 0.002288 
0.066514 -0.025039 0.025980 
0.039805 0.037841 0.010595 
-0.020823 -0.062901 0.022684 
0.044916 0.020402 0.000000 
0.048506 -0.027613 0.002250 
0.066244 0.018219 0.021113 
0.021891 -0.071805 0.045611 
-0.011709 0.018921 0.000000 
-0.041759 -0.030649 0.000679 
0.047769 0.043579 0.028612 
0.045968 -0.026616 0.000000 
0.064285 -0.038722 0.048211 
-0.043013 -0.048717 0.013558 
0.042368 0.036243 0.011129 
-0.025897 0.043705 0.000000 
-0.068374 -0.002135 0.034780 
0.052273 0.027226 0.005046 
0.057855 0.036303 0.034934 
-0.037792 -0.057024 0.038876 
-0.048710 0.027442 0.012543 
0.018685 0.027998 0.000000 
0.041535 0.012015 0.000000 
-0.013815 0.024504 0.000000 
0.028108 0.056123 0.025723 
0.068424 0.027017 0.049343 
-0.052408 -0.044810 0.021165 
0.007470 0.037245 0.000000 
0.002565 -0.050335 0.003000 
-0.045602 -0.027663 0.001907 
0.046727 0.049220 0.018473 
0.058157 -0.025390 0.011672 
-0.022376 0.070695 0.032574 
0.011707 0.054376 0.010753 
0.046798 0.033865 0.007934 
0.077778 0.008867 0.044491 
-0.022622 0.054114 0.016050 
0.021540 0.070525 0.031469 
0.015243 -0.062170 0.026340 
-0.007673 -0.000719 0.003000 
-0.038712 0.065681 0.038871 
-0.019635 -0.001526 0.000000 
0.039642 -0.004356 0.002762 
-0.042954 -0.027855 0.002383 
0.021500 -0.067216 0.036432 
0.064409 -0.007440 0.014263 
0.018231 0.053164 0.009378 
-0.005912 0.020035 0.002338 
0.034396 0.054022 0.012810 
-0.005588 0.060582 0.023165 
0.064475 -0.006297 0.014205 
-0.012858 -0.005498 0.003000 
-0.026458 0.026373 0.002157 
-0.046075 -0.056174 0.046891 
-0.036978 0.054501 0.033442 
0.006607 -0.040731 0.000000 
-0.075385 -0.018909 0.043751 
0.064749 0.041668 0.042437 
0.063049 -0.000000 0.019293 
0.019091 0.058610 0.019042 
0.041008 -0.041950 0.018271 
-0.068540 -0.005450 0.021544 
-0.020937 0.008390 0.000000 
-0.048213 0.038182 0.020881 
-0.053971 -0.058010 0.047849 
-0.015432 -0.069520 0.026260 
-0.013906 -0.043835 0.003000 
-0.060573 0.044357 0.036515 
-0.025500 0.064306 0.021771 
0.039216 -0.036784 0.002229 
-0.057542 -0.025357 0.010723 
0.040485 -0.060056 0.046571 
0.066276 -0.016414 0.020177 
-0.039068 0.006689 0.000000 
-0.008047 -0.052591 0.002466 
-0.025604 0.058176 0.026137 
0.046195 0.033645 0.009833 
-0.065059 -0.034658 0.031167 
0.034053 -0.043582 0.012686 
-0.035578 -0.000654 0.003000 
-0.053976 -0.000950 0.000115 
-0.066458 -0.012363 0.019399 
0.037835 0.018387 0.000000 
0.076272 0.000472 0.048902 
0.057091 -0.027853 0.011892 
0.002856 0.042545 0.002142 
-0.002935 0.049536 0.001071 
-0.035699 -0.047832 0.005555 
0.008257 -0.069370 0.023957 
0.000113 0.033375 0.000000 
-0.017567 -0.036696 0.000000 
0.034704 -0.056834 0.034580 
0.068192 -0.003464 0.020306 
-0.044715 -0.026568 0.004943 
-0.070618 -0.020828 0.049921 
0.024132 -0.047721 0.000474 
0.024112 -0.045708 0.000000 
0.029445 0.007246 0.002614 
0.001529 0.055532 0.001787 
0.068062 0.023002 0.027045 
-0.000820 0.040401 0.002159 
-0.052935 0.002947 0.000000 
-0.013928 -0.069008 0.024836 
0.031953 -0.016117 0.000000 
0.079743 0.001847 0.049302 
0.020073 0.072897 0.047795 
0.039414 0.053606 0.016845 
0.009132 0.059074 0.020148 
-0.046303 -0.014360 0.000000 
0.059393 0.039466 0.039587 
-0.026263 0.023947 0.000000 
-0.066131 -0.006476 0.033250 
0.012066 -0.058670 0.005603 
0.022278 -0.047888 0.005591 
0.055747 0.046411 0.042205 
0.014771 -0.070111 0.042222 
-0.038330 -0.002791 0.003000 
-0.048869 0.051466 0.042391 
0.017262 -0.073150 0.048301 
-0.020564 0.012821 0.000000 
0.049739 -0.061311 0.047298 
0.062667 -0.000000 0.012145 
0.009223 -0.000956 0.000000 
-0.047766 -0.026327 0.010509 
0.023107 0.065963 0.022852 
-0.033091 -0.054419 0.029471 
-0.060025 0.043627 0.037554 
0.054815 0.048106 0.043869 
-0.022310 0.051755 0.011849 
-0.035633 -0.052165 0.011270 
0.056619 0.008689 0.003532 
0.006324 0.039351 0.000000 
0.027608 -0.058439 0.028906 
0.071875 -0.020262 0.034479 
-0.003772 0.038296 0.002748 
-0.055730 -0.006738 0.013416 
-0.069912 -0.013517 0.044465 
-0.029343 0.015019 0.003000 
0.039946 -0.049086 0.010940 
0.008460 -0.061022 0.008459 
-0.001057 -0.061466 0.024932 
0.001371 0.049228 0.000000 
-0.054346 -0.039303 0.022757 
0.035261 0.001997 0.002680 
0.008348 0.051555 0.002015 
-0.004175 -0.042353 0.003000 
0.008230 0.007372 0.002523 
-0.038050 0.064531 0.050000 
-0.063900 -0.013775 0.033425 
0.026404 0.042587 -0.000000 
0.024637 0.031393 0.002271 
0.064721 0.003290 0.013760 
0.016799 0.065475 0.018714 
-0.001685 -0.053508 0.000000 
0.053061 0.033018 0.024153 
0.042170 -0.036496 0.011284 
-0.058094 -0.021391 0.008891 
-0.040543 -0.050921 0.032385 
-0.052332 0.002165 0.000000 
-0.075621 0.018094 0.043846 
-0.022435 -0.075722 0.047313 
0.033136 0.027620 0.000000 
0.058719 -0.028308 0.031413 
-0.031461 -0.037560 0.000000 
0.077973 0.002959 0.044499 
-0.067064 0.018753 0.041868 
0.042725 -0.039187 0.003942 
0.033492 -0.071401 0.050000 
-0.050932 0.039510 0.013086 
0.021943 -0.009261 0.000000 
-0.003311 -0.073133 0.031362 
-0.033882 0.034477 0.002052 
-0.029071 0.050273 0.004243 
-0.003653 0.052746 0.000000 
-0.004897 0.021794 0.000000 
-0.051620 -0.040698 0.015352 
-0.025681 -0.065267 0.023734 
-0.050284 -0.039491 0.025408 
0.077661 -0.018349 0.050000 
-0.021369 -0.064777 0.025104 
-0.035177 -0.060426 0.023360 
0.002167 -0.035429 0.000000 
-0.001582 0.070532 0.025242 
0.068692 -0.000000 0.023494 
0.041736 -0.036604 0.010946 
-0.020900 -0.063022 0.019910 
0.049931 -0.040002 0.012120 
0.060184 0.052359 0.049490 
-0.050374 0.053027 0.046686 
-0.069638 -0.000000 0.031215 
-0.012239 0.000917 0.000000 
-0.023774 -0.000324 0.003000 
-0.052556 -0.047374 0.024670 
0.025547 0.050919 0.014268 
-0.003802 -0.008227 0.003000 
0.031695 -0.041591 0.000000 
0.008016 -0.018468 0.003000 
-0.030030 -0.054957 0.010359 
0.062185 0.017248 0.032199 
-0.025400 0.059959 0.014301 
-0.054932 -0.013784 0.003021 
-0.065440 0.014805 0.036434 
-0.053325 -0.057243 0.044867 
0.072036 -0.033762 0.048699 
-0.033414 0.040246 0.006847 
-0.070099 0.036848 0.048269 
0.055847 -0.021374 0.021900 
-0.044060 0.030233 0.001350 
0.022584 0.037214 0.000000 
0.037937 -0.040906 0.013109 
0.048017 -0.022749 0.008414 
0.017650 0.053024 0.003908 
0.050382 -0.032286 0.018556 
-0.057145 0.023898 0.025813 
-0.049596 -0.007830 0.002319 
0.049601 0.044821 0.016364 
-0.051557 -0.051631 0.045935 
-0.053195 -0.036820 0.026556 
0.059599 -0.000000 0.005781 
0.043475 0.004800 0.002566 
0.018126 0.075761 0.044277 
-0.046210 0.006655 0.003000 
0.017184 0.029736 0.002315 
0.044627 -0.051203 0.037009 
0.054765 -0.050431 0.047590 
0.062232 -0.008410 0.010614 
-0.065910 -0.033721 0.048461 
-0.068292 -0.013251 0.023242 
0.027108 0.051906 0.017696 
-0.079426 -0.001797 0.050000 
0.069724 -0.003261 0.023356 
-0.016818 -0.066253 0.020245 
-0.017504 0.059594 0.021188 
-0.023174 0.039606 0.002076 
-0.043218 -0.045986 0.027644 
0.067123 0.032128 0.033698 
0.047756 0.041091 0.010598 
0.052780 -0.037953 0.015096 
-0.046456 0.038592 0.006403 
-0.039436 -0.066510 0.042040 
0.065933 0.037424 0.037155 
-0.034419 -0.046552 0.003903 
-0.022318 0.035992 0.002113 
0.032840 0.019817 0.000000 
0.068743 0.020583 0.046292 
0.041127 0.003966 0.002612 
0.025259 -0.006309 0.002732 
0.050368 0.043929 0.032164 
0.053380 -0.055344 0.040974 
0.029360 0.048847 0.003279 
-0.060077 -0.050315 0.045225 
0.077028 -0.000000 0.042621 
0.053635 0.042031 0.020024 
0.020670 0.062434 0.016415 
0.064536 -0.032229 0.028100 
0.021432 -0.049227 0.001718 
0.039592 -0.037889 0.000987 
0.011502 -0.069273 0.040546 
-0.062610 0.045525 0.047203 
0.043994 -0.057384 0.029260 
0.050855 -0.024373 0.014596 
0.034652 -0.046216 0.017407 
0.021254 0.037643 0.000000 
0.066476 -0.000000 0.022672 
-0.064616 -0.022191 0.019423 
