
# .PCD v.6 - Point Cloud Data file format
FIELDS x y z 
SIZE 4 4 4 
TYPE F F F 
COUNT 1 1 1 
WIDTH 1645
HEIGHT 1
VIEWPOINT 0.000000 0.000000 0.000000 1.000000 0.000000 0.000000 0.00000
POINTS 1645
DATA ascii
-0.047821 -0.017613 0.041291 
0.038196 -0.040966 0.039366 
0.021941 -0.030659 0.013894 
0.046038 -0.024562 0.042373 
-0.049275 0.027236 0.048000 
-0.017008 0.050057 0.041236 
0.045519 -0.013207 0.016363 
0.021638 0.023292 0.000887 
0.007861 -0.024485 0.003000 
0.041494 0.019022 0.029412 
-0.008952 -0.031381 0.000000 
0.018614 -0.021630 0.003000 
-0.007983 -0.000231 0.000000 
-0.058016 -0.002690 0.045048 
0.019484 0.045026 0.035730 
-0.023281 -0.047002 0.027794 
-0.017947 -0.027575 0.003825 
-0.016422 0.052261 0.037497 
0.017052 -0.053618 0.045083 
-0.019218 0.047712 0.039904 
-0.014873 -0.038160 0.018280 
-0.019032 0.028678 0.000000 
-0.025997 0.039129 0.033551 
0.009804 -0.048461 0.036440 
-0.013618 0.032278 0.000022 
-0.021243 -0.044111 0.036343 
0.026869 -0.043282 0.024561 
0.026883 0.000496 0.000000 
0.034791 0.014687 0.002634 
-0.049738 -0.006835 0.023011 
-0.014197 -0.025513 0.000000 
-0.022508 -0.052680 0.042228 
-0.033836 -0.024638 0.008048 
0.020515 -0.053850 0.043832 
-0.003579 0.027449 0.000000 
0.029351 0.015669 0.000000 
0.022850 -0.051130 0.037666 
0.002629 -0.050787 0.041294 
-0.044907 -0.027767 0.029000 
0.015854 0.043635 0.028855 
0.037001 0.038563 0.031269 
0.015278 0.048474 0.031003 
0.038194 -0.028119 0.016552 
0.000887 0.027158 0.000000 
-0.010918 0.051166 0.028079 
0.001558 -0.037201 0.002201 
-0.047633 -0.017171 0.024010 
0.055083 -0.000000 0.037554 
-0.032667 0.043393 0.034121 
-0.004916 0.003511 0.000000 
-0.043995 0.005130 0.011195 
0.052852 0.009128 0.031386 
0.045240 -0.001996 0.013067 
-0.028944 -0.049107 0.042236 
-0.056790 0.015040 0.047441 
-0.003465 -0.002692 0.003000 
-0.056242 -0.000000 0.042133 
-0.035018 -0.031485 0.031773 
0.045710 0.027415 0.043636 
0.031301 -0.004247 0.000000 
-0.024228 0.023016 0.000000 
0.027242 -0.037959 0.033086 
0.033726 -0.017661 0.012737 
0.019285 0.004879 0.000000 
0.010269 -0.032961 0.000000 
-0.050360 -0.007916 0.039884 
0.043920 0.036309 0.041765 
-0.040705 0.023025 0.014895 
0.057137 -0.010986 0.044907 
-0.039277 0.018418 0.009310 
-0.024900 0.031167 0.018409 
-0.020928 0.026012 0.000000 
0.038991 -0.042429 0.044445 
-0.058046 -0.006527 0.045403 
-0.038544 -0.006893 0.003914 
-0.010508 0.024455 0.002631 
0.014784 -0.051639 0.031319 
0.041048 -0.015140 0.025882 
0.021526 -0.044730 0.037638 
0.038069 0.010607 0.016836 
-0.030964 0.014640 0.005301 
0.001341 0.053614 0.047195 
0.027245 -0.037144 0.031681 
0.041160 0.007497 0.007387 
-0.022039 -0.028341 0.000326 
0.047476 0.007887 0.034016 
-0.013370 -0.026790 0.000000 
0.010913 -0.030441 0.000000 
-0.038470 0.027420 0.028957 
0.013719 -0.037597 0.015843 
-0.009492 -0.024437 0.003000 
-0.001953 -0.057698 0.044094 
0.047702 0.034524 0.046525 
-0.043153 -0.011077 0.011876 
0.049993 0.007893 0.024064 
-0.025976 -0.012732 0.000000 
-0.016690 0.051919 0.040073 
-0.048448 -0.011679 0.038550 
-0.028350 0.025047 0.012146 
0.038029 0.027223 0.023105 
-0.022532 0.041969 0.034122 
-0.011543 0.035228 0.009134 
-0.037973 -0.000985 0.010568 
0.041374 -0.039228 0.042604 
0.014721 -0.037961 0.017683 
-0.023591 -0.040306 0.032744 
-0.010886 0.006962 0.000000 
-0.020097 -0.015439 0.003000 
0.009024 -0.046436 0.016544 
0.033156 -0.029541 0.025936 
-0.051608 0.011359 0.044788 
-0.032593 -0.035140 0.017284 
-0.019634 -0.035426 0.019499 
-0.000950 -0.032816 0.000000 
0.035000 0.005010 0.001213 
0.014955 -0.048957 0.024915 
-0.013132 0.057076 0.046446 
-0.017170 0.051790 0.044411 
0.045179 0.012475 0.032460 
0.052949 -0.000348 0.029881 
0.023730 0.017662 0.002946 
-0.023513 0.036675 0.026196 
0.000430 0.041102 0.021082 
0.026287 0.022857 0.000000 
0.043295 -0.000720 0.009825 
-0.024097 -0.041530 0.017284 
-0.002858 0.053766 0.032297 
-0.042872 0.034045 0.035615 
-0.041928 0.016686 0.028980 
0.021374 -0.023314 0.003000 
0.019332 0.042134 0.014817 
-0.002136 0.049626 0.038872 
-0.036194 0.027099 0.025516 
-0.021900 -0.024899 0.004025 
0.039838 0.004799 0.016707 
-0.053668 0.018954 0.041602 
-0.050239 0.004373 0.037394 
0.012485 0.008413 0.003000 
-0.002070 0.016401 0.000000 
0.001905 -0.026623 0.000000 
-0.022014 -0.054479 0.047420 
0.020705 0.044103 0.019470 
0.027853 -0.040664 0.038529 
0.038091 -0.014523 0.005424 
-0.014483 -0.052513 0.034031 
0.028238 0.018046 0.000000 
-0.013388 0.006899 0.000000 
0.032300 0.035349 0.035052 
0.036072 0.029665 0.029890 
-0.022779 -0.008170 0.003000 
0.047738 -0.026116 0.046870 
-0.012004 -0.050570 0.027225 
-0.025023 0.025545 0.000379 
0.042552 0.018344 0.031099 
-0.008536 0.048626 0.036784 
0.024302 -0.022392 0.003000 
-0.029570 0.034275 0.029632 
-0.023895 0.031703 0.018078 
-0.028759 0.014230 0.003000 
0.002188 -0.051849 0.027315 
0.050443 0.013239 0.043651 
0.022276 0.030889 0.014980 
0.036717 -0.032437 0.020089 
-0.031636 0.019092 0.009561 
0.014755 -0.008187 0.000000 
0.037408 -0.001905 0.010020 
-0.013301 0.041974 0.016082 
0.010088 -0.052915 0.045735 
-0.014441 0.056483 0.046001 
0.016559 -0.036892 0.018076 
-0.012472 -0.030799 0.000000 
-0.012775 -0.026368 0.000000 
0.027731 0.017846 0.000732 
-0.003502 -0.032919 0.004006 
-0.042241 0.014795 0.011913 
0.044885 -0.000000 0.014299 
-0.043441 0.028295 0.026934 
-0.007148 0.031246 0.000514 
0.028279 0.046564 0.048000 
0.022276 -0.022667 0.000000 
0.031409 -0.037733 0.037914 
0.055034 -0.013953 0.040647 
-0.040553 0.039723 0.048000 
-0.027263 0.005067 0.000000 
0.002731 0.058057 0.048000 
-0.018632 0.021268 0.000000 
0.042976 0.027410 0.038088 
0.050579 -0.011652 0.042854 
-0.022409 0.043477 0.036576 
0.028149 0.036365 0.031649 
0.032561 0.001815 0.000000 
0.049784 0.022718 0.033526 
0.009867 -0.007874 0.003000 
0.050003 -0.024985 0.038113 
-0.007122 0.003189 0.003000 
-0.004805 0.026511 0.000000 
-0.012815 0.007772 0.000000 
0.040515 0.036470 0.047142 
0.014101 0.050262 0.027475 
-0.054902 -0.016931 0.043627 
-0.042873 -0.000000 0.019314 
0.028204 -0.023692 0.009621 
0.021245 0.025760 0.004723 
-0.014499 -0.057078 0.047747 
-0.015943 -0.048647 0.026329 
-0.033120 -0.038093 0.023757 
0.041559 0.019452 0.029834 
0.050331 -0.017897 0.046574 
0.025096 -0.035019 0.025317 
-0.037007 0.028643 0.029206 
0.015700 0.047312 0.034954 
-0.028851 0.042180 0.025305 
0.010399 0.042064 0.023091 
0.002716 0.047751 0.034959 
0.046591 -0.014059 0.019168 
-0.045957 -0.030412 0.035662 
0.054737 -0.002897 0.045368 
-0.027163 0.017130 0.000000 
0.029108 0.020559 0.005057 
0.026530 0.030074 0.018810 
-0.045991 -0.027898 0.031494 
0.050813 -0.029340 0.047950 
0.002556 0.009740 0.000000 
0.008386 -0.050539 0.025520 
0.017831 0.041839 0.028233 
0.007784 0.001458 0.000000 
-0.054069 -0.019060 0.042987 
0.014107 0.031973 0.000284 
-0.042340 0.017264 0.030191 
0.052697 0.006179 0.029396 
-0.034764 0.030445 0.013997 
-0.046798 -0.000000 0.025137 
-0.019866 -0.044241 0.034860 
-0.039677 0.032047 0.038435 
-0.030767 0.041054 0.042853 
0.022778 -0.027222 0.000560 
-0.020211 0.045055 0.036552 
-0.056389 -0.007998 0.041164 
-0.001631 -0.020217 0.003000 
-0.003231 0.041370 0.006616 
-0.018280 0.049479 0.028318 
-0.024070 -0.041141 0.016382 
0.023813 -0.004234 0.000000 
0.011928 0.037339 0.013007 
-0.040929 0.021381 0.030087 
-0.035428 0.032185 0.017133 
-0.034819 0.015638 0.013848 
0.046021 -0.007711 0.030947 
-0.046449 0.011926 0.034849 
-0.017521 0.025016 0.000000 
0.001243 -0.003264 0.000000 
-0.017486 0.028577 0.002055 
0.010041 0.039352 0.005577 
0.033731 0.023986 0.015674 
-0.051086 -0.025734 0.041860 
-0.041455 0.015061 0.026951 
0.005683 -0.036851 0.012211 
-0.026890 0.027272 0.014167 
-0.014000 -0.026744 0.000000 
-0.030339 0.037830 0.019059 
0.014085 0.004475 0.000000 
-0.007259 0.050867 0.041462 
-0.046497 -0.012924 0.035435 
-0.033178 0.005775 0.000000 
0.005642 0.058059 0.045177 
-0.035584 -0.006617 0.009348 
-0.009026 -0.033821 0.000000 
0.001509 0.038445 0.003445 
-0.027383 0.047279 0.033993 
-0.033684 -0.026187 0.008539 
0.053574 0.013568 0.036061 
0.033911 0.007279 0.003000 
0.010268 -0.030841 0.000051 
-0.034714 -0.040185 0.030343 
-0.026194 0.024886 0.000720 
-0.013804 0.043600 0.017801 
0.022252 0.028446 0.000599 
0.009690 0.034242 0.000000 
-0.039402 -0.037255 0.033727 
0.009931 -0.031321 0.000000 
0.005866 0.023309 0.000000 
0.000465 -0.053408 0.046765 
-0.042116 0.008538 0.023925 
-0.024497 -0.038869 0.013575 
0.039541 0.028766 0.024640 
-0.035798 0.009235 0.001480 
-0.048320 0.009907 0.021198 
-0.016024 0.040068 0.022883 
-0.039645 -0.010165 0.005930 
0.026726 -0.038643 0.015569 
0.016732 0.053411 0.038525 
0.026554 0.034888 0.010521 
-0.027769 0.015575 0.000000 
-0.010012 -0.043755 0.026619 
0.021892 0.043159 0.018558 
-0.047206 -0.020246 0.041824 
-0.026463 0.019705 0.000559 
-0.043491 0.018933 0.016938 
0.046588 0.026362 0.030594 
-0.039133 -0.002925 0.004133 
0.037208 -0.000000 0.003164 
0.002719 0.048267 0.018956 
0.002845 0.008456 0.003000 
0.038148 -0.016316 0.005975 
-0.032106 0.038202 0.022391 
-0.038806 -0.025452 0.028306 
0.007333 -0.050811 0.025658 
-0.004433 -0.025756 0.003000 
-0.000794 0.012339 0.003000 
-0.053937 0.021103 0.048000 
0.050983 -0.027548 0.048000 
0.027121 0.048742 0.038172 
0.044998 -0.000000 0.016373 
-0.029668 0.035106 0.031192 
-0.053508 0.000714 0.041492 
0.002637 0.030415 0.002218 
-0.035257 -0.025743 0.022013 
0.057064 -0.010073 0.044228 
0.006190 -0.035138 0.008637 
-0.049847 -0.000000 0.031772 
0.026125 -0.024583 0.008559 
0.035362 -0.045064 0.042208 
-0.003641 -0.009722 0.003000 
-0.043652 0.038053 0.045310 
0.030814 0.043341 0.046878 
-0.047715 0.007269 0.034277 
0.018448 -0.035064 0.017226 
-0.051470 0.022167 0.048000 
0.002525 0.033979 0.006218 
-0.024532 0.050025 0.036875 
0.047127 -0.012863 0.036671 
-0.029926 -0.003122 0.000000 
-0.028597 0.033616 0.027274 
-0.027319 0.010304 0.003000 
0.005280 -0.055761 0.038284 
-0.038542 -0.014044 0.020059 
0.001707 0.052254 0.028259 
0.021599 -0.053302 0.043242 
0.009422 -0.038999 0.016693 
0.029161 0.037296 0.034494 
-0.047803 -0.013271 0.021548 
-0.025763 0.044649 0.025690 
-0.013123 -0.048338 0.022690 
0.041855 0.036165 0.036796 
-0.018567 0.046548 0.037098 
0.034174 -0.043023 0.035623 
-0.020939 -0.036166 0.006208 
-0.037026 -0.031473 0.034233 
-0.031804 0.016437 0.000431 
-0.048075 0.002681 0.018508 
0.037695 -0.018188 0.021142 
-0.001148 -0.037452 0.013466 
0.049190 -0.000000 0.021705 
-0.002845 -0.050113 0.023264 
-0.034309 0.032025 0.031675 
0.021757 0.042450 0.017074 
0.049114 0.019672 0.045305 
0.043666 0.032224 0.033612 
-0.037599 0.006173 0.013314 
0.013925 -0.038320 0.005601 
-0.054994 -0.009677 0.048000 
0.037504 0.017455 0.020260 
0.044041 0.028169 0.027910 
0.036963 0.021150 0.021661 
0.037129 0.025782 0.025129 
-0.009301 -0.000636 0.000000 
-0.049087 0.007708 0.021936 
-0.017145 -0.017324 0.003000 
-0.035333 -0.039992 0.031004 
-0.031575 0.028996 0.007963 
-0.032935 0.017350 0.001850 
-0.023239 -0.018627 0.003000 
0.030451 -0.024382 0.003428 
-0.029987 -0.025983 0.015920 
0.056207 -0.010244 0.041775 
0.037150 -0.029695 0.016842 
-0.024297 0.021330 0.000725 
-0.028407 0.042524 0.042440 
-0.002798 0.038184 0.014992 
0.033451 -0.026196 0.008212 
-0.049361 -0.012672 0.024796 
0.026362 -0.012802 0.000000 
-0.050509 -0.016360 0.029258 
-0.015765 -0.049200 0.026155 
-0.026958 0.041983 0.022182 
-0.021200 -0.031281 0.002127 
-0.007393 0.041945 0.022841 
0.040345 0.039511 0.040925 
0.052301 0.017812 0.036050 
0.049351 0.021612 0.030705 
-0.044172 0.037296 0.044935 
-0.023002 0.029908 0.013891 
0.031982 -0.029295 0.008846 
0.020324 0.014604 0.000000 
-0.001608 -0.054559 0.034676 
-0.024610 0.002762 0.003000 
0.046228 -0.012327 0.017565 
-0.032732 -0.022454 0.013960 
0.017980 -0.035213 0.003880 
0.011464 -0.023180 0.000000 
0.045942 -0.008535 0.015435 
-0.019376 -0.030169 0.000074 
-0.029880 0.027875 0.018953 
0.016585 -0.006504 0.003000 
0.037473 -0.027486 0.015315 
-0.008244 -0.039057 0.004869 
0.031552 -0.036617 0.018472 
-0.021611 -0.023659 0.003000 
0.053614 0.001646 0.031842 
0.027324 -0.050820 0.048000 
0.019667 0.016524 0.000000 
-0.023017 0.004708 0.000000 
-0.045037 -0.000000 0.014205 
0.036297 0.025959 0.018120 
0.013312 -0.055998 0.043554 
0.040719 0.002266 0.005719 
0.050822 0.002102 0.036972 
-0.046142 -0.023343 0.041759 
-0.023146 0.011386 0.003000 
-0.033574 0.031288 0.029481 
-0.013744 -0.015680 0.000000 
0.029505 -0.003898 0.000000 
-0.023812 -0.022368 0.000000 
-0.027541 -0.045438 0.029698 
-0.052934 -0.002261 0.029846 
0.011748 0.050961 0.027991 
-0.014546 0.031864 0.000646 
-0.034382 0.000309 0.003000 
-0.005685 -0.032940 0.004048 
-0.001058 -0.042071 0.007785 
-0.023043 -0.026957 0.000674 
0.039805 -0.000000 0.005851 
0.047533 -0.030968 0.040551 
-0.007084 0.048904 0.021241 
0.024005 0.021000 0.000000 
0.039878 0.040127 0.041261 
0.026239 0.003741 0.003000 
-0.050769 -0.026545 0.042125 
-0.016464 0.052343 0.040264 
-0.036208 -0.000000 0.006375 
0.024810 -0.037830 0.012466 
0.004396 -0.033901 0.003000 
-0.040106 0.027267 0.019004 
-0.041964 -0.016597 0.028726 
0.004762 0.035000 0.000989 
-0.021652 -0.038199 0.026741 
0.035578 0.035825 0.039926 
0.051616 -0.010127 0.043928 
0.055463 0.003856 0.037390 
0.001790 -0.007568 0.000000 
0.001363 -0.009211 0.000000 
0.005989 0.035000 0.000440 
-0.029956 0.023644 0.011733 
-0.003810 -0.027301 0.000000 
0.049205 -0.029759 0.043754 
0.055609 -0.000000 0.041736 
0.011621 -0.002799 0.003000 
-0.015076 -0.045406 0.016954 
0.021672 -0.001729 0.003000 
-0.002659 0.028507 0.002525 
-0.049032 -0.023218 0.032019 
0.047938 0.017284 0.041306 
-0.024001 0.031303 0.004149 
-0.036968 -0.040069 0.034583 
0.009246 0.031261 0.000544 
-0.010787 0.049515 0.024292 
-0.004368 0.010026 0.000000 
0.016903 0.035599 0.016414 
0.018483 -0.000674 0.003000 
-0.027625 -0.019493 0.001273 
0.017506 0.027858 0.003776 
-0.035940 -0.036546 0.025601 
0.051139 0.026414 0.043420 
-0.034832 -0.007956 0.000078 
-0.032905 0.039902 0.043538 
-0.011651 -0.036298 0.009245 
0.013475 -0.009831 0.000000 
0.029471 0.026605 0.016370 
-0.048365 0.029370 0.040651 
-0.049184 0.003879 0.021097 
-0.038939 -0.018567 0.008699 
0.034434 -0.011920 0.000785 
-0.005829 -0.027680 0.000000 
-0.037153 0.038105 0.030580 
-0.008282 0.053751 0.033505 
0.036976 0.020267 0.007015 
0.011009 -0.034130 0.005462 
-0.042597 0.005667 0.022973 
-0.053088 0.006696 0.044640 
0.012940 -0.045804 0.016886 
-0.023120 -0.037899 0.010813 
0.023719 0.024958 0.002291 
-0.027030 0.043370 0.024966 
0.029928 0.031050 0.024720 
0.018233 -0.038699 0.008193 
-0.014747 -0.030674 0.000000 
0.041061 -0.009389 0.007853 
-0.017671 0.030731 0.000000 
-0.028737 -0.008261 0.000000 
-0.044178 -0.023537 0.022758 
-0.035820 0.039542 0.030969 
0.038708 0.034581 0.027226 
-0.026266 0.023734 0.000939 
-0.032831 0.004609 0.002636 
-0.017959 -0.054200 0.042240 
-0.034878 0.022319 0.018293 
-0.031081 0.043507 0.031279 
-0.032368 0.047392 0.042210 
0.040512 -0.014515 0.024373 
-0.012456 0.032486 0.000000 
0.049405 0.020655 0.046561 
-0.050099 0.010060 0.040905 
-0.015293 -0.030662 0.005950 
-0.016705 -0.051896 0.044036 
-0.051511 0.021148 0.048000 
-0.047709 -0.016101 0.040041 
0.020592 -0.027336 0.003000 
-0.033506 -0.026696 0.021517 
-0.015544 -0.023126 0.000000 
0.008897 -0.020796 0.000000 
-0.032192 -0.009604 0.000000 
0.040978 0.012268 0.023799 
0.046155 -0.029861 0.035177 
-0.014183 -0.031442 0.005936 
-0.011519 -0.057492 0.046246 
0.025302 0.022844 0.004633 
0.004653 -0.034739 0.007802 
0.012576 -0.022719 0.003000 
0.045108 0.007650 0.013804 
-0.007093 -0.050252 0.024289 
0.037306 0.030686 0.033201 
-0.013637 0.030744 0.000000 
-0.016202 0.007008 0.000000 
-0.012459 0.039156 0.011667 
-0.028213 0.018860 0.000000 
-0.016794 -0.055180 0.048000 
-0.004300 0.033980 0.006219 
-0.013381 0.055227 0.041426 
-0.021128 -0.034726 0.020151 
0.037157 -0.023667 0.010354 
-0.029556 0.014927 0.002602 
-0.044054 0.031061 0.032474 
-0.000388 -0.044673 0.012122 
0.015183 -0.044156 0.028885 
0.043653 -0.031281 0.041905 
-0.027800 0.017188 0.000000 
0.013695 0.031016 0.000000 
0.017926 0.035185 0.016972 
0.025869 -0.043613 0.041144 
-0.054167 -0.014277 0.039263 
0.035898 0.032528 0.034683 
0.025149 0.038418 0.031445 
0.015781 -0.048075 0.026124 
-0.008031 0.034006 0.006273 
0.033178 -0.035128 0.035623 
-0.051649 -0.007951 0.042523 
0.000552 0.036497 0.011473 
-0.005049 -0.011157 0.003000 
0.036978 0.027127 0.014178 
0.047731 0.030605 0.040308 
-0.005623 -0.048450 0.036417 
-0.030627 0.040341 0.024326 
0.000725 -0.032897 0.000000 
0.015680 -0.039150 0.020888 
0.031529 -0.020057 0.009899 
-0.014815 -0.031556 0.000000 
-0.042125 -0.009882 0.009753 
0.021177 -0.031082 0.002200 
-0.000110 -0.035846 0.000846 
0.031920 -0.040640 0.026842 
-0.019041 -0.025561 0.000000 
0.002752 0.045514 0.013524 
0.034391 0.011825 0.010251 
0.030396 0.029147 0.021967 
0.016570 0.056153 0.047080 
0.044887 -0.037556 0.046745 
0.024172 -0.040210 0.033135 
-0.051827 -0.007978 0.042901 
-0.007074 0.036954 0.012425 
0.044821 -0.027334 0.041779 
-0.031189 0.035715 0.016207 
0.016395 0.033337 0.001720 
-0.044587 0.032393 0.035960 
0.018602 0.018661 0.002728 
0.016775 0.054385 0.048000 
-0.028676 0.028345 0.018258 
0.031909 0.020005 0.010636 
-0.012628 -0.038784 0.009174 
0.036450 0.026142 0.021049 
0.030292 0.018089 0.006061 
-0.012173 -0.057866 0.047783 
-0.045753 0.022721 0.024948 
-0.025016 -0.036410 0.027846 
0.056331 0.004362 0.039993 
-0.009636 -0.018544 0.000000 
0.032592 -0.031811 0.029154 
0.048769 0.021779 0.029362 
-0.018423 0.055634 0.047284 
-0.016031 0.050961 0.035760 
-0.005638 -0.031071 0.000000 
0.001213 0.034484 0.007271 
-0.016194 0.014312 0.003000 
0.012027 -0.052143 0.031162 
0.032553 -0.005127 0.002343 
0.036726 0.021233 0.007321 
-0.030918 -0.032840 0.011947 
0.009041 0.043867 0.026854 
-0.034375 0.010470 0.009593 
-0.016084 -0.049753 0.033513 
-0.006343 -0.044359 0.027880 
-0.025299 0.010057 0.003000 
0.047352 -0.021953 0.026991 
-0.034719 -0.000795 0.000000 
-0.000900 -0.027125 0.003000 
0.012341 -0.037646 0.007847 
0.015268 0.048542 0.027044 
-0.010619 0.041102 0.021082 
0.039022 -0.027904 0.030450 
0.011604 -0.035986 0.008336 
-0.003697 -0.029807 0.003000 
-0.051440 -0.020088 0.035725 
0.048527 0.018685 0.026511 
-0.024318 -0.038722 0.013186 
0.025519 -0.052602 0.048000 
-0.024703 0.044010 0.023064 
0.027414 -0.048983 0.038834 
-0.039826 -0.012001 0.021283 
-0.011415 0.034935 0.004292 
0.042670 0.015284 0.029269 
0.054566 0.000931 0.034698 
-0.045608 -0.030642 0.035263 
-0.008508 -0.034623 0.001963 
-0.003655 -0.011498 0.000000 
0.044576 0.024450 0.023918 
-0.035009 -0.025348 0.009729 
-0.035000 -0.002227 0.002934 
-0.054690 -0.000436 0.035070 
0.039954 0.015319 0.008788 
-0.015230 0.047791 0.033770 
0.037220 0.037859 0.030177 
0.035047 -0.029224 0.027756 
0.014806 -0.033772 0.001754 
0.042756 -0.025859 0.036593 
0.049285 0.010361 0.039358 
0.026444 0.029915 0.018426 
0.009946 0.048735 0.037013 
-0.029362 0.042034 0.042788 
-0.048322 0.025957 0.034923 
-0.036461 0.029004 0.029146 
-0.056850 0.013306 0.045969 
-0.040380 0.028984 0.027601 
-0.040661 0.027097 0.019831 
-0.030599 -0.045284 0.034463 
0.039194 -0.013973 0.006794 
0.027817 -0.032777 0.024847 
-0.007677 0.050788 0.025761 
-0.045311 -0.026323 0.042088 
-0.028625 0.020056 0.000000 
0.053488 -0.014960 0.036801 
0.027361 -0.004200 0.000000 
0.002506 -0.036936 0.012388 
-0.036767 -0.011621 0.003187 
-0.004752 -0.046519 0.015199 
0.037371 0.026707 0.022962 
-0.035681 0.012016 0.002111 
-0.047298 0.030765 0.039541 
0.017678 0.036451 0.018830 
0.035759 0.011029 0.012483 
0.024002 -0.044255 0.039916 
-0.014998 0.000328 0.000000 
-0.022852 0.044325 0.038598 
-0.020370 -0.026619 0.005146 
-0.024580 -0.051028 0.040381 
0.030954 -0.016829 0.000000 
0.019718 0.042024 0.014888 
0.020507 0.027361 0.006616 
-0.035590 0.008026 0.000923 
0.026961 -0.045207 0.028411 
-0.002844 0.021017 0.000000 
-0.048388 0.029339 0.040673 
0.016652 -0.052632 0.044420 
0.006235 0.037218 0.002662 
-0.003668 -0.037122 0.012777 
-0.036660 -0.012119 0.014974 
0.027390 -0.050168 0.042084 
-0.034763 0.033506 0.034804 
-0.036981 -0.005387 0.011365 
0.041982 -0.005824 0.021641 
-0.001693 -0.035437 0.009259 
0.050700 -0.028207 0.048000 
0.034016 -0.004038 0.000000 
-0.035568 -0.008504 0.010507 
-0.010327 0.037620 0.013816 
0.043384 0.015495 0.030861 
-0.015760 -0.045834 0.032500 
0.041541 -0.002530 0.006902 
0.034569 -0.011547 0.000770 
-0.031119 -0.038023 0.038163 
-0.048143 0.021120 0.044367 
-0.022712 -0.046067 0.025503 
-0.020407 0.002145 0.003000 
0.015022 0.039506 0.020765 
0.047125 0.011648 0.035847 
-0.000075 0.004712 0.000000 
0.043194 -0.000000 0.018839 
-0.039292 -0.043203 0.048000 
-0.031059 -0.035674 0.034070 
-0.043340 0.018050 0.015807 
-0.046416 -0.029045 0.046170 
-0.012047 0.045607 0.016037 
0.021775 -0.028562 0.000225 
0.006247 -0.034318 0.000000 
0.029171 -0.025839 0.014545 
-0.001848 0.045637 0.013729 
0.030795 -0.032864 0.028725 
-0.026536 0.041913 0.021435 
0.039777 0.017593 0.009501 
-0.029953 0.022705 0.001970 
-0.037357 -0.026897 0.026630 
0.025431 -0.032685 0.021699 
-0.004018 0.021507 0.000000 
0.028833 -0.033211 0.026869 
-0.037337 -0.009444 0.014639 
-0.022316 -0.024180 0.003280 
0.006901 0.027178 0.002474 
0.028331 0.021533 0.000000 
0.049182 -0.012036 0.024105 
-0.001645 -0.057465 0.043396 
0.020117 -0.043030 0.032936 
0.018015 -0.031454 0.000426 
0.036253 -0.038640 0.029813 
0.025800 0.032325 0.021831 
-0.045414 -0.013541 0.033657 
-0.014663 0.051172 0.029784 
0.017178 0.015063 0.000000 
-0.037246 -0.010995 0.015436 
0.056764 0.011530 0.044139 
0.013064 -0.054923 0.040262 
0.043410 0.016949 0.031896 
-0.012588 -0.053302 0.035205 
-0.032137 -0.009675 0.004385 
0.033523 0.033036 0.032611 
0.040024 0.028738 0.025923 
-0.041789 -0.030214 0.026948 
0.013614 -0.056831 0.046206 
-0.022032 0.028496 0.010289 
0.023420 -0.047705 0.045153 
0.033127 0.023610 0.005803 
-0.028637 -0.035551 0.013184 
0.041152 -0.029715 0.036250 
-0.036099 0.039850 0.047447 
-0.006407 -0.035000 0.002214 
-0.010595 -0.032720 0.000391 
-0.024455 0.039647 0.014604 
0.030912 -0.039171 0.039778 
0.019643 -0.006717 0.003000 
0.015936 0.050706 0.032838 
0.051790 -0.012638 0.030342 
-0.034915 0.046862 0.048000 
-0.035844 -0.026196 0.012640 
-0.013106 -0.046062 0.017543 
0.045184 0.016062 0.017335 
-0.051544 -0.017335 0.048000 
0.042977 0.031998 0.031703 
-0.027583 0.008976 0.000000 
-0.004064 0.047123 0.033647 
0.017668 0.032229 0.011598 
-0.013290 0.041678 0.017834 
-0.025942 0.022482 0.004699 
0.036588 -0.010861 0.014035 
0.045172 -0.010200 0.014756 
-0.017201 -0.049020 0.026508 
-0.045470 -0.000000 0.024749 
-0.026827 0.032958 0.023920 
-0.030357 -0.021760 0.005725 
0.038084 -0.003330 0.012271 
-0.031508 0.011596 0.004447 
-0.008330 0.005463 0.000000 
-0.008098 -0.052772 0.045436 
0.032897 0.034552 0.034428 
-0.052834 -0.017614 0.037536 
0.005791 0.001681 0.000000 
-0.004547 -0.056495 0.040485 
-0.007417 -0.041762 0.022460 
0.019484 0.044304 0.018885 
0.044670 -0.032668 0.036595 
-0.020824 -0.049741 0.031108 
0.029964 0.000885 0.000000 
0.039254 0.028192 0.028382 
0.040798 0.000079 0.015645 
-0.053562 0.009821 0.047672 
-0.041243 0.037380 0.048000 
0.000632 -0.002828 0.003000 
0.008951 -0.028253 0.000000 
0.009066 -0.049727 0.023994 
-0.013230 0.045092 0.029409 
0.029958 -0.011631 0.003000 
-0.033495 -0.008398 0.003000 
0.007846 0.044853 0.028911 
-0.013965 -0.054664 0.040379 
-0.019390 -0.000850 0.000000 
0.040064 0.028698 0.029424 
0.028533 -0.041628 0.041048 
0.002593 -0.058950 0.047851 
0.027167 0.024556 0.009935 
0.037365 -0.032068 0.020833 
-0.010580 0.036864 0.012237 
-0.025566 -0.053027 0.048000 
-0.036168 0.038400 0.045026 
-0.000202 0.043066 0.009443 
-0.012035 0.048994 0.023680 
0.026653 0.035343 0.011241 
-0.055813 -0.016796 0.048000 
-0.037066 0.026448 0.025129 
-0.044003 -0.031876 0.034868 
0.032610 -0.036369 0.037059 
0.011280 -0.034505 0.003275 
-0.028990 0.049593 0.042672 
-0.027486 -0.046725 0.048000 
-0.009941 -0.046131 0.016268 
0.033179 0.023773 0.012127 
0.033019 -0.039011 0.042139 
0.039112 0.023889 0.013280 
0.034587 -0.001863 0.000000 
0.013633 -0.042646 0.023363 
-0.010697 -0.021062 0.003000 
-0.020524 -0.038309 0.025531 
0.003106 -0.047943 0.035359 
0.048683 0.009925 0.022024 
-0.015565 0.042799 0.012831 
-0.021921 0.015082 0.003000 
0.043640 -0.018922 0.017123 
-0.034764 0.007825 0.008681 
-0.017770 -0.055351 0.045695 
-0.019315 0.040448 0.027526 
0.041279 -0.000517 0.016884 
-0.041469 0.030138 0.031983 
0.028481 0.011867 0.000000 
0.013684 0.042997 0.022717 
-0.030622 -0.038519 0.020799 
-0.008844 -0.012770 0.000000 
0.034068 0.028983 0.011437 
-0.053871 0.000231 0.032613 
-0.005288 -0.012505 0.000000 
-0.033701 -0.024330 0.013167 
-0.016642 -0.052207 0.037688 
-0.029651 0.017601 0.004527 
0.032371 -0.030271 0.010552 
-0.004890 0.032582 0.000000 
0.031610 0.004850 0.000283 
-0.054222 -0.006812 0.046971 
-0.052904 -0.019897 0.040174 
-0.008449 0.048684 0.036905 
-0.039622 -0.028167 0.019375 
0.010608 0.050264 0.025904 
0.054223 -0.001063 0.043117 
0.004317 -0.035681 0.009769 
-0.026894 0.032387 0.023016 
-0.047066 0.017963 0.023441 
-0.028797 -0.016956 0.000000 
-0.039699 0.019144 0.026119 
-0.004869 -0.034201 0.000000 
0.041999 -0.008241 0.008979 
0.030522 -0.042224 0.044569 
0.008542 -0.011485 0.000000 
-0.058296 -0.003998 0.045887 
-0.011429 0.035670 0.007588 
-0.039501 0.010556 0.005880 
-0.014358 0.041452 0.010295 
-0.047601 -0.020164 0.042569 
0.055579 0.018853 0.047565 
0.045914 0.033259 0.041782 
-0.018327 -0.004033 0.000000 
-0.016667 0.015462 0.003000 
0.020452 -0.040073 0.028261 
-0.003424 0.033723 0.005683 
0.028505 -0.029033 0.019233 
-0.041461 -0.032088 0.028735 
-0.019865 -0.025326 0.000000 
0.048164 0.020836 0.044166 
0.011514 0.047308 0.019638 
0.009228 -0.034373 0.007039 
-0.005521 0.048586 0.019818 
0.040899 -0.023829 0.031455 
0.007771 0.039178 0.017067 
0.052867 -0.023532 0.043907 
0.023773 0.044701 0.040486 
0.032097 0.006463 0.003000 
-0.016040 -0.049208 0.027658 
-0.025988 -0.038089 0.031922 
-0.031918 -0.038628 0.040187 
-0.037701 0.027362 0.022454 
-0.035551 -0.033185 0.035377 
0.006151 0.024075 0.000000 
-0.049571 -0.010055 0.024088 
0.006044 -0.031260 0.000542 
-0.044111 -0.032095 0.037501 
0.053125 0.002527 0.030376 
-0.016725 -0.036191 0.017205 
0.017630 -0.046453 0.035799 
-0.020516 0.012708 0.000000 
-0.047447 -0.001964 0.030134 
-0.031447 0.041837 0.028433 
0.008248 0.041020 0.007403 
-0.007102 -0.033703 0.000000 
0.004982 -0.036049 0.010537 
-0.015837 -0.041182 0.010448 
0.009670 -0.000871 0.000000 
0.041476 0.029944 0.025529 
-0.006754 0.044525 0.028225 
-0.022709 0.036929 0.025629 
0.043290 -0.009769 0.026798 
0.015867 0.049508 0.032671 
-0.036552 -0.043591 0.041573 
-0.045064 0.022299 0.038994 
0.009249 -0.040320 0.019451 
0.037166 0.012025 0.015927 
-0.035607 -0.025726 0.018053 
0.030267 -0.005823 0.003000 
-0.032783 -0.043663 0.034588 
-0.007638 0.026135 0.000000 
-0.030023 -0.021693 0.003172 
-0.034899 -0.034293 0.036464 
0.012965 -0.039198 0.008223 
0.010752 -0.047216 0.019085 
0.002894 0.022315 0.000000 
-0.017015 0.003255 0.003000 
0.046545 0.029956 0.036213 
-0.014774 0.015194 0.003000 
0.036466 0.040011 0.033322 
-0.014417 -0.043909 0.015957 
-0.013710 -0.047523 0.034483 
-0.021555 0.000413 0.003000 
-0.042855 -0.028581 0.038633 
-0.040275 -0.008898 0.006410 
-0.050600 0.009696 0.041664 
0.041910 -0.029151 0.025218 
-0.053270 -0.014572 0.036613 
0.025079 -0.036816 0.028402 
0.048354 -0.011775 0.038424 
0.010484 -0.046178 0.016620 
0.041321 0.035516 0.034245 
-0.042475 -0.025215 0.035588 
-0.031056 0.046311 0.037545 
-0.044787 0.033284 0.038141 
-0.026769 0.031507 0.021338 
-0.042739 -0.033507 0.044829 
-0.025965 -0.017642 0.003000 
0.031825 0.028653 0.022866 
-0.015603 0.047513 0.035161 
-0.027109 0.009202 0.003000 
0.052432 -0.000000 0.034423 
-0.014882 0.047195 0.024787 
-0.037460 0.011961 0.016881 
0.037493 0.036366 0.028002 
-0.012134 -0.038548 0.015752 
0.035233 0.011566 0.011771 
-0.031985 0.046841 0.040304 
0.040784 -0.005627 0.019122 
-0.040657 0.012143 0.008308 
0.026870 0.038768 0.015890 
0.029847 0.039390 0.021358 
-0.037874 -0.023186 0.024885 
-0.016957 -0.053290 0.039106 
0.028446 -0.014100 0.000000 
0.055450 0.001944 0.037350 
-0.055725 0.015889 0.045218 
0.009540 -0.008906 0.003000 
0.038520 -0.043408 0.045588 
0.038000 -0.038625 0.033655 
0.011730 -0.046453 0.017803 
-0.013051 0.055699 0.042456 
0.011830 -0.027466 0.003000 
-0.036602 0.043608 0.042380 
0.049822 -0.026628 0.048000 
-0.031901 -0.047067 0.040672 
-0.024228 -0.031136 0.017824 
0.035019 -0.029051 0.027421 
-0.004041 -0.057404 0.043211 
-0.002041 -0.049502 0.021838 
0.032459 -0.025180 0.017522 
-0.010228 0.049992 0.025117 
-0.049730 -0.006611 0.022892 
0.044165 0.032761 0.035650 
0.038040 0.042993 0.048000 
0.029978 0.023347 0.011292 
-0.035826 -0.042405 0.037269 
-0.005517 0.054029 0.033088 
0.052267 0.016293 0.048000 
-0.031765 -0.023401 0.013596 
0.032579 0.038480 0.040751 
-0.030081 -0.018579 0.005964 
-0.032840 -0.023550 0.012386 
-0.015354 -0.048125 0.030230 
-0.011129 -0.034666 0.007512 
-0.041500 -0.024344 0.033022 
0.010669 -0.052275 0.030605 
-0.008681 0.043080 0.025210 
-0.052278 -0.009206 0.029817 
-0.033752 0.023985 0.016964 
0.021518 0.031301 0.002647 
-0.021312 0.042275 0.033125 
0.044687 -0.000000 0.014447 
-0.020875 -0.043668 0.019202 
0.020060 0.042706 0.016252 
-0.044358 -0.000000 0.018354 
0.045844 -0.006951 0.030078 
0.052894 -0.000000 0.033840 
-0.011487 -0.037161 0.003581 
-0.039021 -0.000000 0.006219 
-0.053678 0.011977 0.035693 
0.023079 -0.049212 0.047331 
-0.057988 0.007783 0.045857 
0.005031 0.025691 0.002749 
-0.048194 0.015651 0.023580 
0.003689 -0.031946 0.001974 
0.036006 0.032356 0.034519 
-0.026750 0.019932 0.000000 
-0.056204 0.013110 0.043947 
0.035789 -0.046762 0.046990 
-0.005262 0.057549 0.043646 
-0.042311 0.003713 0.021097 
-0.027738 -0.044368 0.044826 
-0.012271 0.050125 0.039914 
0.043962 0.006712 0.026163 
-0.027235 -0.031677 0.006420 
-0.016601 0.001702 0.003000 
-0.031552 0.015791 0.001777 
-0.010116 -0.030727 0.003000 
0.037395 -0.000000 0.005409 
-0.018206 -0.009441 0.000000 
0.002746 0.053162 0.030485 
0.052000 0.002236 0.039412 
-0.042588 -0.006250 0.023124 
-0.019337 0.021279 0.003000 
-0.017822 -0.055669 0.048000 
0.015480 -0.016850 0.003000 
-0.008076 0.037585 0.013743 
0.023387 0.026613 0.001035 
-0.035837 -0.038921 0.029593 
-0.033707 0.012081 0.000320 
0.004060 0.032629 0.003400 
0.013637 0.032242 0.000766 
-0.030571 -0.011836 0.002618 
-0.028913 0.028925 0.019558 
-0.017968 -0.041427 0.012519 
-0.005231 0.051217 0.042193 
-0.030230 0.011909 0.002030 
-0.016298 -0.048872 0.025515 
0.014659 -0.045530 0.026503 
0.045257 -0.000000 0.016920 
-0.016936 0.003814 0.000000 
-0.019274 -0.049834 0.029836 
-0.042391 0.024119 0.034856 
-0.042967 0.023226 0.019741 
0.036682 0.026142 0.024094 
0.047318 0.014034 0.037852 
-0.015185 -0.049622 0.026521 
0.032234 -0.024134 0.015432 
0.009350 0.039289 0.005320 
0.032376 0.023009 0.012834 
-0.041873 -0.036356 0.048000 
-0.016989 0.046755 0.035539 
-0.019259 0.003915 0.003000 
-0.050338 -0.025366 0.048000 
0.005219 -0.052072 0.027834 
0.016119 0.051210 0.037810 
0.012453 0.050372 0.040428 
-0.039895 0.019764 0.026922 
0.012473 0.018354 0.000000 
0.034092 -0.000308 0.000000 
-0.004695 0.039634 0.018019 
-0.002365 0.032839 0.003837 
-0.015758 0.049480 0.032218 
-0.013171 -0.039879 0.009222 
-0.024751 0.041243 0.017556 
-0.049576 0.008719 0.023497 
0.055027 -0.011942 0.039335 
0.045481 0.011217 0.015555 
0.014121 -0.044338 0.026681 
0.001664 0.055603 0.048000 
-0.038369 -0.010855 0.017594 
-0.024152 0.013696 0.003000 
-0.052826 -0.024798 0.045677 
-0.011329 -0.034583 0.003015 
-0.005374 0.041198 0.006762 
-0.013712 0.036593 0.014108 
-0.000881 0.008221 0.003000 
0.035831 -0.018529 0.017592 
-0.012216 -0.029247 0.000000 
-0.036445 -0.026284 0.020752 
0.021689 0.052845 0.041885 
-0.023080 -0.013619 0.003000 
-0.013148 0.040071 0.008781 
-0.016793 0.032249 0.000842 
0.053007 -0.000000 0.031228 
-0.015536 -0.048684 0.035262 
-0.000887 -0.050031 0.039718 
0.012915 -0.038845 0.006089 
-0.006465 -0.056681 0.041275 
-0.041427 -0.035756 0.034912 
0.032607 -0.043981 0.034976 
-0.018365 0.035794 0.004594 
-0.038158 0.000774 0.010833 
-0.040246 0.013095 0.023222 
0.023774 0.002032 0.003000 
0.026794 -0.009785 0.000000 
0.043085 0.020595 0.017407 
-0.025603 -0.039922 0.016240 
0.034247 -0.030110 0.028285 
-0.041004 -0.029018 0.023274 
0.045417 0.026854 0.042662 
0.035333 -0.013714 0.013327 
-0.006097 -0.044122 0.027385 
-0.001814 -0.041650 0.007083 
0.035846 0.005033 0.008871 
-0.031459 0.024784 0.004746 
-0.024882 -0.008547 0.003000 
0.000521 -0.049602 0.038822 
0.035131 -0.007002 0.008685 
-0.033714 0.002522 0.000000 
0.011042 -0.006531 0.000000 
0.039575 0.035189 0.029855 
0.033558 0.040212 0.028557 
0.023453 0.045045 0.040676 
-0.049933 0.010332 0.025031 
-0.045720 -0.001829 0.026595 
-0.000298 0.012825 0.000000 
0.014678 -0.044625 0.019421 
-0.033210 -0.023986 0.011748 
-0.055178 -0.011576 0.048000 
0.028417 0.020272 0.000000 
0.014100 -0.051292 0.042349 
0.037527 0.036461 0.028230 
-0.018852 -0.041177 0.012754 
0.023220 -0.051629 0.039758 
-0.033605 0.024502 0.007388 
0.034705 -0.039965 0.045900 
-0.001006 -0.011862 0.003000 
0.029325 -0.042588 0.026777 
0.029189 0.021778 0.007570 
-0.040911 0.029387 0.028382 
0.005708 0.007757 0.000000 
0.038397 -0.027410 0.028601 
-0.032012 -0.028944 0.023608 
-0.018742 -0.014080 0.000000 
0.046511 0.033646 0.046578 
-0.015398 -0.047403 0.021621 
0.016243 -0.053592 0.038803 
0.006189 0.053400 0.046747 
0.013921 0.029692 0.000000 
0.020744 -0.032562 0.003230 
-0.014076 -0.028033 0.000000 
-0.017378 0.009268 0.000000 
0.047938 0.030515 0.040712 
0.013504 -0.011368 0.003000 
0.056300 -0.011182 0.042589 
0.022770 -0.028843 0.001076 
0.016834 0.013164 0.000000 
-0.007296 -0.057174 0.043170 
-0.037889 -0.013519 0.018379 
-0.027362 0.024650 0.010224 
0.015414 0.043231 0.013769 
0.034998 -0.025356 0.012882 
0.028081 0.049218 0.041225 
0.030059 0.035712 0.014937 
-0.001076 0.020374 0.000000 
0.041481 -0.041088 0.047029 
-0.033940 -0.032108 0.014810 
0.045334 0.029489 0.044276 
-0.020392 -0.012751 0.000000 
0.003651 0.025976 0.000000 
0.030786 0.035826 0.015880 
0.052212 0.006428 0.028415 
0.012402 -0.019419 0.000000 
-0.040213 0.023899 0.030250 
-0.000632 -0.048164 0.018717 
-0.046584 -0.033882 0.043156 
0.032124 0.008001 0.003000 
0.053806 0.015164 0.038029 
-0.032729 -0.004411 0.000000 
-0.029184 -0.014468 0.000000 
-0.023018 0.048189 0.029588 
-0.017574 -0.051912 0.045140 
-0.020539 0.041565 0.030929 
0.040515 0.029450 0.026301 
0.001620 -0.053879 0.032636 
0.041699 -0.027564 0.035601 
0.032627 -0.023485 0.008858 
0.048646 -0.000000 0.022229 
-0.031725 0.009454 0.003000 
-0.041481 0.033987 0.044047 
0.044160 0.027987 0.027877 
0.010967 -0.051472 0.028793 
-0.026795 -0.024557 0.000901 
0.043041 -0.002851 0.021881 
0.001599 -0.035012 0.000012 
-0.045065 0.032498 0.040204 
0.017910 0.034806 0.016304 
0.031349 -0.035742 0.034395 
0.016215 0.005277 0.000000 
0.008467 -0.052023 0.043875 
-0.024536 0.039870 0.014996 
-0.000332 -0.025993 0.003000 
-0.023871 -0.030883 0.016940 
0.057728 0.006732 0.044551 
0.037107 0.026503 0.024655 
-0.034437 -0.009252 0.000055 
-0.002197 -0.047915 0.035301 
-0.044351 -0.025870 0.025256 
0.046234 0.008518 0.015900 
-0.028356 -0.029468 0.005216 
0.022795 -0.019113 0.003000 
0.011570 0.000072 0.000000 
-0.032411 -0.027781 0.022064 
0.054926 -0.008990 0.037327 
-0.017231 -0.044584 0.017306 
-0.008986 0.027854 0.002182 
0.009380 -0.003323 0.003000 
-0.001127 -0.052064 0.043960 
-0.053793 -0.000000 0.035236 
-0.013796 0.029139 0.001407 
0.027825 0.031684 0.006852 
-0.011146 0.040582 0.019997 
-0.012587 0.012935 0.000000 
0.032303 -0.049330 0.048000 
-0.036742 -0.038924 0.031499 
0.018874 -0.055130 0.046161 
-0.045176 0.025503 0.041354 
0.033870 0.011195 0.000729 
-0.051465 -0.014032 0.030238 
0.046429 0.021564 0.024661 
-0.005963 0.037356 0.002388 
0.000123 -0.031827 0.001727 
-0.039365 -0.018429 0.009338 
0.019652 -0.008628 0.003000 
0.050016 0.000769 0.034518 
0.039556 -0.012056 0.020771 
-0.004515 0.026427 0.002269 
-0.004692 0.041988 0.022932 
-0.012666 -0.036002 0.011856 
0.023204 0.048255 0.029954 
-0.037528 0.000890 0.009650 
0.033730 -0.024160 0.015068 
-0.010001 -0.044768 0.028734 
-0.017232 -0.019823 0.000000 
0.027842 -0.039157 0.018006 
-0.017598 -0.024943 0.003000 
-0.034575 0.018922 0.015475 
-0.034749 -0.022481 0.006256 
-0.023007 -0.033300 0.005406 
0.025024 -0.042347 0.020083 
0.046951 -0.003954 0.015919 
0.015128 -0.036845 0.016258 
-0.034199 -0.026913 0.022754 
0.026991 -0.035683 0.011970 
0.046479 -0.000132 0.015131 
-0.010669 0.045928 0.016139 
0.018560 -0.047942 0.039484 
-0.017802 -0.055352 0.046484 
0.001567 0.047281 0.033977 
-0.027532 0.036546 0.031006 
0.005182 -0.052797 0.029526 
0.013441 0.042353 0.021713 
0.057486 -0.007071 0.043994 
0.046730 -0.008779 0.017097 
-0.006423 -0.018545 0.000000 
-0.000216 -0.013906 0.000000 
0.007033 0.057437 0.043826 
-0.021917 -0.032671 0.017615 
0.028491 0.020149 0.002975 
-0.022655 0.024838 0.004759 
-0.011994 -0.029990 0.000697 
-0.014279 -0.044363 0.025193 
-0.040600 0.029599 0.035357 
0.039847 0.035193 0.044132 
-0.008882 -0.014467 0.000000 
-0.023916 0.030235 0.015567 
0.018432 -0.034795 0.003702 
0.048177 0.000739 0.030821 
0.022014 0.031302 0.015380 
-0.047361 -0.013448 0.037542 
-0.050485 0.010632 0.026413 
0.002140 0.049457 0.021733 
-0.040658 -0.029643 0.027122 
0.038003 0.005480 0.003003 
-0.022753 0.053048 0.043655 
0.020316 0.053124 0.041316 
0.039485 -0.006339 0.016974 
0.029891 -0.019664 0.002146 
0.044872 0.004509 0.026593 
0.012485 -0.040662 0.008359 
-0.013076 -0.052236 0.032170 
0.024813 0.042516 0.020126 
0.020569 -0.054540 0.046084 
0.015228 0.048331 0.025234 
0.049505 -0.020249 0.029826 
-0.018268 -0.035915 0.018643 
-0.029176 0.000314 0.000000 
0.049014 -0.028527 0.041332 
0.037633 -0.037864 0.031118 
0.030278 -0.004079 0.000000 
0.035405 0.020344 0.017955 
0.011788 0.055458 0.048000 
-0.011274 -0.054566 0.048000 
0.019038 0.055510 0.047542 
-0.032314 0.020396 0.011795 
-0.014616 -0.045461 0.019956 
0.032784 0.038426 0.040914 
-0.031473 0.041182 0.027201 
0.015828 -0.048783 0.030765 
0.017947 -0.051305 0.044526 
0.022048 -0.046892 0.042030 
-0.018727 -0.025537 0.001220 
-0.046384 0.020486 0.023758 
-0.031349 -0.027155 0.019655 
-0.014265 0.045133 0.024603 
0.004985 0.028043 0.002483 
-0.049602 -0.003758 0.035578 
-0.012969 -0.011105 0.000000 
-0.013297 -0.034508 0.010083 
0.015446 -0.048579 0.035660 
-0.036919 -0.030094 0.016979 
0.021394 0.036728 0.007428 
0.057669 -0.011520 0.046767 
-0.006480 0.028431 0.000000 
0.031914 0.003025 0.000000 
0.040144 0.016446 0.009647 
0.047854 -0.000000 0.020767 
0.037550 0.017495 0.020380 
-0.051145 0.005200 0.025671 
0.024204 -0.028696 0.013265 
-0.035314 0.027307 0.011668 
0.000564 0.041691 0.022311 
-0.057038 0.001000 0.042114 
0.051263 -0.013572 0.045539 
0.048758 0.020157 0.044911 
-0.034550 -0.039720 0.045312 
0.050052 0.011820 0.041899 
-0.034208 0.017899 0.014061 
-0.015456 0.042906 0.027069 
-0.010085 -0.011244 0.003000 
-0.007941 -0.042433 0.023859 
0.003180 -0.053841 0.047668 
0.048536 -0.024620 0.047478 
-0.013603 -0.027499 0.000000 
-0.046964 0.002380 0.029515 
-0.033228 0.004882 0.000000 
-0.042448 0.019045 0.031593 
-0.006560 0.038436 0.003720 
0.045539 -0.013496 0.016539 
-0.051819 0.018683 0.035442 
-0.001927 0.041029 0.006049 
0.004481 0.058223 0.045669 
-0.024358 -0.024248 0.000000 
0.013650 0.041373 0.010864 
-0.052459 -0.016658 0.048000 
-0.016888 -0.021340 0.003000 
0.016528 0.052478 0.043689 
-0.035089 -0.033769 0.019251 
0.011270 0.003590 0.000000 
0.018044 0.020302 0.002944 
-0.012369 0.057376 0.048000 
-0.032840 -0.009353 0.000000 
-0.043148 -0.016277 0.013978 
-0.003958 -0.046861 0.033102 
-0.034847 -0.047868 0.047445 
0.033004 -0.023543 0.014031 
-0.015647 0.049536 0.027264 
0.049103 0.020079 0.045558 
-0.044024 -0.012886 0.013815 
0.042879 -0.000000 0.015155 
-0.025866 0.031280 0.019814 
0.051635 -0.026445 0.048000 
0.045581 0.001929 0.026381 
0.040408 0.019648 0.027632 
-0.026903 -0.032323 0.007107 
-0.042929 0.031712 0.041927 
-0.052574 -0.001326 0.039986 
-0.014256 0.046597 0.019270 
0.051549 -0.003032 0.026613 
0.021735 0.021181 0.000000 
-0.043665 -0.000365 0.010441 
0.018479 -0.032577 0.001677 
-0.049787 -0.019311 0.046427 
0.011079 -0.040087 0.018964 
-0.001197 0.041469 0.006781 
-0.012852 -0.040251 0.018919 
0.022771 -0.032227 0.017595 
0.011827 -0.037160 0.012856 
-0.015201 0.008434 0.000000 
0.020712 -0.006448 0.003000 
-0.046489 -0.005555 0.030486 
-0.004598 -0.007485 0.000000 
-0.025471 -0.012948 0.000000 
0.048455 0.006718 0.035211 
0.054518 0.007131 0.047786 
0.031403 -0.034415 0.014524 
0.036851 0.026318 0.021988 
-0.004710 0.056974 0.041921 
-0.031515 -0.010579 0.003711 
-0.008175 -0.023196 0.000000 
0.018533 0.040875 0.027454 
0.013179 0.040269 0.019787 
-0.011104 0.015272 0.003000 
-0.055866 0.001725 0.046883 
0.039364 -0.004465 0.015548 
-0.036243 0.028338 0.013852 
0.024829 0.043972 0.023142 
0.017398 0.054689 0.046071 
0.050014 0.006860 0.038469 
0.032425 0.006398 0.002890 
-0.017896 0.053280 0.039252 
0.044117 0.020569 0.019393 
-0.027200 0.042545 0.040965 
0.049977 0.012680 0.042328 
0.035268 -0.030469 0.030185 
-0.014461 -0.046918 0.033221 
-0.057260 0.001183 0.042781 
-0.029337 -0.033084 0.027510 
0.001424 0.008715 0.003000 
0.049438 -0.023247 0.048000 
0.000574 -0.056446 0.040337 
0.008029 0.023171 0.002486 
-0.032314 -0.035475 0.017412 
0.052297 0.026558 0.048000 
-0.006703 -0.049060 0.021421 
-0.048966 -0.025786 0.048000 
-0.028345 0.048057 0.037583 
0.016857 0.031286 0.001342 
-0.053875 -0.001684 0.032626 
0.054352 -0.013288 0.038157 
0.012944 -0.040199 0.017572 
-0.034863 -0.040110 0.030440 
-0.025436 0.027847 0.013339 
0.049390 0.011039 0.040029 
-0.021974 -0.029159 0.011577 
0.009743 0.034371 0.007035 
-0.047587 0.018882 0.041761 
0.013023 0.042422 0.023836 
-0.031924 0.043313 0.032473 
0.044317 -0.029581 0.030568 
-0.033102 -0.038022 0.023591 
0.006808 -0.043187 0.010433 
0.034671 -0.024696 0.018690 
-0.030242 0.019179 0.006759 
0.010685 0.029065 0.002283 
-0.039100 0.000969 0.012846 
0.012662 -0.039506 0.016972 
0.055779 -0.006549 0.038612 
-0.027053 0.049420 0.039138 
-0.015429 0.056669 0.047466 
-0.039546 -0.020334 0.026348 
-0.042243 -0.030619 0.031096 
0.038552 -0.032040 0.023160 
0.026753 -0.004730 0.003000 
-0.045795 -0.020075 0.038846 
-0.004458 0.046292 0.014820 
-0.007816 0.042144 0.023258 
0.001960 0.031217 0.002180 
0.005968 0.008531 0.000000 
0.021319 -0.032187 0.003380 
-0.007916 -0.051198 0.026796 
-0.014719 0.033666 0.001640 
-0.041170 0.029510 0.032371 
0.029523 0.021301 0.001663 
0.020448 0.013854 0.003000 
-0.050287 0.007456 0.024533 
-0.006752 0.058439 0.046693 
-0.018318 -0.036252 0.019282 
-0.035344 -0.025211 0.020481 
0.023112 -0.011700 0.003000 
0.019663 0.029506 0.002050 
0.042290 -0.030394 0.036603 
0.041189 0.010080 0.022747 
-0.030496 -0.035528 0.033123 
0.035626 0.010943 0.001758 
-0.013026 0.043863 0.013607 
0.016372 0.051548 0.034616 
0.007871 -0.039369 0.005048 
0.045993 -0.033527 0.042536 
0.016724 -0.052502 0.045092 
-0.048626 -0.013369 0.023452 
-0.038979 0.002267 0.003979 
-0.048200 -0.014323 0.039836 
0.018203 -0.036839 0.019978 
0.011895 -0.046988 0.019086 
0.009878 -0.046882 0.033146 
-0.012535 0.037916 0.006470 
-0.006133 -0.008410 0.003000 
-0.040504 -0.029483 0.028567 
-0.044053 -0.035150 0.039598 
0.043451 0.019411 0.017197 
0.016834 -0.040937 0.010758 
0.042017 -0.035781 0.036296 
0.057165 -0.012964 0.046370 
0.010771 0.019976 0.000000 
0.009292 -0.046436 0.016666 
-0.026523 -0.037510 0.013814 
0.009015 -0.044633 0.028451 
-0.039095 0.037181 0.046583 
-0.006255 0.050776 0.041271 
-0.023013 0.033493 0.005577 
-0.054412 -0.000000 0.034544 
0.051493 0.017513 0.033169 
-0.015226 0.047928 0.034540 
0.014493 0.020815 0.002621 
-0.042903 -0.019012 0.015840 
-0.020242 -0.049982 0.031258 
0.036294 -0.000000 0.003412 
0.005026 -0.030053 0.000000 
0.003738 -0.001792 0.003000 
-0.013280 0.053160 0.046247 
-0.005375 -0.018908 0.003000 
0.046859 0.009340 0.033746 
-0.040857 0.009513 0.007577 
0.043208 -0.021990 0.019171 
0.014723 -0.045538 0.020016 
0.023106 -0.037464 0.010198 
0.028245 -0.051809 0.048000 
-0.010986 -0.024069 0.003000 
-0.000129 -0.049657 0.022199 
-0.020479 0.020117 0.003000 
-0.024756 0.025927 0.009178 
0.043686 -0.031732 0.042909 
0.003414 0.040756 0.020361 
-0.009900 -0.024832 0.003000 
0.043464 -0.033646 0.035665 
0.044198 -0.023220 0.037734 
-0.033090 -0.003901 0.002643 
0.043789 -0.012584 0.013353 
0.036166 0.043180 0.039779 
-0.030206 -0.020514 0.007525 
-0.048143 -0.010255 0.020954 
0.033347 0.001564 0.000000 
0.047304 0.009772 0.034940 
-0.054519 -0.012148 0.048000 
0.013656 0.037545 0.004592 
0.009661 -0.009678 0.003000 
0.054893 0.015975 0.048000 
-0.040459 -0.028683 0.021737 
-0.011794 -0.042330 0.023645 
0.034185 0.023863 0.017859 
-0.051589 -0.025506 0.043026 
-0.023946 -0.051101 0.039488 
-0.023173 0.013317 0.000000 
-0.033189 0.024248 0.007510 
-0.027667 0.022333 0.000178 
0.010353 0.011237 0.003000 
-0.052866 0.002475 0.041382 
0.048540 0.015199 0.041117 
-0.009215 -0.037759 0.003614 
0.035883 -0.031744 0.033161 
-0.012497 0.039227 0.011053 
0.051774 -0.017824 0.034390 
0.036505 -0.010926 0.013910 
-0.023342 0.021734 0.003000 
-0.013705 -0.042718 0.022978 
-0.054548 -0.010436 0.048000 
-0.024721 0.030550 0.003721 
-0.014411 0.016647 0.000000 
-0.007109 0.034503 0.000000 
0.017839 0.048300 0.025387 
-0.039526 -0.028172 0.031605 
-0.056054 -0.007360 0.039842 
-0.046484 -0.000681 0.027398 
0.001756 -0.049184 0.037950 
0.044863 0.016963 0.017577 
-0.001256 0.035511 0.009413 
-0.035204 -0.035228 0.022006 
0.053185 -0.022302 0.043613 
0.007458 -0.031115 0.003000 
0.037968 0.009834 0.016147 
0.016311 0.016031 0.003000 
-0.043134 0.022283 0.035124 
0.009120 -0.051277 0.042316 
-0.037940 -0.043301 0.044042 
0.000652 0.041150 0.021183 
0.011593 0.036216 0.006549 
0.000688 0.052406 0.028614 
-0.042125 -0.030657 0.028276 
0.049861 -0.004817 0.036776 
-0.035924 -0.029642 0.014793 
0.013383 -0.040612 0.011075 
0.011035 -0.038444 0.015536 
0.033442 -0.045717 0.040253 
-0.036938 0.043889 0.043654 
0.014083 0.023396 0.002628 
-0.017960 -0.032689 0.001752 
-0.033248 -0.044426 0.037079 
0.025451 -0.008284 0.003000 
-0.011188 -0.055465 0.048000 
0.048646 0.020761 0.045092 
0.054172 -0.010432 0.035975 
-0.047842 0.019464 0.025994 
0.044957 -0.032351 0.036684 
-0.030261 -0.011749 0.001942 
0.055777 -0.003348 0.038330 
-0.022730 -0.015099 0.003000 
0.048980 0.027857 0.048000 
-0.006961 -0.003312 0.003000 
0.005747 -0.034050 0.006366 
0.027322 -0.035735 0.012280 
0.039769 0.024863 0.029862 
-0.023241 -0.047141 0.028000 
0.056766 -0.004990 0.041299 
-0.037706 0.032922 0.022795 
0.003276 -0.002445 0.000000 
-0.004968 -0.037777 0.014143 
0.022753 -0.048040 0.029088 
0.027732 0.020419 0.000000 
-0.034937 0.010653 0.000928 
-0.013885 -0.043514 0.017955 
0.018972 0.030711 0.010585 
0.049581 0.028319 0.048000 
-0.015517 0.017498 0.003000 
-0.042065 0.030228 0.031753 
0.035013 0.025152 0.016319 
0.019059 0.035275 0.004435 
-0.036938 -0.026485 0.023547 
0.034552 -0.040852 0.031522 
-0.015144 -0.045658 0.031437 
0.044855 0.021920 0.021879 
0.030560 -0.000895 0.000000 
0.031545 -0.041332 0.027605 
-0.055416 -0.000000 0.038983 
0.045310 -0.019282 0.020575 
0.023097 0.044850 0.022811 
-0.023054 0.013430 0.000000 
-0.031437 -0.026960 0.005909 
0.033078 0.022396 0.014624 
-0.007388 0.045322 0.014064 
-0.034376 -0.030327 0.013316 
-0.024753 -0.049976 0.037630 
0.040181 0.014859 0.008992 
-0.007544 0.021321 0.003000 
0.011477 -0.022874 0.003000 
-0.015854 -0.048422 0.025524 
0.022201 0.029195 0.011920 
0.020864 0.047471 0.026085 
0.035414 0.039843 0.046592 
0.018046 0.025375 0.000000 
-0.015670 0.049756 0.033950 
0.002719 0.047268 0.033952 
-0.023908 0.023556 0.003000 
