
# .PCD v.6 - Point Cloud Data file format
FIELDS x y z 
SIZE 4 4 4 
TYPE F F F 
COUNT 1 1 1 
WIDTH 1650
HEIGHT 1
VIEWPOINT 0.000000 0.000000 0.000000 1.000000 0.000000 0.000000 0.00000
POINTS 1650
DATA ascii
0.038123 0.068242 0.038082 
0.003045 -0.028434 0.000000 
0.046607 -0.049830 0.041105 
-0.073909 -0.004239 0.048346 
0.057538 -0.003203 0.006853 
-0.013755 0.048133 0.000000 
0.005880 0.048108 0.004011 
-0.047848 0.062793 0.062787 
-0.001663 0.064115 0.034463 
-0.036836 -0.045322 0.007254 
0.042819 -0.031065 0.005885 
0.078700 0.033377 0.074115 
0.054280 -0.039846 0.034792 
0.075942 -0.026683 0.043396 
-0.021721 0.065873 0.030818 
-0.026298 0.080316 0.058496 
0.005275 -0.028726 0.000000 
0.039982 -0.038742 0.017135 
-0.066023 -0.000000 0.019298 
-0.053381 0.009668 0.003792 
-0.061429 0.008400 0.028593 
-0.006566 0.092747 0.076286 
0.045906 0.070215 0.051195 
-0.053168 0.074596 0.072202 
-0.088482 0.008752 0.076927 
0.024328 0.034246 0.003000 
-0.040166 -0.026031 0.000946 
0.009695 0.088544 0.065176 
0.080876 0.035054 0.062377 
0.056673 -0.029148 0.013663 
0.027251 0.083614 0.063175 
0.025699 0.028636 0.000000 
-0.000761 -0.022030 0.000000 
-0.051736 -0.074421 0.069465 
0.018500 -0.083978 0.072251 
0.026043 -0.080387 0.056465 
-0.046535 0.073776 0.060569 
-0.064560 0.040303 0.034021 
0.042597 0.000681 0.000000 
-0.061568 -0.005128 0.026974 
-0.046604 0.052540 0.045778 
0.039889 0.068629 0.062979 
-0.062998 0.049429 0.058979 
0.076671 0.053038 0.076737 
-0.047064 0.028237 0.014546 
0.084186 0.030459 0.066878 
-0.014594 0.051443 0.010356 
-0.057619 -0.000000 0.006939 
-0.084268 -0.016228 0.073852 
-0.034345 0.003392 0.000000 
0.014485 -0.030723 0.003000 
0.056217 -0.002777 0.016148 
0.075382 0.038612 0.071307 
-0.040695 -0.059359 0.026446 
-0.032367 -0.083967 0.067689 
0.049152 -0.009240 0.000900 
0.077162 0.009035 0.056875 
0.006551 -0.002411 0.000000 
-0.058277 -0.054323 0.041237 
-0.025196 0.079709 0.064130 
-0.026538 0.053080 0.008279 
-0.067707 0.065229 0.078000 
0.040330 0.042674 0.023851 
0.091531 -0.007148 0.072962 
-0.081343 0.023456 0.072931 
-0.087193 0.014780 0.078000 
0.000771 0.064423 0.014979 
0.015010 0.050874 0.009273 
0.070465 0.054002 0.064362 
0.022350 0.075816 0.056723 
0.053535 -0.065366 0.052582 
0.071618 -0.056758 0.071295 
0.033715 -0.065484 0.028850 
0.086301 0.023962 0.067420 
0.083866 0.018376 0.057036 
-0.006181 0.085630 0.055934 
-0.054178 0.027071 0.009345 
0.040254 0.081403 0.078000 
-0.048051 0.039770 0.027872 
0.057100 -0.019507 0.027275 
0.056209 -0.040575 0.027119 
-0.086695 -0.000756 0.069026 
-0.045834 -0.017204 0.005962 
-0.062339 -0.000000 0.017556 
0.023633 0.018970 0.000000 
0.004347 0.029853 0.003000 
-0.008741 0.003750 0.000000 
0.047288 0.046455 0.017192 
-0.037034 0.078002 0.057751 
-0.001879 0.063660 0.033598 
-0.072864 0.053236 0.075591 
-0.029701 0.055220 0.012094 
-0.041638 -0.044849 0.009679 
-0.004462 -0.077696 0.060300 
-0.045848 0.077830 0.068790 
-0.058540 -0.072345 0.078000 
0.090412 -0.008820 0.078000 
0.048567 0.044764 0.036059 
0.019986 0.081864 0.068229 
0.033284 -0.060624 0.021220 
0.012622 0.050900 0.009322 
0.000624 0.089979 0.067400 
0.022882 -0.069819 0.039605 
-0.074140 0.055832 0.075296 
0.013915 -0.071864 0.027586 
-0.055785 -0.055643 0.060293 
0.044608 -0.023450 0.000000 
-0.065049 -0.061127 0.078000 
0.024590 0.075662 0.041773 
-0.053561 -0.018861 0.020606 
0.012620 0.070013 0.024119 
0.011405 -0.076883 0.037723 
0.066780 -0.046231 0.060477 
0.052615 -0.048941 0.025526 
0.059811 -0.043665 0.037159 
0.073942 0.010860 0.031257 
-0.019708 -0.059880 0.015595 
-0.055573 0.040328 0.030558 
-0.061202 0.026492 0.038761 
-0.059674 -0.044537 0.031664 
-0.046009 0.004045 0.000000 
0.003823 -0.088427 0.078000 
0.032077 -0.020451 0.003000 
0.013889 0.079758 0.044576 
0.011400 0.000121 0.003000 
0.078667 -0.018170 0.065002 
0.027582 0.040622 0.000000 
0.083745 -0.017682 0.073782 
-0.056054 0.041180 0.022747 
-0.090278 -0.007488 0.078000 
0.064161 0.003045 0.030385 
-0.080390 -0.000000 0.056019 
0.041896 0.021045 0.001171 
0.014348 0.042249 0.000000 
0.031809 -0.037987 0.006858 
0.043726 -0.071371 0.050318 
0.002675 0.039328 0.000000 
0.023142 0.070622 0.038235 
0.023531 0.086098 0.066582 
-0.077761 -0.030206 0.070550 
-0.011184 0.028244 0.003000 
-0.081008 -0.018070 0.049669 
-0.052431 -0.037990 0.029082 
0.010366 -0.081347 0.067246 
-0.063871 -0.064537 0.069121 
-0.032916 0.023387 0.003000 
-0.069391 -0.023772 0.028258 
0.019822 -0.027604 0.000000 
0.051757 -0.056179 0.056646 
-0.030910 0.019071 0.000000 
0.024099 -0.059888 0.014784 
0.005324 -0.040104 0.000000 
-0.025704 0.078172 0.049394 
-0.047975 0.005863 0.003296 
-0.043377 0.016254 0.000000 
-0.045341 -0.032714 0.013882 
0.063803 0.041507 0.034860 
-0.040384 0.038251 0.017160 
-0.064160 0.030853 0.024572 
0.025091 -0.076761 0.053225 
-0.037854 0.069852 0.040910 
-0.047892 0.077708 0.071781 
-0.038583 0.028861 0.000844 
0.029941 0.000183 0.003000 
0.044650 0.071733 0.072929 
0.044177 0.013015 0.000000 
-0.026186 -0.081161 0.065931 
0.043267 -0.047743 0.014278 
0.066030 -0.023782 0.023127 
-0.017487 -0.040590 0.000000 
0.038829 0.074144 0.050408 
-0.042974 0.039209 0.006989 
0.057044 0.036675 0.019909 
0.052497 0.003463 0.009945 
0.091079 0.003365 0.070578 
0.009311 -0.051391 0.002006 
-0.047202 -0.002153 0.000000 
0.009011 -0.087599 0.062209 
0.013091 0.082291 0.069041 
-0.054916 0.026027 0.027255 
-0.062035 -0.041492 0.031933 
0.076731 0.019907 0.062578 
-0.041671 -0.060518 0.029686 
-0.017425 0.056123 0.007817 
0.076683 0.032634 0.049445 
-0.047036 -0.070123 0.052756 
0.017269 -0.007761 0.000000 
-0.056003 0.040568 0.029942 
0.042572 0.052081 0.019005 
-0.030961 -0.063068 0.044201 
-0.018404 0.028222 0.003000 
0.000281 0.078158 0.038876 
0.018130 -0.050101 0.002753 
0.041504 0.029160 0.001554 
-0.044780 -0.005220 0.000000 
0.057570 -0.063962 0.075173 
-0.087773 -0.017884 0.066263 
-0.011696 0.079124 0.063017 
0.035825 -0.002593 0.000000 
-0.047170 0.070225 0.073387 
0.056488 -0.013024 0.022469 
-0.019919 -0.077141 0.041931 
0.018066 -0.084486 0.058283 
0.038656 -0.060919 0.026218 
-0.050000 0.002793 0.000365 
-0.009253 -0.053206 0.003587 
-0.071027 -0.003396 0.024585 
0.058218 0.021658 0.011472 
-0.018290 -0.047205 0.005525 
0.021242 -0.090342 0.078000 
0.015343 -0.058893 0.009729 
-0.058081 -0.063513 0.075044 
-0.076786 -0.025364 0.044117 
0.025438 -0.077933 0.057492 
-0.041674 0.079393 0.067166 
-0.066753 0.023201 0.046717 
0.021757 -0.065900 0.029288 
-0.030528 0.015761 0.003000 
0.053568 0.076085 0.076064 
-0.055838 0.053538 0.036603 
0.007441 0.054763 0.004689 
0.060791 0.003965 0.024934 
-0.011948 -0.054322 0.015832 
-0.044145 -0.015558 0.000000 
0.059429 -0.047115 0.034347 
0.003191 0.009023 0.003000 
0.038074 0.039663 0.004211 
0.043221 0.031584 0.005517 
-0.042644 0.056845 0.025083 
-0.010086 -0.073779 0.030287 
-0.063095 0.058405 0.072783 
0.044128 0.072061 0.052451 
0.029886 0.065044 0.025241 
-0.027474 0.081643 0.057262 
0.015355 -0.076220 0.057492 
0.079885 -0.003721 0.042486 
0.056831 0.039756 0.038852 
-0.041025 0.036783 0.004255 
0.009295 0.053481 0.014232 
0.024581 -0.007497 0.003000 
-0.042418 0.073530 0.073228 
-0.085464 0.016624 0.076223 
-0.066255 -0.043713 0.041571 
-0.013769 0.050598 0.008747 
0.076544 0.018232 0.040072 
0.044176 -0.052349 0.042281 
0.065503 0.029069 0.025383 
0.034663 0.051922 0.031761 
0.061254 -0.060231 0.073485 
0.020153 0.043292 0.001778 
-0.051546 -0.001002 0.001406 
-0.011724 -0.077193 0.037817 
0.038832 0.021661 0.000000 
-0.047264 0.044808 0.015409 
0.040887 -0.017024 0.000000 
-0.030806 -0.075196 0.044997 
-0.063839 0.035883 0.027569 
0.080071 -0.033694 0.076754 
0.049286 0.060635 0.061068 
0.025918 -0.073759 0.038641 
-0.041996 0.030213 0.006104 
0.074468 -0.053920 0.075122 
-0.047041 -0.038591 0.024814 
-0.070965 0.008985 0.045831 
0.004279 -0.015783 0.000000 
0.068872 -0.012077 0.043881 
0.063165 0.059504 0.058026 
-0.013207 0.051706 0.010855 
-0.056748 0.000692 0.006134 
-0.048770 0.059895 0.037054 
-0.022129 -0.075578 0.039653 
-0.055696 -0.054162 0.057899 
-0.038239 -0.018421 0.000000 
0.077789 -0.013665 0.060752 
0.016717 0.050873 0.009469 
-0.033485 -0.002817 0.000000 
0.034293 -0.087087 0.077609 
-0.080403 0.026594 0.053239 
-0.007976 0.081986 0.046881 
0.010765 -0.001614 0.003000 
0.075353 -0.029598 0.065888 
0.020535 0.063249 0.032127 
-0.062682 0.055931 0.068555 
-0.015241 -0.044197 0.000000 
-0.063992 0.052829 0.048551 
-0.087397 0.028813 0.078000 
-0.042555 0.029955 0.007514 
0.008242 0.024144 0.003000 
0.008322 -0.025313 0.003000 
-0.058038 0.044533 0.046076 
0.014755 -0.001467 0.000000 
-0.003021 -0.049108 0.003000 
0.058175 0.032393 0.017606 
0.036721 -0.056702 0.018988 
0.042730 -0.070674 0.069075 
0.062402 0.042038 0.050161 
-0.045129 0.077929 0.067896 
-0.075155 -0.003103 0.032596 
-0.067535 0.039782 0.057987 
0.063602 -0.048837 0.058651 
0.000861 -0.080208 0.043161 
-0.070431 -0.004925 0.023718 
0.059165 -0.018820 0.011503 
0.039290 0.033170 0.008208 
0.076870 0.006964 0.036182 
-0.050000 0.001979 0.002850 
-0.029724 0.081641 0.059236 
-0.041153 -0.007899 0.003000 
0.060576 0.044241 0.038248 
-0.021002 0.063992 0.031142 
0.055091 0.018347 0.023025 
-0.024720 -0.076084 0.047987 
0.019571 0.072476 0.031742 
0.015425 -0.045435 0.003000 
0.070520 0.059691 0.073707 
-0.021137 0.038957 0.003000 
-0.064211 -0.055313 0.069152 
0.007461 -0.087708 0.078000 
0.056082 0.029981 0.013430 
0.026406 -0.080982 0.063280 
0.055686 -0.016840 0.023222 
0.028611 0.067382 0.028301 
-0.033945 0.080803 0.075051 
-0.073544 0.009994 0.030089 
0.018404 0.046415 0.004562 
0.026295 0.089484 0.076990 
0.030305 0.053862 0.010686 
-0.009320 -0.015535 0.003000 
-0.008734 0.087175 0.060911 
0.076445 0.043078 0.075863 
0.075744 0.012494 0.056401 
-0.072411 0.029556 0.038821 
-0.050521 0.077824 0.075781 
-0.049644 0.007489 0.007181 
0.045047 -0.012977 0.002159 
0.043334 0.001130 0.003000 
-0.036217 -0.039380 0.002873 
0.048570 0.055139 0.028621 
-0.076983 -0.041208 0.060187 
0.079974 -0.015415 0.065697 
0.017014 0.087292 0.065151 
0.011797 -0.019596 0.000000 
0.017098 -0.053921 0.015070 
-0.048801 -0.076955 0.071017 
-0.029468 -0.063787 0.043655 
-0.076799 -0.024689 0.043683 
0.022437 0.068970 0.028915 
0.009349 -0.045068 0.003000 
0.067458 0.022238 0.047403 
0.002245 0.091840 0.072443 
0.083559 -0.029253 0.064063 
-0.087511 0.028601 0.078000 
0.064503 0.020220 0.040922 
0.018278 -0.055539 0.008411 
-0.059457 -0.038743 0.024581 
-0.062287 -0.066443 0.069746 
-0.070279 -0.041822 0.045929 
-0.004543 -0.057708 0.022273 
-0.042169 -0.063741 0.035631 
-0.086754 0.004001 0.058897 
0.056381 0.006505 0.005919 
0.034958 -0.066834 0.054482 
0.081493 0.038277 0.078000 
-0.072173 0.052448 0.072142 
0.027106 0.030829 0.000000 
-0.008597 -0.066735 0.039448 
-0.001591 -0.035735 0.003000 
0.011997 -0.040694 0.000000 
0.023280 0.071867 0.048393 
0.083713 0.022389 0.059633 
-0.026095 0.026760 0.000000 
0.080311 0.013146 0.064949 
-0.043786 0.013228 0.000000 
-0.016422 0.079148 0.063062 
-0.022609 0.068783 0.038437 
0.043652 -0.053209 0.021080 
-0.085203 0.013831 0.074095 
0.022888 -0.004684 0.003000 
0.011871 0.080948 0.066486 
0.063268 -0.045770 0.051720 
-0.034081 0.077950 0.053994 
-0.027916 0.027183 0.000000 
0.046776 0.025221 0.002405 
0.053822 0.051708 0.031073 
0.025173 -0.008605 0.000000 
0.020191 0.073757 0.034751 
-0.031005 0.005829 0.000000 
0.020198 -0.038839 0.003000 
-0.051517 0.037441 0.021778 
-0.029869 -0.066434 0.048203 
-0.080065 -0.013987 0.045302 
-0.032319 -0.081725 0.061847 
0.052027 -0.066522 0.052756 
0.045944 0.011117 0.002689 
-0.061673 -0.056040 0.067455 
-0.090072 0.018964 0.078000 
-0.071097 0.004586 0.043557 
-0.027665 0.051415 0.007398 
-0.075898 -0.029455 0.045501 
0.058221 0.000000 0.013547 
0.086102 0.008606 0.072589 
0.054073 -0.019268 0.021745 
-0.072655 -0.043687 0.053291 
-0.016167 0.091792 0.076483 
-0.007805 -0.077605 0.037719 
-0.053780 -0.055891 0.037026 
-0.037021 0.001638 0.000000 
0.007471 -0.047239 0.000000 
0.027414 0.061709 0.038454 
-0.083238 -0.009091 0.067762 
0.080354 -0.042157 0.069783 
-0.008430 -0.076389 0.035186 
0.078188 0.030273 0.051061 
-0.060736 0.010499 0.028561 
-0.011977 -0.077372 0.038301 
0.032299 0.023867 0.000000 
0.069241 -0.034607 0.037122 
-0.053523 -0.032944 0.012331 
-0.086927 -0.015088 0.062448 
0.088349 0.000000 0.063551 
0.003667 0.007189 0.000000 
-0.081269 -0.011016 0.065391 
-0.021448 0.043751 0.000000 
-0.061655 0.005233 0.027189 
0.054264 -0.000000 0.005383 
0.050924 0.074198 0.067711 
0.047028 0.071118 0.054914 
-0.067342 -0.009289 0.039582 
0.048972 0.064200 0.066165 
0.027276 0.026218 0.000000 
0.000905 -0.018826 0.000000 
-0.024026 0.081892 0.068282 
-0.061768 0.001406 0.011117 
0.013810 0.050773 0.009080 
0.023452 0.071552 0.034734 
0.005349 -0.017047 0.003000 
0.021458 0.088751 0.071323 
-0.033932 0.072270 0.062015 
-0.063783 0.031233 0.024279 
0.048976 -0.063508 0.043235 
0.035140 -0.018785 0.003000 
0.070423 -0.050678 0.069632 
0.007538 -0.079534 0.041753 
0.055530 -0.040134 0.026640 
-0.006076 0.017199 0.003000 
-0.067750 0.051977 0.055279 
-0.037925 0.081117 0.066314 
0.022114 -0.072557 0.033410 
-0.070447 0.017639 0.026416 
0.078695 -0.006310 0.058009 
-0.062002 -0.048050 0.039523 
-0.060537 -0.024365 0.036306 
-0.083385 -0.017934 0.055516 
-0.003148 0.026250 0.000000 
0.070397 -0.051496 0.070227 
0.002718 0.064313 0.034839 
0.018116 0.046942 0.001006 
-0.058895 -0.042940 0.034688 
-0.027247 0.078560 0.049069 
-0.063452 -0.020211 0.017824 
0.000028 -0.029320 0.000000 
-0.060455 0.043890 0.043413 
0.012108 0.036815 0.000000 
-0.020424 0.063690 0.033654 
-0.033671 -0.034400 0.000000 
0.046480 -0.024656 0.011369 
-0.046708 -0.022131 0.010319 
0.028784 0.016867 0.003000 
-0.057904 0.042067 0.037729 
0.068441 0.059621 0.069040 
0.015892 -0.031344 0.003000 
0.077988 -0.000521 0.038519 
-0.035368 0.015438 0.003000 
0.057540 -0.037160 0.038571 
-0.004615 -0.091109 0.078000 
-0.019203 -0.075079 0.055321 
0.049405 0.035802 0.014003 
-0.048817 0.020855 0.013332 
-0.028236 0.064085 0.043053 
0.020524 0.026587 0.003000 
-0.062000 0.054445 0.047175 
0.073752 0.057075 0.076486 
0.037607 0.053259 0.037024 
-0.030160 0.085618 0.070103 
-0.052565 -0.020692 0.005824 
-0.005391 -0.057768 0.022389 
0.040269 -0.029956 0.000000 
-0.024188 0.073826 0.049136 
-0.056617 -0.031451 0.014919 
-0.016376 0.041497 0.003000 
0.017903 0.092007 0.077480 
0.022052 -0.066844 0.031365 
0.015855 -0.019632 0.003000 
0.079299 0.016437 0.045017 
-0.072141 0.009240 0.026712 
0.039128 -0.015357 0.003000 
0.044856 0.027488 0.001864 
-0.058570 -0.017611 0.028773 
0.074477 -0.012565 0.054181 
-0.046105 0.018981 0.007456 
0.041757 0.071773 0.069824 
-0.010886 0.043414 0.000000 
-0.001352 -0.067574 0.019562 
0.019012 -0.058468 0.013154 
0.064017 0.014466 0.016134 
0.016188 0.081307 0.067170 
-0.089318 -0.006335 0.076980 
0.048113 0.026922 0.015637 
0.006123 -0.069978 0.023059 
-0.044934 -0.073533 0.057052 
-0.066973 0.049077 0.062794 
-0.019119 -0.066801 0.021821 
0.069202 -0.059871 0.078000 
-0.078990 -0.036429 0.059161 
-0.064698 0.043129 0.037844 
0.081859 0.011845 0.066938 
-0.030559 0.017561 0.000000 
-0.091876 0.012190 0.075678 
-0.023153 0.065875 0.022406 
-0.041642 -0.058123 0.048412 
0.045583 0.068745 0.069392 
0.001957 -0.072336 0.050103 
-0.022003 0.041522 0.000000 
0.057834 -0.057594 0.045303 
-0.029640 0.023313 0.000000 
0.064563 0.060717 0.077919 
0.017146 0.045960 0.000000 
0.017347 -0.024758 0.000000 
-0.012928 0.046508 0.000966 
0.023315 0.071956 0.047198 
-0.088552 -0.020984 0.070460 
-0.035370 -0.031837 0.001664 
0.013383 0.055913 0.018859 
-0.022257 -0.017293 0.000000 
0.088857 -0.019934 0.078000 
0.069817 0.061145 0.074553 
-0.072578 -0.049567 0.062493 
0.083544 0.030459 0.078000 
0.012849 -0.004247 0.000000 
-0.021018 0.064051 0.023889 
-0.011509 -0.057323 0.007471 
0.006031 -0.052265 0.011918 
0.089711 -0.000676 0.066694 
-0.031796 0.044707 0.003797 
0.071784 0.052424 0.064781 
0.053269 0.010750 0.015466 
-0.055520 -0.061091 0.068443 
-0.028370 0.063544 0.042375 
-0.060686 -0.000000 0.019252 
0.037810 -0.066190 0.056654 
0.011872 -0.067799 0.041472 
0.026257 -0.080249 0.059484 
-0.056712 -0.071095 0.070076 
0.056623 0.014442 0.023515 
0.049186 0.004127 0.004454 
0.011244 0.063059 0.013981 
0.042379 -0.029527 0.000869 
0.015572 -0.091038 0.078000 
0.023158 -0.019266 0.003000 
-0.022834 0.042520 0.000000 
-0.031757 0.064639 0.047962 
-0.059974 0.006014 0.024654 
0.054966 -0.013400 0.005681 
-0.084867 -0.010198 0.071331 
-0.046261 -0.009696 0.002442 
0.041650 -0.027188 0.000000 
-0.018696 0.043709 0.000740 
0.047547 -0.016906 0.002687 
-0.086186 -0.032463 0.073753 
-0.041729 0.015220 0.000000 
0.071118 0.059737 0.075092 
0.054176 0.071839 0.067632 
-0.071403 -0.048326 0.058048 
0.035401 0.012119 0.000000 
0.022534 0.069428 0.041861 
-0.011030 0.077657 0.038570 
0.039685 0.053436 0.017981 
-0.029374 -0.066736 0.027698 
0.066033 -0.055590 0.057164 
-0.012023 0.033011 0.003000 
0.080567 -0.004789 0.060460 
-0.021307 -0.079221 0.063201 
-0.011633 0.000050 0.000000 
0.007734 -0.030385 0.000000 
-0.076952 0.016828 0.040002 
-0.037694 -0.053093 0.036227 
-0.056461 -0.045903 0.046277 
0.000373 -0.053737 0.014719 
-0.052015 0.037710 0.020843 
0.064037 0.046369 0.043385 
0.031985 -0.028825 0.003000 
0.081319 0.041479 0.071232 
-0.004164 -0.084080 0.051849 
0.031046 0.081735 0.060669 
0.009449 -0.016269 0.000000 
0.047387 -0.055423 0.027751 
-0.027928 0.084322 0.073802 
-0.036690 0.086182 0.077329 
-0.079399 0.027559 0.071901 
0.057608 -0.037440 0.038859 
0.036867 0.068641 0.059690 
-0.018445 0.016970 0.003000 
-0.055302 0.018275 0.023358 
0.027129 -0.056333 0.011789 
0.068452 -0.049491 0.058033 
0.016229 -0.084468 0.073183 
0.031947 0.003249 0.003000 
0.040485 -0.029317 0.000000 
-0.026080 -0.050181 0.018800 
-0.026416 0.080166 0.052440 
-0.066651 -0.043672 0.058723 
0.028739 -0.010533 0.003000 
-0.024923 0.082837 0.058782 
-0.047992 0.034954 0.014641 
-0.058203 -0.060561 0.070605 
0.019713 0.070822 0.047223 
-0.017632 0.088292 0.067876 
0.045675 -0.012177 0.000000 
0.019923 0.084506 0.059827 
0.038909 -0.043249 0.006974 
-0.074095 -0.026402 0.039708 
-0.034519 -0.076135 0.068410 
0.000712 -0.075512 0.033344 
-0.003769 -0.020907 0.003000 
-0.043257 -0.049702 0.037164 
-0.053220 0.037159 0.030853 
-0.059278 0.022562 0.032984 
0.035147 -0.036341 0.000305 
-0.007456 -0.071100 0.024691 
-0.031473 -0.029181 0.003000 
-0.082412 -0.035618 0.066787 
0.022545 -0.004962 0.003000 
-0.089713 0.012386 0.070175 
-0.044727 -0.080213 0.073136 
-0.001984 -0.081328 0.067209 
0.034939 0.016991 0.003000 
-0.040918 -0.069384 0.043221 
-0.013204 0.072419 0.050261 
0.046774 -0.052086 0.022651 
-0.023842 -0.081908 0.055602 
0.012885 -0.064772 0.016743 
-0.030896 0.031864 0.000000 
-0.007796 0.003982 0.000000 
0.047820 0.005064 0.003000 
-0.065629 -0.066541 0.076396 
0.069387 0.050204 0.056140 
0.058375 -0.068676 0.067678 
0.040651 -0.049447 0.013726 
0.024576 -0.000721 0.000000 
0.006124 -0.034183 0.003000 
-0.046516 -0.044953 0.033722 
0.007317 0.023636 0.000000 
0.055455 0.072974 0.072124 
0.059988 -0.020562 0.013460 
-0.015609 -0.015264 0.003000 
-0.022876 -0.072142 0.033001 
-0.003713 0.013847 0.003000 
0.055886 -0.001478 0.014822 
0.082428 -0.012309 0.068231 
0.026278 -0.081579 0.067687 
0.066847 -0.052201 0.067305 
-0.040275 -0.072899 0.069793 
-0.002226 0.077079 0.059125 
0.059897 0.000210 0.021209 
0.045259 0.036276 0.019483 
-0.069301 0.017618 0.047944 
0.029036 -0.040367 0.007306 
-0.069802 -0.020434 0.026732 
-0.062965 0.064226 0.066769 
-0.024741 -0.074755 0.055398 
0.056577 0.013964 0.023161 
-0.084352 0.013780 0.072543 
-0.072867 -0.050285 0.073765 
-0.066383 0.048298 0.048760 
-0.034487 0.008458 0.003000 
0.069517 0.053771 0.072742 
-0.027603 0.033367 0.000000 
-0.047108 0.073722 0.061390 
0.068383 0.036551 0.036845 
0.024071 0.073707 0.038076 
0.079720 -0.041235 0.078000 
0.054523 -0.039753 0.028167 
-0.017020 0.045893 0.002165 
0.083721 0.020952 0.058760 
-0.080081 0.030158 0.055882 
-0.074510 -0.033073 0.045441 
-0.020505 0.067700 0.041284 
-0.042447 0.030916 0.001768 
0.050431 -0.077256 0.074175 
0.002512 0.016732 0.000000 
-0.046489 0.019023 0.000281 
0.019774 0.010140 0.000000 
0.086921 -0.009573 0.074627 
-0.056505 0.008392 0.006366 
-0.034538 0.079525 0.073749 
-0.059760 -0.029363 0.037894 
0.010172 0.083086 0.050073 
-0.025971 0.012062 0.003000 
0.005893 -0.027289 0.003000 
0.021808 0.089100 0.072449 
-0.021509 -0.028875 0.003000 
-0.030727 0.087699 0.076086 
0.059009 -0.042670 0.042812 
-0.042666 -0.071708 0.049400 
-0.054970 0.039680 0.033462 
-0.085079 -0.032299 0.070780 
-0.056939 -0.000000 0.011307 
-0.043741 0.059681 0.030805 
0.080202 0.021238 0.049390 
-0.048032 0.060272 0.059142 
0.014929 0.047775 0.000000 
-0.065112 0.037923 0.032034 
0.022522 -0.044462 0.003000 
-0.019474 0.045047 0.003692 
-0.054296 0.000179 0.011264 
0.038343 -0.064716 0.032027 
0.035175 0.078288 0.055978 
0.051924 0.060562 0.063845 
-0.050957 0.022926 0.018336 
0.006686 -0.071196 0.047933 
0.041137 -0.036265 0.014730 
0.079036 -0.021527 0.067660 
-0.081389 -0.007874 0.063735 
0.058859 0.071621 0.074750 
-0.021195 0.052808 0.017604 
-0.042133 0.024059 0.000000 
-0.011207 0.061073 0.028675 
-0.029766 0.013421 0.003000 
-0.035872 0.070362 0.039988 
-0.029241 -0.043957 0.001986 
-0.008532 0.055369 0.005389 
0.022724 0.088702 0.072224 
-0.053682 -0.038984 0.027560 
-0.048221 0.067609 0.049122 
-0.077767 0.037754 0.058141 
-0.023134 0.071106 0.033556 
-0.038131 0.068965 0.039475 
0.021683 0.014327 0.000000 
0.024258 0.050957 0.018292 
-0.058940 -0.034429 0.039445 
0.076436 -0.043448 0.061902 
-0.011688 0.055604 0.018272 
-0.009134 -0.063684 0.033644 
0.062516 0.065416 0.068202 
0.092068 -0.003241 0.078000 
0.024112 0.073925 0.046494 
0.042937 -0.057766 0.026674 
0.047069 0.019062 0.009212 
-0.049941 -0.068751 0.054288 
0.009642 0.063538 0.033366 
0.082742 -0.000450 0.048460 
0.084717 -0.001002 0.065660 
-0.026666 -0.040932 0.005496 
-0.010157 0.051787 0.011010 
-0.030343 0.048635 0.021736 
-0.036791 -0.075423 0.051063 
0.045978 0.060888 0.035412 
0.056429 0.061187 0.069732 
-0.006477 -0.074823 0.031903 
-0.084043 -0.025628 0.078000 
0.077485 0.022091 0.043965 
0.008897 -0.031206 0.000000 
0.057821 0.005716 0.020667 
-0.001854 0.078597 0.062015 
0.059112 0.043823 0.046168 
-0.030987 -0.085807 0.071328 
0.080835 0.034446 0.061753 
-0.036694 -0.006789 0.003000 
0.043338 0.066206 0.040623 
-0.002056 0.081842 0.046579 
0.067735 -0.038874 0.037861 
-0.061646 0.069707 0.075136 
-0.028148 0.075641 0.044054 
-0.013343 0.080790 0.046538 
0.050955 0.037056 0.022616 
-0.051438 0.019012 0.016928 
-0.047852 0.065179 0.044660 
0.046413 -0.062223 0.038116 
0.024357 0.006017 0.003000 
-0.052873 0.019883 0.005857 
0.071094 0.000049 0.040968 
0.025484 0.006769 0.000000 
-0.048858 -0.054286 0.027645 
0.052740 -0.077329 0.077801 
0.072602 -0.014612 0.029458 
-0.017741 0.086232 0.076538 
0.011590 0.036136 0.000000 
-0.022778 0.069150 0.036016 
-0.055924 0.051934 0.055057 
0.073765 -0.040267 0.051171 
0.015542 0.010224 0.003000 
0.048709 0.011748 0.000470 
0.023160 -0.073113 0.035175 
-0.053643 0.003328 0.003312 
0.051336 0.005094 0.001214 
-0.047728 -0.049460 0.020866 
0.032997 0.052705 0.031049 
0.067275 -0.048871 0.051762 
-0.028364 0.042544 0.000446 
0.038237 -0.063489 0.052943 
-0.059871 -0.007499 0.025317 
0.063106 0.010324 0.032661 
-0.089621 0.024294 0.075710 
-0.025476 -0.077607 0.046016 
-0.016504 -0.091238 0.074808 
-0.029280 -0.006510 0.003000 
-0.090406 0.009457 0.070396 
-0.061945 0.015522 0.013820 
0.028461 -0.002858 0.000000 
-0.061859 -0.015655 0.033489 
0.069235 -0.018332 0.024903 
0.063508 -0.040639 0.033185 
0.073403 0.025257 0.059819 
0.043797 0.068351 0.044906 
-0.060589 0.013363 0.029931 
0.027477 0.070180 0.051545 
-0.051310 -0.036552 0.027081 
0.032760 -0.058363 0.038909 
0.014211 0.031620 0.003000 
-0.069473 -0.049344 0.067142 
-0.051128 -0.025463 0.020153 
0.017349 -0.034872 0.000000 
0.039482 0.028777 0.001713 
0.069442 0.000000 0.033611 
-0.035284 0.009117 0.000000 
-0.034309 0.086994 0.077379 
-0.069105 -0.050379 0.066097 
-0.018921 -0.057482 0.013499 
0.081589 0.015530 0.049546 
0.051744 0.003864 0.008839 
0.063098 -0.015526 0.015403 
0.072975 -0.050658 0.064627 
-0.041614 -0.046853 0.011582 
-0.055442 -0.069661 0.064853 
0.057639 0.053537 0.039191 
0.040999 -0.066321 0.038299 
0.011257 0.010631 0.000000 
-0.040486 0.034593 0.002549 
0.053941 0.064547 0.051350 
-0.032754 0.014248 0.000000 
-0.076148 0.022502 0.063082 
-0.022308 -0.080783 0.051617 
0.035079 -0.035622 0.000000 
0.049208 0.035533 0.010557 
-0.040048 0.031806 0.006955 
0.000794 0.093778 0.077591 
-0.045389 0.053930 0.046569 
-0.044310 -0.014535 0.001741 
0.061984 0.059063 0.072570 
0.073245 0.036966 0.066508 
-0.036412 -0.078754 0.058715 
0.018399 -0.081395 0.050918 
0.018866 -0.050912 0.011911 
0.008335 0.052269 0.011926 
0.048769 -0.069232 0.053511 
0.010908 -0.040071 0.003000 
-0.054503 0.004261 0.013956 
0.029314 -0.052159 0.008653 
0.061463 0.009455 0.029253 
0.043869 -0.068458 0.066906 
0.036918 0.034521 0.007623 
0.079521 0.038820 0.063333 
-0.028215 -0.067031 0.027316 
-0.016438 0.085779 0.061121 
0.005840 -0.092869 0.076430 
-0.081150 0.001912 0.045131 
0.010534 0.053573 0.014408 
-0.085385 0.035107 0.078000 
-0.036484 -0.043296 0.020017 
0.071033 0.052623 0.063451 
0.078315 0.033619 0.054598 
0.057053 -0.015932 0.008209 
0.045779 -0.030184 0.003881 
-0.027998 0.021076 0.000000 
-0.045226 -0.059516 0.032171 
-0.057212 -0.049884 0.033644 
0.030767 -0.016403 0.003000 
0.031793 -0.083129 0.064976 
0.023381 -0.071110 0.035839 
0.022068 -0.056275 0.009398 
0.091850 0.017252 0.076780 
-0.041589 -0.057284 0.047052 
0.017322 0.005178 0.000000 
-0.048545 -0.001569 0.000000 
-0.030135 0.020473 0.003000 
0.028270 0.029033 0.000000 
-0.085677 0.017296 0.061078 
-0.026311 -0.072153 0.035540 
-0.017536 0.054271 0.006166 
-0.022619 -0.003720 0.000000 
0.024897 0.049616 0.016967 
-0.058050 0.057992 0.046184 
-0.024736 -0.090173 0.078000 
0.046636 0.068396 0.070011 
0.054661 -0.060233 0.066158 
-0.067974 -0.024388 0.049604 
0.002436 -0.079125 0.040897 
0.027573 0.056453 0.012319 
-0.075345 -0.009848 0.033450 
-0.013893 -0.081102 0.066779 
0.031790 -0.033236 0.000000 
0.071732 -0.010409 0.048001 
0.088479 0.004647 0.074478 
0.056804 0.041018 0.028883 
-0.081175 -0.000000 0.053491 
0.022369 -0.069561 0.030019 
0.034026 -0.045204 0.020113 
-0.026919 0.053398 0.025110 
0.059062 0.015400 0.009885 
0.019561 -0.063747 0.033763 
0.015478 0.046397 0.000000 
-0.035648 0.044872 0.022068 
0.066600 0.038335 0.035137 
0.083860 0.000000 0.057863 
-0.051882 -0.056878 0.057868 
-0.048409 -0.069403 0.073419 
-0.011709 -0.076951 0.037312 
0.082865 -0.017506 0.053917 
-0.051455 -0.060214 0.062563 
-0.052322 -0.066532 0.073320 
0.085732 0.026370 0.067526 
-0.039654 0.062723 0.030549 
0.030650 0.057216 0.035278 
0.054301 -0.059919 0.065270 
-0.006849 -0.093248 0.077807 
0.060550 -0.065796 0.065135 
0.023049 0.071689 0.032346 
-0.058134 0.001856 0.019022 
-0.036512 -0.037654 0.001979 
0.066574 0.045548 0.044250 
0.013632 0.021190 0.003000 
-0.021502 -0.065580 0.029701 
-0.014441 0.079363 0.063471 
0.015310 0.001703 0.003000 
0.041544 -0.027467 0.000000 
0.002963 -0.025084 0.003000 
-0.055496 -0.047172 0.047090 
0.040081 0.052717 0.038905 
-0.063114 0.029026 0.022073 
-0.067180 -0.008294 0.038727 
-0.089917 -0.000000 0.068667 
-0.023636 -0.071752 0.036889 
0.082383 -0.018031 0.053008 
-0.046133 0.030348 0.004240 
-0.046609 -0.027377 0.003202 
0.063644 -0.016798 0.037351 
0.057203 0.055445 0.041307 
-0.036299 0.034701 0.002650 
0.041099 -0.059826 0.050447 
0.065428 -0.036296 0.052146 
-0.024763 0.044361 0.000234 
0.076420 -0.030794 0.068505 
-0.078722 -0.040045 0.062883 
-0.026988 -0.066319 0.025258 
0.008480 0.083243 0.049640 
0.011875 -0.083237 0.051358 
-0.040959 -0.029704 0.001788 
0.037849 0.028938 0.000114 
0.008711 -0.005345 0.000000 
-0.047921 0.056933 0.030969 
0.013236 0.042520 0.003000 
-0.018768 0.005139 0.000000 
0.066458 -0.020115 0.021843 
0.064115 -0.058666 0.074240 
0.064128 -0.004052 0.014550 
-0.034903 -0.060284 0.021900 
-0.067442 -0.037627 0.056536 
-0.010940 0.078299 0.061446 
-0.041027 -0.026930 0.002984 
0.073952 -0.049423 0.064833 
-0.003589 -0.087064 0.059715 
-0.054939 0.065666 0.074935 
-0.017352 0.042194 0.000000 
0.019890 -0.072444 0.031865 
0.032027 0.042620 0.002431 
-0.003928 0.091067 0.070706 
0.048354 -0.035050 0.011640 
-0.020017 0.058389 0.024825 
-0.032408 -0.038113 0.007716 
0.018524 0.049809 0.002457 
-0.050416 -0.036503 0.023875 
-0.017194 0.039838 0.000000 
0.033933 -0.028255 0.000000 
0.003638 0.065390 0.016386 
0.012436 -0.002285 0.000000 
0.039949 0.020227 0.000000 
0.010378 0.060626 0.027825 
0.036656 -0.038839 0.013556 
-0.022248 0.068693 0.042623 
-0.024039 -0.073920 0.048334 
0.088488 0.000000 0.066012 
0.018169 0.055577 0.016846 
-0.023572 0.073272 0.035761 
0.082450 -0.028879 0.060808 
0.036268 0.056273 0.018654 
0.022570 -0.069348 0.033555 
0.035055 -0.058134 0.019313 
-0.060287 0.040044 0.045196 
0.054987 -0.048780 0.048921 
0.067241 -0.029311 0.051226 
0.024928 -0.061006 0.034297 
0.079559 0.017887 0.046372 
0.065937 0.000000 0.029556 
-0.050821 -0.037742 0.012769 
-0.059590 -0.043319 0.044336 
-0.064539 -0.000000 0.027033 
0.085835 -0.008335 0.056948 
0.045291 0.047594 0.016277 
-0.046392 0.010559 0.003167 
-0.025081 -0.041340 0.004330 
0.009403 -0.070633 0.046863 
0.021749 0.045010 0.006257 
-0.027770 -0.084971 0.066441 
-0.023441 0.071104 0.037215 
0.064354 -0.021432 0.019633 
0.028376 -0.073999 0.041039 
-0.027616 0.011658 0.000000 
-0.048505 -0.049806 0.022066 
-0.048750 -0.035273 0.019739 
0.007897 -0.059156 0.025029 
0.031953 0.024248 0.000000 
-0.035440 0.012297 0.000000 
0.025671 -0.041478 0.000000 
-0.014359 -0.080189 0.065043 
-0.011357 -0.067660 0.041207 
0.088347 0.021861 0.070671 
-0.055446 -0.070604 0.066921 
-0.009481 0.054547 0.016260 
0.070591 0.006211 0.023950 
-0.020559 -0.063519 0.033292 
0.006457 0.089340 0.078000 
0.072734 -0.007548 0.048147 
-0.002633 0.059216 0.008378 
-0.061081 0.064477 0.078000 
-0.045863 -0.020388 0.007828 
-0.051288 0.050874 0.048363 
-0.054748 0.027128 0.009843 
0.047396 0.033589 0.006785 
0.009073 -0.081236 0.045431 
0.075702 -0.041896 0.057973 
0.054852 0.020654 0.007639 
0.087481 -0.032591 0.077176 
0.031823 -0.023689 0.000000 
0.016626 -0.028357 0.000000 
0.069129 0.053007 0.071152 
-0.006570 -0.062338 0.031082 
-0.005138 0.083496 0.050307 
0.080947 0.016218 0.048491 
0.032294 -0.017742 0.000000 
-0.066831 -0.048700 0.060272 
-0.009378 -0.069002 0.022028 
-0.035782 -0.021677 0.003000 
-0.023548 0.037484 0.003000 
-0.069774 -0.048427 0.067133 
0.048679 0.006006 0.000000 
0.072422 -0.002545 0.026882 
-0.023507 0.051212 0.005572 
-0.072732 0.018039 0.054324 
-0.023252 0.067646 0.042781 
-0.076794 0.045170 0.077734 
-0.075974 0.015693 0.037343 
0.021514 -0.045394 0.001495 
-0.010459 0.069522 0.044750 
-0.058384 -0.031943 0.036972 
-0.044567 0.067981 0.067112 
0.009941 0.072065 0.049587 
-0.078225 -0.023651 0.067476 
-0.039551 -0.057553 0.023189 
-0.012811 0.084183 0.055044 
-0.006068 0.078674 0.039956 
0.059850 0.064033 0.060374 
-0.067939 0.035698 0.056276 
0.047393 -0.073205 0.060039 
0.051138 -0.014738 0.013960 
0.022898 -0.073471 0.052262 
-0.049599 0.055935 0.031177 
0.061034 0.044406 0.042661 
0.034348 -0.075829 0.049007 
0.078594 -0.039023 0.061339 
-0.089435 -0.004811 0.066274 
-0.078180 -0.039467 0.060873 
-0.013755 0.006892 0.003000 
0.022349 0.071286 0.048105 
-0.036024 0.001805 0.000000 
-0.049599 -0.031080 0.020767 
0.070146 -0.051122 0.068112 
-0.013547 -0.086063 0.076217 
0.063821 0.060920 0.062033 
-0.014208 -0.069632 0.023900 
0.033819 -0.069293 0.057025 
-0.008814 0.026234 0.000000 
-0.022725 0.090085 0.075567 
0.072274 -0.058670 0.075869 
0.076329 -0.034687 0.070661 
-0.032637 -0.028288 0.000000 
0.071044 -0.048023 0.056303 
0.080082 -0.007215 0.042899 
-0.017487 0.060675 0.027918 
0.056339 -0.051682 0.054771 
-0.065844 0.039381 0.035103 
0.037348 -0.078290 0.074894 
-0.074248 -0.054429 0.078000 
-0.014451 -0.074256 0.032831 
0.021337 -0.065071 0.028446 
-0.029851 0.076185 0.046345 
0.050212 -0.038893 0.028815 
-0.022129 -0.039859 0.003000 
-0.032132 -0.056444 0.015133 
-0.016918 0.022985 0.000000 
0.083831 -0.036203 0.070916 
0.007800 0.014968 0.003000 
-0.003992 0.010154 0.003000 
0.031916 0.085101 0.070283 
0.049195 0.033974 0.008397 
0.073149 -0.015797 0.031170 
-0.069425 0.029454 0.032963 
-0.059556 0.068963 0.070078 
0.057794 0.012048 0.024227 
0.068062 0.026477 0.051006 
0.009601 -0.077024 0.037090 
0.060506 -0.050130 0.039656 
-0.066482 -0.035500 0.053556 
-0.053345 -0.039016 0.023206 
0.082089 -0.014301 0.050171 
0.062311 0.038770 0.048052 
0.019130 0.000685 0.000000 
-0.077252 0.052777 0.077670 
0.024485 0.074394 0.041975 
-0.030935 0.038968 0.007561 
0.002544 0.072975 0.028040 
-0.014144 -0.045883 0.000000 
-0.064594 0.035185 0.049995 
0.049416 -0.022821 0.015521 
0.046980 -0.031757 0.016491 
0.046125 -0.058141 0.030987 
0.052632 0.044189 0.021063 
-0.015734 -0.091818 0.078000 
-0.022254 -0.024712 0.003000 
-0.078730 0.026723 0.049005 
0.043962 -0.020481 0.004513 
-0.078877 0.028805 0.071710 
0.046532 0.015822 0.006414 
0.079796 0.025681 0.050971 
0.021893 -0.042261 0.000000 
0.064276 -0.043482 0.054368 
-0.015244 0.056166 0.007194 
0.064874 0.049255 0.045806 
0.028203 0.018201 0.003000 
0.037289 -0.076566 0.054342 
-0.038360 -0.022141 0.000000 
-0.022131 0.076961 0.042878 
-0.009117 -0.013854 0.003000 
0.049918 0.067177 0.050818 
-0.053854 -0.010445 0.016330 
0.003323 -0.069506 0.044718 
0.032508 -0.081193 0.074012 
0.002910 0.013170 0.000000 
-0.043053 0.003658 0.000000 
-0.047708 0.073910 0.062809 
0.019121 -0.054197 0.017287 
-0.045265 0.042978 0.029719 
-0.026476 -0.058955 0.032839 
0.044393 -0.064663 0.039754 
0.015955 0.078941 0.062668 
-0.017243 -0.071339 0.028022 
0.008642 -0.060945 0.028432 
0.039162 -0.083794 0.074157 
0.058628 -0.020168 0.011436 
0.073058 -0.050438 0.074195 
0.008045 0.054004 0.015227 
-0.009326 -0.033188 0.003000 
-0.022481 0.082469 0.056304 
0.037753 -0.011125 0.000000 
-0.030995 0.050005 0.024594 
0.013837 0.062225 0.013407 
0.061001 -0.017457 0.033023 
0.044731 -0.046229 0.033629 
0.018815 0.043261 0.000000 
0.085497 -0.006316 0.055582 
-0.007152 0.004610 0.000000 
0.062480 0.015454 0.014399 
-0.048550 -0.060728 0.037942 
-0.068907 0.051684 0.068890 
-0.028550 -0.051402 0.023440 
0.048510 0.006612 0.000000 
0.066887 0.024560 0.047766 
0.045992 -0.039767 0.025395 
0.056187 0.000000 0.013752 
0.075945 0.043344 0.060553 
0.050198 0.054514 0.029898 
-0.009146 -0.013386 0.000000 
-0.053626 0.026478 0.008638 
-0.053040 -0.062387 0.067695 
0.019769 0.081045 0.066672 
-0.059744 0.000545 0.021129 
-0.016122 -0.054805 0.016752 
0.003885 -0.076972 0.058921 
-0.029121 0.041227 0.008942 
0.073204 0.033848 0.043581 
-0.003511 0.062323 0.031053 
0.052810 -0.049420 0.047438 
0.019939 0.014280 0.003000 
0.080565 0.033928 0.060620 
0.017637 -0.085723 0.075571 
0.024919 0.078437 0.047231 
-0.049214 -0.008929 0.001786 
0.014110 0.035249 0.000000 
-0.018136 0.013147 0.000000 
0.061115 -0.068223 0.071034 
-0.064524 -0.055629 0.069989 
0.060825 0.004428 0.009841 
-0.055959 0.004399 0.016616 
-0.049625 0.055938 0.054271 
-0.029040 -0.037767 0.003430 
-0.036879 -0.009970 0.003000 
-0.018657 -0.074130 0.034682 
-0.085354 0.010620 0.056805 
0.013859 -0.073480 0.031180 
0.063205 0.063591 0.066007 
0.006216 0.086997 0.059678 
0.034828 -0.072561 0.063214 
0.021289 -0.086959 0.066855 
0.068575 -0.002079 0.037658 
-0.018442 -0.056075 0.009122 
0.048751 -0.045972 0.037745 
-0.002063 0.053748 0.014740 
0.028386 -0.079463 0.052425 
0.084890 -0.009816 0.054923 
0.083798 -0.019317 0.074850 
0.060361 -0.043668 0.034015 
-0.039713 0.045906 0.028107 
0.076676 0.000000 0.049686 
0.040886 0.026676 0.003000 
0.069538 -0.048856 0.054314 
-0.008115 0.079995 0.042717 
-0.025399 0.077931 0.061062 
0.084692 0.000000 0.062685 
-0.000864 0.091293 0.070862 
-0.033444 -0.016246 0.003000 
0.049867 -0.000300 0.003481 
0.042726 0.031033 0.005406 
0.054589 0.014534 0.005917 
0.028217 0.085282 0.075609 
-0.023689 -0.072147 0.039516 
0.045470 0.014417 0.000000 
-0.049551 -0.042121 0.032894 
0.088601 0.009821 0.077777 
0.013493 0.059593 0.025859 
0.006101 0.033845 0.000000 
0.045861 -0.059840 0.033554 
-0.040599 -0.066077 0.059580 
0.005505 0.053974 0.015170 
0.048895 -0.069246 0.073716 
0.010967 0.068339 0.021411 
0.001902 0.044059 0.000000 
0.002724 0.004613 0.000000 
-0.037414 -0.074110 0.068489 
-0.019660 -0.089854 0.072540 
0.049934 0.036204 0.010122 
0.021492 -0.041579 0.000000 
-0.047130 0.059606 0.034657 
-0.028955 -0.024198 0.003000 
0.073849 0.006208 0.049361 
-0.068163 0.004230 0.038153 
0.083514 -0.006269 0.066575 
-0.029867 -0.001291 0.003000 
0.074504 0.011632 0.032759 
0.063879 0.026629 0.021715 
0.051195 0.039376 0.030713 
0.080267 -0.030731 0.056926 
-0.009823 0.034480 0.003000 
0.016105 0.049189 0.005089 
-0.006798 0.092359 0.075240 
-0.021957 0.088817 0.071884 
-0.048169 0.056485 0.030482 
-0.025875 0.081023 0.054424 
-0.015683 -0.047634 0.001197 
0.059137 0.055352 0.063791 
0.044113 0.021348 0.003000 
0.025468 -0.043719 0.002541 
0.017382 0.061204 0.013552 
0.069506 -0.035142 0.038102 
-0.061964 -0.021410 0.037095 
0.011802 0.032955 0.000000 
0.009421 -0.046454 0.003000 
0.024796 0.076407 0.053885 
-0.054664 0.056863 0.039696 
0.045230 0.011628 0.000000 
-0.019353 -0.059163 0.020429 
0.020496 0.062529 0.024896 
0.064939 0.044111 0.055927 
0.003179 -0.049225 0.000000 
-0.036513 -0.072954 0.045708 
0.009762 0.065017 0.036178 
-0.071308 0.030570 0.037421 
0.035274 0.063155 0.025794 
-0.003141 0.012938 0.003000 
-0.006030 0.085178 0.054743 
-0.010303 0.075165 0.055485 
0.034343 -0.073396 0.044347 
-0.033555 -0.042271 0.015209 
0.002231 -0.087664 0.078000 
-0.007810 -0.058865 0.024475 
0.067923 0.021327 0.024265 
0.014445 -0.047872 0.003561 
-0.064770 0.019500 0.040971 
0.072026 0.030890 0.039044 
-0.065070 0.047202 0.051561 
0.068203 -0.051757 0.055923 
-0.043499 0.034742 0.015216 
-0.056881 -0.065771 0.077210 
0.047567 0.063126 0.040954 
-0.017199 -0.084019 0.056573 
0.012702 0.061136 0.011550 
0.001359 0.057189 0.021287 
-0.043992 0.074493 0.058033 
0.056585 -0.057714 0.043681 
-0.018941 -0.081150 0.066870 
-0.032597 0.009805 0.000000 
0.011589 0.069170 0.044079 
0.076798 0.035460 0.052693 
-0.051538 0.037172 0.026256 
-0.088129 -0.015777 0.078000 
0.027747 0.040949 0.006930 
-0.060430 -0.022834 0.035204 
-0.066496 0.048304 0.055964 
-0.003134 0.073042 0.028179 
-0.018133 0.083426 0.055775 
0.043754 -0.054110 0.044541 
-0.022688 0.070224 0.046006 
0.001250 -0.061935 0.030316 
-0.039752 -0.042881 0.007271 
-0.032885 0.053698 0.012522 
0.076305 -0.013888 0.037506 
-0.085602 0.005290 0.069722 
0.087485 -0.021856 0.067801 
0.038494 0.055297 0.019370 
0.020777 -0.070192 0.027739 
0.047650 -0.037145 0.023337 
-0.073715 0.042505 0.053962 
0.080119 0.019928 0.048513 
-0.029102 0.088025 0.075519 
0.024437 0.030266 0.003000 
0.065741 0.000000 0.029176 
-0.076133 0.045013 0.063388 
0.025748 -0.078502 0.048170 
-0.069781 0.007809 0.022815 
0.086797 0.006448 0.059169 
-0.036672 -0.063219 0.050783 
-0.060238 0.022724 0.034795 
-0.004036 0.093387 0.077399 
0.007808 0.065368 0.036846 
0.020352 0.086668 0.065398 
-0.004027 0.080162 0.064991 
-0.040357 -0.042451 0.007380 
0.009783 0.000007 0.003000 
-0.081066 0.022476 0.071851 
0.071161 0.001532 0.041932 
0.017527 -0.052752 0.007866 
-0.040905 0.024795 0.001550 
-0.048911 -0.028917 0.018250 
-0.078470 -0.036387 0.075498 
-0.003807 0.083291 0.070943 
0.026046 -0.038246 0.000793 
-0.008456 0.078269 0.061389 
0.012646 -0.014202 0.003000 
-0.058735 -0.033417 0.038477 
-0.063454 -0.065900 0.078000 
0.036668 0.005676 0.000000 
0.070209 -0.015888 0.048536 
0.022055 0.068769 0.027411 
0.051432 -0.033360 0.009880 
0.065718 -0.047928 0.049402 
-0.041951 -0.018934 0.000066 
-0.042349 -0.030521 0.005796 
0.022809 -0.018014 0.003000 
0.051229 -0.070003 0.059043 
0.070203 0.046993 0.067045 
0.014663 -0.026521 0.000000 
0.054261 -0.046892 0.045288 
0.048535 -0.025013 0.015253 
-0.026492 0.056161 0.011209 
0.014697 -0.018388 0.000000 
-0.079123 0.011911 0.042561 
-0.026924 -0.038364 0.001952 
-0.077600 -0.003716 0.037709 
0.022232 0.036088 0.000000 
-0.023943 0.024099 0.000000 
0.037351 0.084928 0.074683 
0.015105 0.076599 0.058212 
0.087889 -0.013361 0.065747 
0.026631 0.003818 0.003000 
0.048920 -0.001027 0.002216 
0.061401 -0.069163 0.073585 
-0.044952 0.074471 0.077439 
0.027023 0.055453 0.028388 
0.038778 -0.079686 0.063681 
0.003592 -0.048787 0.005303 
-0.045514 -0.042171 0.010731 
0.023264 -0.089557 0.074724 
-0.086026 0.029960 0.078000 
-0.029905 -0.052479 0.026614 
-0.005378 0.059187 0.008352 
0.058661 -0.069675 0.070312 
-0.024471 0.032702 0.003000 
-0.041060 0.046333 0.030235 
-0.001547 0.054003 0.015226 
-0.087542 0.020039 0.067259 
0.069444 0.015162 0.023913 
-0.039954 0.037048 0.014853 
0.047490 -0.024002 0.012785 
0.000978 0.003416 0.003000 
-0.027038 0.056521 0.030047 
0.004128 -0.072950 0.051271 
0.084980 -0.007232 0.069766 
0.083814 0.020412 0.075531 
-0.043886 0.019745 0.003958 
-0.038532 0.040859 0.019112 
0.082897 0.021619 0.056949 
0.082620 0.025744 0.076573 
-0.005794 -0.009446 0.003000 
-0.082873 -0.018749 0.054934 
0.014388 -0.079601 0.044804 
0.050520 -0.044458 0.018571 
-0.058186 0.005502 0.007442 
-0.060281 -0.043893 0.033958 
0.042537 0.039119 0.006660 
0.050571 -0.067844 0.053344 
-0.075182 0.017397 0.036383 
0.080958 -0.013698 0.047226 
-0.073280 -0.053334 0.072081 
0.071062 -0.024649 0.032111 
0.067863 -0.030256 0.030583 
0.027851 0.084444 0.073900 
0.078910 0.000000 0.044501 
0.009452 -0.035238 0.003000 
-0.045545 0.009272 0.003000 
0.001351 0.086794 0.059003 
0.005002 0.003015 0.003000 
-0.082284 -0.000000 0.049213 
-0.068030 -0.063398 0.074960 
-0.018434 -0.052949 0.014588 
0.070285 -0.027001 0.055289 
-0.040198 -0.018993 0.003000 
-0.021352 -0.068162 0.024594 
-0.029405 -0.058278 0.035047 
0.050144 -0.070700 0.077358 
-0.078392 0.042582 0.065852 
-0.071597 -0.049168 0.059695 
0.060864 -0.035160 0.043318 
-0.067763 -0.052130 0.068226 
0.044104 0.047465 0.035295 
-0.000263 -0.074553 0.031339 
0.021031 0.076995 0.042153 
0.066146 -0.021953 0.044890 
0.047373 0.070309 0.073738 
-0.009216 -0.053084 0.003475 
0.079267 0.020976 0.067745 
0.046686 -0.050562 0.042302 
-0.031308 -0.035431 0.000000 
-0.027701 -0.027226 0.000000 
-0.004792 -0.034774 0.003000 
0.026158 0.055256 0.009863 
-0.035565 -0.081766 0.065020 
0.020595 0.050463 0.013309 
-0.026827 0.055677 0.010788 
-0.069270 0.052267 0.070177 
0.022673 -0.049180 0.013461 
-0.082344 0.028597 0.060256 
-0.076416 -0.007636 0.035234 
-0.000477 0.060272 0.027151 
-0.054656 -0.067653 0.077652 
0.073458 0.024322 0.036706 
-0.081808 0.003117 0.046507 
0.009822 -0.060987 0.028512 
-0.040953 0.028616 0.003856 
-0.050940 0.066466 0.071777 
-0.032318 -0.056444 0.035443 
0.025928 -0.059237 0.032667 
-0.059462 0.005180 0.008602 
-0.024925 0.054874 0.025080 
-0.041897 0.059322 0.050974 
-0.061145 0.041277 0.029942 
0.057576 0.069208 0.078000 
-0.029105 0.033015 0.000000 
0.015609 0.058491 0.009467 
0.048931 -0.065938 0.068628 
0.038426 -0.081673 0.078000 
-0.034850 0.086730 0.077156 
-0.057057 0.025019 0.030480 
0.057433 0.024977 0.031126 
0.010819 -0.048582 0.000000 
-0.038770 -0.082156 0.078000 
0.032191 -0.080929 0.059719 
0.061724 -0.026952 0.018999 
-0.035074 0.076552 0.051725 
0.049230 -0.050378 0.044859 
0.057801 0.043963 0.027913 
0.059557 -0.019182 0.031471 
0.066767 0.036332 0.054560 
-0.013913 -0.062656 0.014033 
0.063377 0.002544 0.028708 
-0.079553 -0.006395 0.059579 
0.044558 0.046526 0.014356 
-0.062329 0.038525 0.028223 
0.036040 -0.078047 0.056411 
0.071629 0.002302 0.025460 
0.035950 -0.069018 0.058969 
-0.068797 0.027147 0.052718 
0.058818 0.042537 0.035240 
-0.023132 0.040665 0.003000 
0.074042 -0.017552 0.056373 
0.053877 -0.039097 0.032762 
-0.029985 0.039976 0.008014 
-0.029986 -0.062941 0.042919 
-0.052955 -0.005054 0.011664 
0.005578 0.049056 0.000000 
-0.009538 0.092702 0.077012 
-0.069578 -0.051756 0.069699 
-0.057559 -0.045349 0.046677 
0.054230 0.006254 0.003957 
0.001887 -0.033078 0.003000 
-0.078834 0.029549 0.072076 
0.048185 0.036706 0.023343 
-0.049987 -0.019483 0.003243 
-0.072889 -0.047605 0.060287 
0.012076 0.020358 0.003000 
-0.025202 -0.062454 0.018933 
-0.044257 -0.020552 0.000000 
-0.070465 -0.050045 0.069330 
-0.032793 0.037453 0.007374 
0.090036 -0.023396 0.075806 
0.028079 -0.087756 0.074063 
-0.027601 0.082127 0.058652 
0.001232 0.069247 0.044227 
0.092322 0.014101 0.078000 
0.054143 0.012248 0.017869 
-0.014456 0.018238 0.003000 
-0.009172 -0.092666 0.076803 
-0.014045 0.088364 0.078000 
0.051706 -0.050709 0.026596 
0.010431 -0.069952 0.045568 
0.046830 -0.013768 0.003000 
0.075194 -0.012535 0.034591 
0.038577 0.032845 0.006930 
0.089226 -0.019502 0.078000 
-0.066311 -0.024591 0.023844 
0.004101 0.072737 0.050865 
-0.027618 -0.007344 0.000000 
-0.019690 -0.059877 0.020028 
-0.041000 -0.075507 0.056581 
-0.038608 0.053824 0.038983 
-0.006872 0.003154 0.000000 
0.037654 -0.031505 0.000000 
0.022934 -0.041141 0.001629 
-0.070666 0.045423 0.066938 
0.023576 -0.085112 0.064152 
-0.070041 0.008557 0.043949 
0.032952 0.032038 0.003000 
0.055747 -0.040490 0.036890 
-0.076488 -0.043020 0.075907 
0.076042 0.044563 0.062547 
0.086953 0.032847 0.078000 
0.049228 -0.000734 0.000000 
-0.014431 -0.056145 0.007185 
-0.039796 -0.062287 0.052814 
-0.025808 0.078436 0.048015 
0.078605 -0.039024 0.077308 
-0.085923 -0.024786 0.067088 
0.081197 0.027935 0.056617 
0.021323 0.065126 0.029746 
-0.051271 -0.070159 0.059436 
-0.020518 0.035264 0.003000 
-0.077091 -0.024189 0.043992 
0.061517 0.039330 0.028123 
-0.033932 0.063271 0.048280 
0.042615 -0.033712 0.003329 
0.075460 0.014913 0.035945 
-0.022569 -0.048614 0.012467 
0.087135 0.027761 0.072181 
-0.074308 -0.054105 0.077054 
0.022927 -0.041398 0.000000 
-0.006104 0.046567 0.001079 
0.043467 -0.019699 0.003189 
-0.062841 0.019179 0.016602 
-0.040642 -0.029592 0.003000 
0.001984 0.079756 0.064218 
0.008600 0.080628 0.044040 
0.015330 0.072280 0.028981 
0.044905 -0.001649 0.000000 
0.045550 -0.072023 0.054585 
0.023836 0.049981 0.016304 
0.072938 -0.048931 0.061854 
0.064275 -0.015454 0.016985 
0.041371 0.057120 0.024271 
-0.017731 -0.054509 0.016225 
0.057735 0.033051 0.036473 
0.050195 0.033357 0.023187 
0.074106 -0.006729 0.030403 
-0.042989 -0.031848 0.010211 
0.075112 -0.048970 0.066862 
0.081435 0.030024 0.077005 
-0.009310 0.053947 0.004243 
-0.024369 -0.000389 0.003000 
0.090255 -0.005758 0.068899 
-0.052631 -0.066892 0.054425 
0.065236 0.042413 0.055446 
-0.010013 -0.063404 0.014221 
0.089992 0.013002 0.070225 
-0.020604 -0.063316 0.030032 
-0.035507 -0.067818 0.035156 
0.052427 0.038200 0.019379 
-0.056097 -0.037312 0.036083 
0.087061 -0.034706 0.077904 
0.010677 0.055392 0.005678 
0.008426 0.087609 0.062069 
-0.083166 0.013014 0.052309 
-0.034937 0.023848 0.003000 
0.061784 -0.039534 0.028840 
0.038837 0.035481 0.011238 
0.077061 0.009320 0.056863 
0.064450 0.055133 0.069274 
0.037533 0.053559 0.016178 
0.060165 -0.031401 0.019667 
-0.016445 -0.005207 0.003000 
-0.063866 -0.011090 0.034445 
-0.048285 0.022031 0.002581 
-0.058329 -0.053326 0.059530 
-0.011641 0.037981 0.003000 
-0.082588 0.038110 0.078000 
0.038844 -0.063133 0.030113 
-0.027815 -0.086024 0.074847 
0.058669 -0.009516 0.008400 
-0.077883 -0.010629 0.038919 
0.058779 0.015929 0.028186 
0.038608 0.008553 0.003000 
0.026213 0.080908 0.057636 
-0.052147 -0.037797 0.027256 
0.074610 0.017850 0.035625 
0.062047 0.037595 0.026618 
0.034593 -0.071801 0.061775 
0.019776 -0.079431 0.063601 
0.065356 0.030667 0.048666 
0.056690 0.070853 0.069508 
0.047766 -0.034719 0.015974 
-0.039290 0.044986 0.026240 
-0.077088 0.046111 0.067316 
-0.049547 -0.032186 0.007824 
0.018391 0.061328 0.029160 
0.036026 0.044502 0.006248 
