
# .PCD v.6 - Point Cloud Data file format
FIELDS x y z 
SIZE 4 4 4 
TYPE F F F 
COUNT 1 1 1 
WIDTH 1647
HEIGHT 1
VIEWPOINT 0.000000 0.000000 0.000000 1.000000 0.000000 0.000000 0.00000
POINTS 1647
DATA ascii
-0.018353 0.026158 0.006082 
-0.040883 0.028014 0.025968 
0.005936 0.000635 0.002494 
0.027676 -0.008335 0.000000 
-0.007951 0.044387 0.032055 
-0.040581 0.026914 0.037360 
-0.044447 0.015452 0.021347 
-0.033372 0.040678 0.048928 
0.013230 0.008837 0.000000 
-0.052349 -0.003002 0.044698 
0.027925 -0.001445 0.000000 
0.011729 -0.037158 0.016702 
-0.023258 -0.042197 0.039343 
0.000290 0.000764 0.002488 
-0.029810 0.039820 0.026587 
-0.011193 -0.050540 0.044875 
0.012829 0.006084 0.002400 
0.029949 -0.011225 0.000000 
0.018745 -0.027085 0.002983 
-0.042215 -0.031172 0.043490 
-0.028488 0.034554 0.032517 
0.040840 -0.003993 0.009373 
0.006796 0.053375 0.038091 
-0.016115 -0.027962 0.001612 
-0.014505 0.051651 0.036737 
-0.034398 -0.028160 0.015238 
-0.036157 0.010263 0.018419 
-0.036035 0.029464 0.019331 
-0.028752 -0.032696 0.029960 
-0.001571 -0.036642 0.015921 
-0.032213 0.007489 0.008882 
-0.039380 0.031388 0.040394 
0.036539 -0.026621 0.028513 
0.055720 0.015096 0.049292 
-0.009767 0.006277 0.000000 
0.011292 0.028640 0.002114 
-0.042873 -0.018052 0.020682 
0.049338 0.010655 0.043779 
-0.013316 0.010656 0.002319 
-0.036540 -0.000000 0.005367 
-0.016084 0.049819 0.041571 
-0.011682 -0.051402 0.046671 
0.010188 -0.032178 0.002507 
-0.023896 0.021733 0.005041 
0.001706 -0.045578 0.018349 
-0.016068 -0.026042 0.003307 
-0.038873 -0.041558 0.046687 
-0.042461 0.038875 0.048599 
0.011828 -0.025845 0.000000 
-0.039482 0.009495 0.024321 
0.023244 -0.041601 0.022248 
-0.005535 -0.051864 0.047634 
0.019003 -0.037793 0.026559 
-0.033669 -0.002001 0.000669 
-0.020587 -0.043462 0.038261 
0.035758 0.016021 0.020196 
-0.039613 0.022855 0.018080 
-0.028002 0.028522 0.021625 
-0.006560 0.043432 0.014926 
0.022066 0.050720 0.041941 
0.016746 0.054668 0.047861 
-0.032391 -0.005053 0.007297 
-0.047517 -0.000090 0.022071 
-0.027129 -0.006161 0.003000 
0.039120 -0.040189 0.050000 
0.025284 0.047082 0.036503 
-0.038785 0.013605 0.010065 
-0.029130 0.044491 0.035365 
0.034941 -0.029337 0.017432 
0.039173 0.012165 0.009748 
0.012659 -0.006511 0.000000 
-0.038494 0.024882 0.017812 
0.023508 0.047662 0.048840 
0.011735 -0.036353 0.006228 
0.030623 0.032755 0.016240 
-0.011339 -0.035018 0.007928 
-0.008448 -0.035612 0.013776 
0.019700 -0.025519 0.003000 
-0.027820 -0.046506 0.038259 
0.008000 -0.056339 0.046480 
-0.033184 0.028224 0.013831 
-0.047372 0.014209 0.042516 
-0.010062 0.028739 0.000794 
-0.019409 -0.037633 0.012026 
-0.045435 0.033724 0.045860 
0.013250 -0.043533 0.017726 
0.050182 0.001675 0.027539 
0.025119 0.049659 0.043497 
0.038852 0.028084 0.026836 
0.034590 -0.014896 0.018057 
0.037481 -0.013906 0.023301 
-0.017419 -0.043688 0.021476 
0.021817 -0.013272 0.003000 
0.035788 -0.022008 0.024623 
-0.020160 -0.019607 0.003000 
0.018636 -0.014150 0.002879 
-0.023495 -0.020413 0.003000 
-0.011358 -0.050096 0.043950 
0.045926 0.023851 0.045752 
-0.042540 -0.018836 0.020644 
-0.028381 0.006552 0.000416 
0.016406 -0.018643 0.000000 
-0.016290 0.034502 0.017820 
-0.011391 -0.036935 0.016531 
-0.044234 0.014020 0.019557 
0.038535 -0.028071 0.030136 
-0.037006 0.025286 0.029027 
0.050571 -0.018194 0.037842 
0.009083 -0.012172 0.000000 
0.038024 0.040384 0.042417 
-0.016482 0.049845 0.033865 
-0.041622 0.030290 0.039787 
0.030275 0.032416 0.015400 
0.040788 -0.029821 0.038543 
0.010742 -0.033863 0.008624 
0.016859 -0.054189 0.046459 
0.039057 -0.019407 0.029858 
-0.044476 0.008764 0.033456 
-0.000111 0.051054 0.045946 
-0.002934 -0.039948 0.007738 
-0.028267 -0.050119 0.050000 
-0.013178 0.053646 0.041116 
0.034207 0.040347 0.034968 
0.035015 0.043491 0.050000 
0.045793 0.000707 0.018587 
-0.031486 0.024183 0.018466 
-0.030903 0.045074 0.039910 
0.055701 -0.001268 0.043522 
0.040663 0.005197 0.009455 
-0.039063 -0.040867 0.050000 
-0.003735 -0.003559 0.000000 
0.012364 -0.000922 0.000000 
-0.044553 -0.008054 0.017737 
-0.049851 -0.026068 0.045353 
0.013747 0.042242 0.018094 
-0.040159 -0.020561 0.017356 
-0.014785 -0.038054 0.009500 
0.010263 0.049127 0.041932 
0.011469 -0.035585 0.004971 
-0.049477 -0.015630 0.031919 
0.024372 0.033321 0.025748 
-0.047675 -0.018728 0.045835 
0.024039 -0.022524 0.006551 
0.001796 -0.053331 0.036353 
-0.012997 0.040598 0.022523 
0.016158 0.035971 0.006084 
-0.013070 0.033413 0.002945 
0.053167 0.008213 0.049808 
0.036198 -0.023756 0.012897 
0.025904 0.017973 0.000000 
-0.015348 -0.047045 0.032019 
0.037651 -0.000911 0.015298 
-0.019855 0.042047 0.020478 
0.038579 0.031362 0.026919 
0.007934 0.051790 0.033502 
-0.031082 0.007384 0.000000 
-0.013947 0.030863 0.008922 
-0.051763 0.009528 0.047959 
-0.033010 0.001333 0.006644 
-0.010533 -0.007078 0.000000 
-0.013153 0.040479 0.012541 
0.004795 0.037893 0.018527 
0.034687 0.028323 0.015790 
-0.009961 0.047433 0.023866 
0.021141 -0.028053 0.012543 
-0.025865 -0.041217 0.040828 
0.015166 0.047206 0.036719 
0.024227 -0.026833 0.003373 
0.025172 -0.001924 0.000000 
-0.055172 0.009979 0.050000 
0.020067 -0.040002 0.016675 
0.016570 -0.005622 0.000000 
0.010711 -0.056711 0.048664 
0.020505 -0.009293 0.003000 
0.052270 0.023837 0.047903 
0.048498 -0.011698 0.043071 
0.011975 -0.036926 0.011317 
0.013067 0.051320 0.046501 
0.037923 0.031109 0.038249 
-0.003186 -0.004681 0.002570 
0.003043 -0.037366 0.017430 
-0.032928 0.001003 0.003000 
-0.023241 -0.052067 0.046781 
0.020718 -0.048342 0.046581 
0.018999 -0.018967 0.000000 
-0.014781 -0.008675 0.002640 
0.029735 -0.010214 0.005321 
0.032066 -0.032895 0.018495 
-0.029855 -0.003701 0.001699 
0.006242 -0.042409 0.027935 
-0.002404 -0.042678 0.012742 
0.041019 0.009012 0.011715 
0.008056 0.032994 0.001275 
0.016492 0.050746 0.038240 
-0.024214 0.021786 0.000992 
0.007417 0.054140 0.040392 
0.001765 -0.051430 0.046728 
0.030011 0.007014 0.003768 
0.037983 0.030794 0.037773 
0.040461 0.002642 0.008679 
-0.000035 0.048494 0.040612 
-0.035240 0.044721 0.050000 
0.014978 -0.046463 0.036564 
-0.029584 -0.001731 0.000125 
-0.043445 0.031628 0.045993 
-0.025398 -0.029876 0.006335 
0.034370 0.042008 0.039120 
0.000697 0.047832 0.022943 
-0.035580 0.025509 0.019918 
-0.039780 -0.041717 0.048936 
0.029265 -0.035602 0.035253 
-0.024090 -0.051334 0.050000 
-0.015735 -0.008970 0.000000 
-0.006631 0.050217 0.044203 
0.030529 0.000190 0.000000 
-0.020078 0.033382 0.020336 
0.044146 0.029196 0.045755 
0.005063 0.025949 0.000000 
0.013828 -0.043083 0.025056 
0.015425 0.040780 0.014632 
-0.012385 -0.044534 0.032363 
0.047023 -0.029845 0.050000 
-0.023479 0.050392 0.042569 
-0.022146 0.024755 0.000601 
-0.017978 -0.040082 0.015297 
0.041143 0.028401 0.027030 
-0.029883 -0.036755 0.038149 
0.011748 -0.009129 0.000000 
0.045792 -0.027877 0.048238 
-0.042304 0.015524 0.033613 
-0.024137 -0.046894 0.034521 
-0.018096 0.038806 0.027219 
0.026154 -0.009708 0.000000 
0.002824 0.017991 0.000000 
0.020540 0.040355 0.017721 
0.005433 0.037012 0.016691 
-0.002961 -0.011482 0.000000 
-0.030004 -0.033100 0.032146 
0.056226 0.000419 0.044383 
-0.013342 0.041288 0.017097 
-0.009460 -0.051154 0.046154 
-0.002222 0.048742 0.025373 
0.046530 0.005158 0.020661 
-0.014041 -0.043507 0.027656 
0.011726 0.055826 0.046281 
0.005685 0.030533 0.000000 
-0.054030 -0.000000 0.038632 
-0.035366 -0.021940 0.010179 
0.039655 -0.027630 0.035856 
0.021781 0.002927 0.000000 
-0.004590 0.036807 0.016264 
-0.026908 0.018672 0.000000 
0.037396 -0.044025 0.049402 
-0.008086 -0.034716 0.011908 
-0.032984 0.004133 0.008388 
0.008128 0.030623 0.002016 
0.037956 -0.006030 0.005485 
-0.029243 -0.018297 0.001644 
0.013572 -0.041717 0.017779 
0.004304 -0.054401 0.040232 
-0.012570 -0.050571 0.044939 
-0.041281 -0.013911 0.029837 
0.015679 -0.048037 0.030044 
0.007964 0.046211 0.035857 
-0.012220 0.029527 0.004645 
0.000422 -0.030061 0.000000 
-0.004552 0.047176 0.022078 
0.001366 -0.028747 0.000000 
0.019421 -0.000721 0.003000 
-0.032122 0.007052 0.008443 
0.019230 -0.040926 0.017814 
0.028964 0.006115 0.001273 
0.027266 0.014948 0.000000 
-0.029356 0.020671 0.010548 
-0.001792 0.037118 0.016912 
-0.006326 0.050496 0.029992 
-0.006604 0.016015 0.002248 
-0.032168 -0.020672 0.016118 
-0.021757 -0.052207 0.045819 
-0.033550 -0.031281 0.033320 
-0.048774 0.002956 0.025730 
-0.002445 0.041857 0.011238 
-0.025472 -0.001936 0.000000 
0.038362 -0.016614 0.026731 
0.034323 0.019136 0.019404 
-0.038312 -0.000000 0.009626 
0.014638 -0.044915 0.027421 
0.052385 -0.018184 0.050000 
-0.005503 0.056714 0.050000 
0.034994 -0.024010 0.011262 
0.024207 0.014976 0.003000 
-0.014504 -0.016596 0.000000 
0.039868 0.033711 0.032937 
0.015408 0.047373 0.027182 
0.005606 -0.044936 0.033201 
0.002861 0.039518 0.021912 
0.043040 0.006156 0.014059 
0.049523 -0.005813 0.041271 
-0.042746 0.002660 0.026217 
-0.043553 0.004853 0.014389 
0.016981 -0.052551 0.047432 
0.040878 0.018693 0.032219 
0.035378 -0.004042 0.012934 
0.050583 -0.002871 0.029315 
-0.022654 0.033071 0.022871 
0.014960 0.046372 0.030775 
0.035755 -0.000000 0.007609 
0.000180 -0.045823 0.035048 
0.039992 -0.029087 0.032282 
0.033293 -0.000980 0.006961 
0.014086 -0.025516 0.000000 
0.036386 -0.026409 0.022448 
0.027753 -0.011737 0.000000 
0.038283 -0.034966 0.031593 
0.024730 0.051319 0.050000 
0.014498 -0.021423 0.000000 
0.054396 0.003637 0.039241 
0.037238 -0.039159 0.038171 
0.039499 0.028853 0.035267 
0.007101 -0.036229 0.004084 
0.029057 0.008152 0.002542 
0.017820 -0.034015 0.018777 
0.034016 0.040174 0.034214 
0.041429 -0.016037 0.016132 
-0.016980 -0.052292 0.045820 
0.038076 -0.011966 0.007837 
0.029882 0.017029 0.009116 
0.044801 0.026208 0.045073 
0.049009 0.018064 0.048060 
-0.048673 -0.023113 0.050000 
0.027546 0.010142 0.000699 
0.030780 -0.022105 0.004858 
0.027839 -0.009408 0.000937 
0.044187 -0.029627 0.035531 
-0.038230 -0.020122 0.027875 
0.029307 -0.035065 0.017578 
0.015687 -0.041112 0.015085 
-0.010072 -0.042164 0.014213 
0.047718 -0.000000 0.032569 
0.010627 0.015286 0.000000 
-0.040021 -0.023288 0.033568 
0.002715 0.028214 0.000000 
0.025564 0.021223 0.000524 
-0.038311 0.015419 0.010332 
0.049572 0.007746 0.042308 
-0.008633 -0.033193 0.008735 
-0.015429 0.051355 0.046573 
0.008207 0.038396 0.019575 
0.013443 -0.003420 0.002562 
-0.018908 -0.028639 0.011218 
0.043650 0.003429 0.028082 
0.020513 0.043986 0.024762 
-0.004380 -0.045048 0.017097 
-0.030285 0.021487 0.007615 
0.042391 -0.004774 0.026889 
0.021803 0.015219 0.003000 
-0.010434 -0.052252 0.034965 
-0.049319 -0.026075 0.044065 
0.030181 -0.021409 0.012679 
0.048364 -0.016589 0.030175 
-0.013076 0.010393 0.002326 
-0.042581 -0.000000 0.019330 
-0.031122 0.037699 0.041099 
0.026562 0.027520 0.018425 
0.006788 -0.003252 0.000000 
-0.048354 -0.030894 0.050000 
0.051176 -0.008580 0.031557 
-0.032497 -0.004051 0.003000 
0.013188 -0.040565 0.014221 
0.020734 -0.025213 0.007255 
-0.036971 0.037102 0.047213 
0.008975 -0.054478 0.041978 
-0.054223 -0.004925 0.039749 
-0.022189 0.022951 0.005116 
-0.028989 0.019056 0.008861 
-0.044520 0.020172 0.025534 
-0.047477 0.005319 0.037019 
-0.054729 0.001764 0.040757 
-0.036821 -0.001664 0.003821 
-0.009427 -0.050347 0.029694 
0.024026 0.034815 0.027845 
-0.042020 -0.023136 0.037464 
0.039648 -0.000000 0.016241 
-0.025257 -0.006088 0.000000 
0.054753 0.004281 0.040524 
0.018976 0.042939 0.035446 
-0.012379 0.056253 0.048138 
0.029927 -0.010394 0.000000 
-0.002875 0.029587 0.001223 
0.011170 0.049823 0.029010 
-0.025853 -0.045502 0.048025 
-0.034276 -0.015102 0.004268 
-0.014791 0.043602 0.018891 
0.047270 0.023409 0.048146 
0.036554 0.026468 0.016547 
-0.013341 -0.041491 0.023800 
0.008179 0.008519 0.002372 
-0.026555 -0.001148 0.000000 
0.017329 -0.054622 0.050000 
-0.047845 -0.005249 0.023783 
-0.031253 -0.021665 0.014950 
-0.002694 0.052117 0.033075 
0.035981 -0.013504 0.020135 
0.049570 -0.014338 0.030805 
-0.019396 0.031752 0.003996 
0.026505 0.027501 0.018323 
-0.015448 0.044471 0.033736 
0.011177 0.027435 0.000000 
0.033688 0.043072 0.040320 
0.013205 -0.040615 0.013468 
-0.018850 -0.038221 0.027355 
0.013829 0.042487 0.017796 
0.051677 0.000542 0.041975 
-0.001002 0.003074 0.002453 
-0.003722 0.002906 0.000000 
-0.002126 0.041395 0.010390 
0.036830 -0.024518 0.014612 
-0.007090 0.031421 0.000000 
-0.004564 0.036890 0.004110 
-0.027613 0.003479 0.000000 
0.017535 -0.046098 0.026552 
-0.037470 0.031640 0.024948 
0.001036 -0.036781 0.016210 
0.032689 0.030996 0.016615 
-0.017190 0.049548 0.033703 
0.029517 0.010118 0.003000 
-0.054126 -0.011436 0.050000 
0.049258 -0.000000 0.032885 
-0.034222 0.034223 0.023914 
-0.015203 0.046753 0.028554 
0.034709 0.039410 0.033728 
-0.043542 0.007421 0.030800 
0.016892 0.046529 0.026648 
-0.037796 -0.037844 0.036574 
0.030965 -0.014844 0.001646 
0.034799 -0.025140 0.013246 
-0.038057 -0.028514 0.021498 
0.035979 0.019856 0.009228 
0.053394 0.022728 0.049919 
0.056866 -0.006705 0.047306 
0.052194 -0.000677 0.032044 
-0.031764 0.022952 0.015052 
-0.046508 0.021108 0.045277 
0.006780 -0.049336 0.042367 
0.029426 -0.023425 0.004567 
-0.038588 -0.037437 0.037385 
0.001676 0.036632 0.003632 
0.023498 -0.048629 0.038620 
-0.032600 -0.004600 0.000165 
-0.014145 -0.056252 0.050000 
0.054053 -0.009651 0.040668 
-0.046902 0.012916 0.040783 
0.011330 -0.046005 0.035428 
0.026672 -0.024173 0.003230 
-0.032661 -0.018879 0.015908 
-0.002672 0.051792 0.047483 
0.005111 -0.049473 0.027502 
-0.046539 0.016850 0.042608 
0.016015 -0.038315 0.010257 
-0.011365 0.045378 0.034121 
-0.019585 -0.041122 0.018470 
-0.027037 0.010662 0.003000 
-0.011998 -0.050179 0.044123 
0.012929 -0.044502 0.019437 
-0.014456 0.044727 0.029065 
-0.028510 -0.047710 0.042780 
0.022497 -0.025244 0.001160 
0.041822 -0.034428 0.048563 
0.016052 -0.049155 0.031939 
0.041601 0.029905 0.033138 
0.043681 0.016247 0.020369 
-0.038529 -0.010242 0.007844 
-0.038525 0.025602 0.018542 
-0.015570 -0.031234 0.011655 
-0.030273 0.032414 0.031040 
0.027959 -0.016783 0.005423 
-0.002101 -0.045153 0.017306 
-0.046700 0.032917 0.047359 
0.046298 0.026838 0.048488 
-0.017373 -0.026383 0.005460 
-0.023590 0.017069 0.000000 
-0.001078 0.052607 0.033606 
-0.049391 -0.013994 0.030154 
0.014520 -0.044561 0.027656 
-0.035257 0.025518 0.022965 
0.028683 0.020102 0.008767 
0.034150 -0.028676 0.015565 
0.022659 0.037224 0.030256 
-0.042466 0.000566 0.012354 
0.010421 0.012595 0.002299 
0.006999 -0.048288 0.040183 
0.032781 0.023788 0.017243 
-0.015215 0.046719 0.026835 
-0.048399 -0.021328 0.035093 
-0.014986 0.028120 0.005484 
-0.046101 0.003807 0.019568 
0.016661 0.038457 0.011245 
0.006425 -0.015414 0.000000 
0.020654 0.020370 0.003000 
0.024159 0.038714 0.034565 
-0.040811 -0.036476 0.040250 
0.030233 -0.033360 0.032606 
0.053950 0.009665 0.040342 
0.034874 -0.027288 0.027900 
-0.035643 0.025665 0.026426 
0.034217 -0.010567 0.003101 
-0.032814 0.003742 0.000094 
-0.013210 0.022826 0.002117 
0.014147 -0.004692 0.000000 
0.034018 0.009846 0.012987 
0.043829 0.001137 0.014852 
-0.012140 0.010076 0.002327 
-0.037566 -0.027395 0.030956 
-0.009359 0.003579 0.003000 
0.020910 0.034312 0.023254 
0.006132 -0.029132 0.002953 
-0.042317 -0.015622 0.033049 
0.026722 0.019285 0.003986 
-0.011754 0.032170 0.001504 
0.027006 -0.036520 0.016420 
-0.037414 -0.000000 0.006570 
0.052740 0.007310 0.036511 
0.031969 0.030516 0.030100 
-0.046672 0.017235 0.043110 
0.021467 0.045463 0.042686 
-0.001404 -0.035317 0.002317 
-0.047473 0.026601 0.050000 
-0.026713 0.048294 0.050000 
-0.014219 -0.050007 0.043764 
0.010501 0.030480 0.004294 
0.029477 -0.041212 0.028722 
-0.046540 0.003154 0.020594 
0.044113 -0.004031 0.029724 
-0.026881 0.016791 0.000000 
0.024595 -0.043970 0.043844 
-0.038974 0.028420 0.034001 
0.002242 -0.045231 0.033815 
-0.024292 -0.039596 0.019319 
-0.042296 -0.035793 0.050000 
-0.050572 -0.015054 0.049180 
-0.019601 0.052147 0.043391 
0.048956 0.004075 0.038630 
-0.007415 0.018842 0.002342 
0.039319 0.000611 0.006585 
0.002495 -0.034523 0.011506 
0.056067 0.000764 0.043880 
0.012504 -0.038512 0.009984 
-0.054505 0.008839 0.040688 
-0.015929 -0.029037 0.008350 
-0.006729 0.008909 0.000000 
0.011899 0.015711 0.002244 
0.037509 -0.000000 0.006226 
0.008493 -0.039904 0.022718 
-0.010752 0.035891 0.004636 
-0.038129 -0.036452 0.034338 
-0.022042 -0.044027 0.040961 
0.001221 0.003776 0.000000 
-0.008927 0.030865 0.000000 
-0.012779 0.045057 0.020965 
0.030581 0.001925 0.003000 
-0.037443 0.027151 0.028324 
0.008577 -0.030950 0.000000 
0.002552 -0.010236 0.002655 
-0.051542 -0.014384 0.036296 
0.048269 -0.028554 0.044417 
-0.044290 0.035566 0.046624 
0.019097 -0.031877 0.016640 
-0.036314 -0.030071 0.021150 
0.004387 0.049356 0.042407 
0.040858 -0.022789 0.020449 
0.044389 -0.018556 0.039566 
-0.023247 0.020563 0.000000 
-0.023843 0.025125 0.010754 
0.030141 -0.019273 0.011369 
0.022618 0.034895 0.009788 
-0.038351 -0.033550 0.042934 
-0.053864 -0.021185 0.049799 
-0.050573 0.015038 0.034319 
-0.039446 -0.035651 0.035557 
-0.046720 -0.024339 0.034236 
0.051046 -0.016277 0.037095 
-0.008206 0.048222 0.040045 
-0.048408 0.020948 0.034774 
-0.041400 0.025554 0.023863 
0.034281 0.003292 0.009991 
0.031286 0.022506 0.006134 
0.027844 0.019761 0.003004 
-0.011739 0.053932 0.040536 
0.016378 0.050764 0.041399 
0.016615 0.026990 0.000000 
0.026414 -0.017123 0.000000 
-0.019318 0.027268 0.009088 
0.015715 0.028190 0.001843 
0.005722 0.039440 0.021750 
-0.014183 0.042097 0.015549 
-0.014184 0.043837 0.023925 
-0.015072 0.048633 0.029676 
0.030159 0.030366 0.027675 
0.047844 -0.000159 0.034417 
-0.029342 0.006721 0.000000 
-0.010723 0.033800 0.005603 
0.025010 -0.023924 0.001956 
-0.040364 0.024854 0.021278 
-0.046890 0.009493 0.038566 
0.011480 0.036300 0.013700 
0.008908 0.045487 0.019733 
-0.031218 -0.039775 0.028635 
0.031906 0.007281 0.001718 
0.021285 -0.002490 0.003000 
0.028456 0.044151 0.033359 
0.015448 -0.027688 0.002989 
-0.026635 -0.030038 0.008045 
0.002311 -0.003198 0.000000 
0.004729 -0.036865 0.016386 
0.053192 -0.009676 0.037940 
0.021288 0.051743 0.043842 
0.009691 0.033643 0.002369 
-0.026157 0.019011 0.000000 
0.029688 0.016542 0.008404 
-0.047455 0.008673 0.039127 
-0.017241 0.052743 0.043526 
-0.003510 -0.004498 0.002566 
-0.034419 -0.038062 0.045800 
-0.008485 0.041557 0.026160 
0.019810 -0.032551 0.018615 
-0.022003 -0.022737 0.000000 
0.045603 0.021029 0.043225 
0.034139 0.039503 0.047887 
0.037865 -0.038638 0.050000 
0.028518 0.015223 0.001267 
-0.021963 -0.043510 0.039996 
0.038441 0.001242 0.016896 
-0.014426 0.045206 0.033458 
-0.003912 0.041539 0.026124 
-0.056590 0.004698 0.046173 
0.024085 -0.043766 0.027112 
0.005219 -0.055262 0.042568 
-0.018925 -0.036239 0.009120 
-0.007169 0.005318 0.002472 
0.034456 0.024312 0.023120 
-0.035112 0.025111 0.014651 
0.000278 -0.030377 0.002870 
0.024155 -0.015403 0.003000 
0.012703 0.048513 0.040652 
0.050329 -0.026108 0.046072 
0.041345 0.011898 0.013317 
-0.041193 -0.029765 0.036683 
-0.050601 0.020885 0.040671 
0.013604 -0.050944 0.033754 
0.012529 0.012153 0.000000 
-0.011651 0.036081 0.005415 
-0.016151 -0.019624 0.002900 
-0.035924 -0.023754 0.025684 
0.009231 -0.033286 0.001923 
0.018778 0.024197 0.003339 
-0.003412 0.002269 0.000000 
-0.020654 -0.029321 0.014492 
0.023148 -0.017155 0.000000 
0.021064 -0.025271 0.000223 
-0.041381 -0.034433 0.048061 
-0.032435 0.039461 0.045707 
0.008431 0.047971 0.024147 
-0.022908 0.007363 0.000000 
0.049580 0.012061 0.045201 
0.039368 0.000563 0.018316 
-0.006512 -0.002060 0.000000 
-0.016404 -0.036183 0.006707 
-0.044333 0.036797 0.050000 
0.031227 -0.031080 0.014931 
-0.022577 0.039858 0.034364 
0.035113 0.022352 0.009874 
0.033022 -0.012978 0.013711 
0.015279 0.046877 0.027479 
0.023463 -0.040958 0.021167 
-0.004118 0.049718 0.028009 
-0.006830 -0.051020 0.031063 
0.025948 -0.043520 0.028189 
-0.037787 -0.042599 0.046823 
-0.013564 0.037220 0.019251 
0.026449 0.044057 0.046308 
-0.017203 -0.030706 0.002480 
-0.028432 -0.010542 0.002615 
-0.014423 0.005724 0.000000 
-0.038540 -0.007138 0.020236 
0.056489 0.002054 0.045216 
0.049158 0.010195 0.027317 
-0.007861 -0.019700 0.003000 
-0.018150 0.010056 0.000000 
0.001972 0.006168 0.002407 
-0.027482 0.039477 0.039695 
-0.032165 0.022909 0.011995 
0.053799 -0.000000 0.045152 
0.004625 -0.030533 0.002969 
0.050014 -0.000000 0.032808 
-0.030448 -0.048247 0.047529 
-0.013357 0.041116 0.013951 
0.020081 -0.044462 0.039180 
-0.012740 -0.039805 0.020785 
-0.019349 -0.045849 0.027310 
0.024441 0.002079 0.000000 
0.057437 0.005703 0.048357 
-0.037584 0.005250 0.004940 
0.052268 0.016553 0.040839 
0.023852 0.022869 0.007094 
0.036185 -0.019216 0.023839 
-0.039553 0.038414 0.041486 
-0.034813 -0.038327 0.031411 
0.000253 0.019219 0.002209 
-0.022312 0.042601 0.038723 
0.035885 -0.000192 0.002885 
-0.029548 -0.003017 0.000000 
-0.006379 -0.029254 0.002955 
0.032037 -0.043075 0.037266 
-0.027393 0.017820 0.001940 
0.043157 -0.034056 0.041201 
0.011996 -0.036988 0.008924 
0.037256 -0.015115 0.023642 
-0.027732 0.019706 0.003014 
-0.046037 -0.033330 0.047615 
0.028420 0.020066 0.003152 
-0.042091 -0.016930 0.018112 
0.003986 0.006490 0.000000 
0.040461 0.016004 0.029592 
-0.047608 0.017221 0.044901 
0.024362 -0.021638 0.000677 
-0.035729 0.000989 0.011651 
-0.027719 -0.015639 0.000000 
0.006310 -0.040573 0.024110 
-0.003112 0.055209 0.042425 
0.043884 0.020296 0.039298 
0.010088 -0.026309 0.000000 
-0.014723 -0.013895 0.002733 
-0.049099 -0.011883 0.027813 
0.043297 -0.000000 0.014441 
-0.027373 0.035737 0.015911 
0.017136 -0.013647 0.000000 
-0.012325 0.040251 0.011700 
0.017218 -0.011033 0.002704 
0.028187 -0.007467 0.000000 
-0.015440 -0.047402 0.038704 
-0.046769 -0.016330 0.042425 
-0.010337 -0.032850 0.007353 
0.020142 -0.044282 0.025048 
-0.047005 0.018622 0.029161 
0.017458 -0.030616 0.002509 
0.039282 0.039640 0.043504 
0.039456 0.005612 0.021183 
-0.016828 -0.025558 0.000000 
0.007869 -0.042261 0.027626 
-0.013875 -0.027323 0.000000 
-0.032688 -0.030760 0.031384 
0.036569 0.026668 0.028535 
-0.043111 -0.000000 0.014250 
-0.033374 0.018390 0.004855 
-0.015480 -0.052140 0.039192 
-0.016018 -0.049054 0.033296 
-0.002523 -0.056904 0.047026 
-0.017008 0.044821 0.023227 
-0.040370 0.032586 0.032018 
0.037802 0.026969 0.021708 
0.037919 -0.014410 0.009043 
0.007372 0.050817 0.030572 
-0.040397 0.003296 0.022107 
0.014389 0.044888 0.031939 
0.029542 -0.021171 0.009003 
0.030358 -0.035200 0.019424 
-0.012046 0.038406 0.019597 
0.012210 0.016150 0.000000 
0.052939 -0.018156 0.044414 
-0.038603 -0.030403 0.025620 
-0.034972 -0.011274 0.003957 
-0.035092 0.025315 0.021338 
-0.015882 -0.042506 0.017835 
-0.015957 -0.028029 0.001090 
-0.014843 0.053927 0.043624 
-0.035710 0.025718 0.016950 
0.014893 0.027622 0.000000 
0.050315 -0.006369 0.043150 
-0.022608 -0.022715 0.003000 
0.016277 -0.029662 0.009602 
-0.022621 -0.013678 0.003000 
0.055031 -0.009707 0.050000 
-0.042730 0.006873 0.028886 
-0.045672 -0.020880 0.028325 
0.015107 -0.046320 0.028640 
-0.041462 0.000393 0.022294 
0.028836 0.008605 0.002358 
-0.036780 -0.026680 0.018096 
-0.044204 0.013383 0.035895 
0.029185 0.007605 0.000000 
-0.000404 -0.002926 0.002544 
0.035794 -0.031012 0.035378 
-0.002061 -0.030758 0.002966 
-0.008806 0.030443 0.003006 
-0.020263 0.047578 0.044723 
0.027492 0.002867 0.000000 
-0.033405 -0.023862 0.014490 
0.021581 0.048865 0.048548 
-0.053865 -0.013705 0.042301 
-0.021147 0.022276 0.002758 
0.013252 0.056451 0.049624 
-0.051873 -0.005163 0.045189 
0.036168 0.037853 0.033154 
0.026980 0.041968 0.043431 
0.023807 -0.019098 0.000000 
-0.032928 0.024405 0.020604 
-0.006803 -0.040523 0.009914 
0.022765 -0.033550 0.023824 
-0.011599 0.030467 0.000180 
-0.043905 0.031684 0.039039 
-0.014389 -0.050606 0.033687 
-0.039414 -0.005284 0.007293 
-0.045309 -0.033062 0.049075 
0.017164 0.010896 0.000000 
0.008545 0.016513 0.000000 
-0.001801 -0.057522 0.048704 
-0.043650 0.031368 0.037876 
0.008218 -0.021601 0.000000 
-0.018882 -0.052230 0.043246 
-0.028616 -0.046748 0.050000 
-0.035753 0.025525 0.016716 
0.041370 0.009352 0.012458 
0.026142 -0.039040 0.020007 
0.008073 -0.022266 0.000000 
0.045668 0.025400 0.032129 
0.052529 -0.012074 0.036815 
0.030331 0.016294 0.001750 
0.008439 0.029650 0.001354 
0.024079 -0.051892 0.047416 
-0.028749 0.026885 0.019742 
0.007001 -0.034641 0.011753 
-0.040800 -0.028108 0.038338 
0.008017 0.011544 0.000000 
0.034612 0.040562 0.036218 
-0.035154 -0.019011 0.007209 
-0.009653 0.052165 0.048261 
-0.048935 -0.002217 0.037598 
0.038192 0.039405 0.040705 
-0.041040 -0.017660 0.031853 
0.046877 0.025822 0.035947 
0.016911 -0.014350 0.002762 
-0.036393 -0.001397 0.013040 
-0.012155 0.017136 0.002282 
0.026068 -0.043970 0.045640 
-0.010246 0.053879 0.039484 
0.052232 0.019248 0.043615 
-0.002392 0.055480 0.043160 
0.003643 0.044782 0.032880 
-0.016997 0.032204 0.003371 
0.012887 0.039980 0.011419 
0.036449 0.002519 0.003449 
-0.017026 0.014766 0.002572 
0.032253 -0.016399 0.014086 
-0.007133 -0.000447 0.002551 
-0.003982 0.044677 0.016407 
-0.010201 0.022975 0.002933 
0.035744 -0.000043 0.011074 
-0.003402 0.002079 0.002467 
0.038543 -0.005094 0.005824 
-0.028486 0.029911 0.010152 
-0.027678 0.032191 0.011951 
-0.005700 0.029438 0.000000 
-0.017659 0.011152 0.000000 
-0.018178 0.037921 0.025814 
-0.033276 -0.045284 0.050000 
-0.001760 -0.035786 0.014138 
-0.022472 -0.031522 0.020436 
-0.006459 0.032993 0.008318 
-0.022242 -0.009544 0.003000 
-0.016549 0.004922 0.002592 
-0.034825 -0.008058 0.013583 
0.000034 -0.055093 0.040817 
-0.025375 -0.032366 0.025346 
0.015563 -0.049802 0.043338 
0.035822 0.043880 0.050000 
-0.025531 -0.021661 0.000795 
-0.032825 -0.023336 0.012607 
-0.050069 0.004983 0.041787 
-0.012493 0.045849 0.022572 
0.053417 -0.017922 0.045489 
0.008261 0.009039 0.002364 
0.056742 -0.008204 0.047639 
-0.055504 0.011894 0.050000 
0.036885 0.026556 0.019982 
-0.007119 -0.050297 0.029593 
0.052001 -0.017518 0.041081 
0.002393 0.044234 0.031738 
0.015987 -0.005768 0.000000 
-0.004317 0.050399 0.029524 
0.034875 0.010224 0.003555 
-0.027916 0.019872 0.003665 
-0.005117 0.007969 0.000000 
-0.035568 0.042144 0.041656 
0.011684 -0.050360 0.030246 
0.029259 -0.007816 0.002958 
0.036954 -0.009497 0.005380 
0.031857 0.003986 0.005701 
0.012946 0.054239 0.050000 
-0.023296 -0.013569 0.000000 
0.025331 -0.040379 0.038613 
-0.007913 -0.044341 0.017161 
0.012320 0.044955 0.033240 
0.022672 -0.020109 0.003000 
-0.036141 0.036369 0.044948 
-0.020300 0.012925 0.003000 
-0.001807 -0.013876 0.002710 
-0.014790 0.049743 0.031724 
0.022102 -0.031324 0.019214 
0.035050 -0.017813 0.005968 
-0.037775 -0.014274 0.008274 
-0.000803 0.044657 0.032618 
-0.036262 0.019058 0.009031 
0.038895 -0.015745 0.027198 
-0.030583 -0.027792 0.010125 
0.017615 -0.032883 0.016620 
0.040899 0.022771 0.034979 
0.004892 -0.032922 0.000379 
0.003734 0.047632 0.038816 
-0.031097 0.040938 0.046597 
0.037458 0.027718 0.019060 
-0.039804 -0.007791 0.009083 
0.033133 0.041797 0.036337 
0.038134 -0.027366 0.027420 
0.029603 0.044881 0.037135 
0.040257 -0.036321 0.049886 
-0.055011 -0.005352 0.050000 
0.040791 -0.000000 0.016692 
-0.038354 -0.009672 0.007306 
-0.009170 -0.051508 0.046892 
-0.016556 0.027675 0.006559 
-0.042935 0.030497 0.034105 
-0.025125 0.000887 0.000000 
-0.011514 0.052448 0.048849 
-0.010555 0.052367 0.034984 
-0.040993 -0.000000 0.009943 
-0.031251 0.030135 0.013804 
-0.029860 -0.007493 0.000000 
0.039508 0.028391 0.024363 
0.045729 -0.016155 0.040604 
-0.050623 -0.013913 0.033203 
0.036135 -0.027809 0.030327 
-0.048731 0.002649 0.037720 
-0.035150 0.023573 0.024203 
-0.026679 -0.037123 0.016941 
0.044607 -0.027612 0.032938 
0.023322 -0.014644 0.000000 
-0.037834 0.040190 0.041606 
-0.038926 0.014644 0.026552 
0.050613 0.007557 0.030226 
-0.017052 0.052097 0.048529 
-0.024021 0.020509 0.000000 
0.035509 -0.004820 0.002845 
-0.039014 0.027081 0.034214 
-0.016844 0.025312 0.000000 
0.025100 -0.038074 0.017232 
0.002175 0.031147 0.000000 
-0.002807 0.056552 0.050000 
-0.013193 0.038928 0.009768 
-0.033808 0.034077 0.023044 
0.028752 -0.014871 0.000149 
-0.014793 -0.045686 0.023182 
-0.001294 0.014943 0.000000 
-0.030203 0.011249 0.006885 
0.005621 0.024626 0.002121 
-0.050644 -0.011671 0.030820 
0.029630 0.021446 0.010358 
-0.043043 -0.027829 0.029871 
0.039548 0.009475 0.009271 
-0.009553 -0.050171 0.029341 
-0.022869 0.039764 0.018383 
-0.000100 0.031091 0.002029 
0.037202 -0.033751 0.041773 
-0.026165 0.043123 0.044314 
-0.043727 -0.020687 0.039245 
-0.010858 0.050835 0.045489 
-0.044869 -0.003409 0.016760 
0.002714 0.054228 0.039762 
-0.019455 -0.033227 0.005216 
-0.036172 -0.034075 0.041198 
0.023673 -0.048070 0.037514 
0.016300 -0.008832 0.000000 
0.037175 0.033122 0.040799 
-0.026155 0.029926 0.021771 
-0.020638 0.025061 0.000000 
0.032009 0.020509 0.015690 
0.021351 -0.010193 0.003000 
0.034481 -0.019221 0.006168 
0.000277 0.050496 0.044783 
-0.045090 -0.011832 0.020133 
-0.013993 0.044703 0.020723 
-0.056008 -0.008108 0.044945 
-0.054529 0.017566 0.048199 
-0.022113 -0.031481 0.005131 
-0.040158 0.025687 0.021670 
-0.042109 -0.000000 0.012096 
0.020955 -0.039017 0.015480 
-0.014810 0.047234 0.026617 
0.012767 0.022231 0.002131 
-0.004017 -0.004467 0.002564 
-0.023777 0.001378 0.003000 
-0.004740 -0.022978 0.000000 
0.015692 0.034775 0.017761 
0.025153 0.000174 0.003000 
-0.009755 -0.011494 0.000000 
-0.026968 -0.044602 0.031778 
-0.032782 0.036060 0.024532 
0.051792 -0.012571 0.035218 
0.031945 0.023122 0.013362 
-0.015062 -0.025412 0.001008 
-0.002051 0.030034 0.002154 
0.044007 -0.000000 0.021782 
-0.015348 -0.028882 0.000335 
0.012143 0.010729 0.002326 
0.024836 0.051641 0.047911 
-0.006665 -0.048354 0.025707 
0.005508 0.002950 0.000000 
-0.002251 0.023745 0.000000 
0.040550 0.031909 0.031180 
0.040853 -0.015729 0.030954 
0.024795 0.044704 0.045409 
-0.032383 -0.005470 0.001486 
0.025456 -0.032732 0.009897 
-0.023179 0.015346 0.003000 
-0.013546 0.042371 0.026741 
0.034043 -0.037000 0.027956 
0.006627 -0.034027 0.010473 
0.038982 0.006215 0.020593 
-0.003201 -0.052979 0.049956 
0.024283 0.023473 0.008660 
-0.020203 -0.039842 0.031709 
-0.045376 -0.009690 0.035212 
-0.039099 -0.012003 0.009553 
0.035054 -0.019911 0.021900 
-0.032594 0.031262 0.031903 
-0.013772 0.042723 0.024233 
0.044565 -0.003482 0.016202 
0.013941 -0.006001 0.000000 
-0.033000 -0.001188 0.000498 
0.020948 0.025052 0.002299 
0.024048 -0.031259 0.021476 
0.037677 -0.027317 0.020960 
0.021581 -0.041608 0.020968 
0.013419 -0.042770 0.028688 
-0.048053 0.022533 0.035807 
-0.043963 -0.035339 0.045444 
-0.033346 0.024030 0.017356 
0.038246 0.026182 0.031947 
-0.035667 0.006354 0.014971 
0.049819 -0.028298 0.048318 
-0.030353 0.037256 0.039404 
0.028412 0.050216 0.049666 
-0.045401 -0.000000 0.018925 
0.030003 -0.048747 0.050000 
0.015658 0.035181 0.018404 
-0.024415 0.040514 0.037724 
0.030288 0.005089 0.000000 
0.014394 0.036479 0.019067 
-0.020619 0.051279 0.041890 
0.023894 0.052681 0.049067 
-0.013936 0.043140 0.023160 
-0.030012 -0.002878 0.001560 
-0.034671 0.044121 0.044574 
0.012630 -0.052684 0.049342 
0.036731 -0.027496 0.030518 
0.039879 -0.000000 0.012978 
-0.013494 0.029829 0.000110 
-0.023984 0.036983 0.014603 
0.019843 0.025183 0.006327 
-0.021030 0.044771 0.026688 
-0.044402 0.002887 0.029546 
0.053929 -0.010541 0.050000 
-0.004696 -0.034190 0.010811 
-0.011542 0.051503 0.033052 
0.041064 0.026593 0.037858 
0.012977 0.035200 0.015213 
-0.047985 -0.006037 0.024570 
0.004313 0.036713 0.003879 
-0.016834 0.032928 0.015786 
0.023359 0.019077 0.000000 
-0.015445 0.000998 0.000000 
0.025195 0.052086 0.049519 
0.046029 -0.027904 0.048713 
-0.038978 0.027840 0.024030 
0.014870 -0.041629 0.028245 
0.021783 0.005911 0.000000 
0.041861 -0.019394 0.035241 
0.028554 -0.040058 0.041993 
0.013272 -0.026584 0.000883 
-0.035256 -0.033228 0.038673 
0.037812 0.026903 0.018427 
-0.002885 0.000545 0.002492 
0.037166 -0.005451 0.004588 
-0.015086 -0.046257 0.031747 
-0.025409 0.034903 0.012493 
-0.001001 -0.022791 0.000000 
-0.013568 0.053954 0.042431 
-0.017904 -0.026074 0.000000 
0.002673 -0.022164 0.000000 
0.026340 0.030657 0.008442 
0.043723 0.009286 0.031636 
-0.016149 -0.049666 0.039802 
-0.003465 -0.000631 0.002508 
0.045216 0.033931 0.045739 
0.010328 0.047435 0.038406 
-0.001492 -0.053097 0.035418 
-0.028722 0.038965 0.023325 
-0.047803 -0.019803 0.046807 
0.003310 0.017171 0.000000 
-0.043206 -0.024983 0.026720 
0.034117 0.042545 0.039896 
0.056679 -0.008559 0.050000 
0.042140 -0.032272 0.045269 
0.024932 0.007377 0.000000 
-0.039375 -0.006882 0.021705 
-0.032106 0.039061 0.028628 
-0.027499 -0.018433 0.000254 
0.032291 -0.010967 0.001415 
0.019482 0.002890 0.000000 
-0.005759 -0.038944 0.020717 
-0.034265 0.009598 0.014341 
-0.001053 0.038929 0.020685 
0.013434 0.023372 0.002113 
-0.028257 0.049893 0.048454 
-0.047435 -0.009407 0.039142 
0.026491 -0.026466 0.016273 
0.042375 -0.037573 0.045907 
0.008306 0.033923 0.002235 
0.032295 -0.033171 0.019280 
-0.050311 -0.020809 0.039813 
-0.006095 -0.041874 0.026821 
0.016312 0.027332 0.000000 
0.038368 0.033200 0.029124 
0.002371 0.012230 0.002315 
-0.030954 0.018325 0.003118 
0.023511 -0.038084 0.032474 
-0.037692 -0.012334 0.021606 
0.042766 -0.018293 0.020570 
-0.030991 0.013546 0.009835 
0.011404 0.035578 0.011057 
-0.032032 0.006666 0.008035 
-0.009700 0.023764 0.000000 
-0.048355 -0.016454 0.030098 
0.024324 0.028394 0.004478 
-0.006159 -0.013822 0.000000 
0.026253 0.028021 0.018925 
-0.002949 0.042519 0.028164 
-0.024564 -0.031294 0.007049 
-0.033855 -0.000000 0.005180 
-0.033075 0.026141 0.011154 
0.050075 0.011044 0.029372 
-0.012936 -0.016435 0.002774 
0.020780 0.010485 0.003000 
-0.015350 0.047224 0.031038 
-0.042602 -0.033899 0.039623 
-0.014807 0.045599 0.026025 
-0.014074 0.052707 0.039204 
-0.006413 0.031663 0.005549 
-0.032062 0.018950 0.015158 
0.018259 -0.036831 0.009318 
-0.039226 0.030309 0.038364 
-0.000343 -0.047510 0.022020 
-0.027396 0.021289 0.008537 
-0.029111 0.013248 0.000000 
-0.041772 -0.023051 0.022430 
-0.003989 -0.042811 0.012988 
0.000251 0.006662 0.000000 
0.019299 0.026701 0.001785 
0.034753 -0.024889 0.017464 
0.038547 -0.020363 0.029386 
-0.046776 0.024179 0.047761 
0.001682 0.050321 0.028314 
0.038662 0.018075 0.012623 
0.000570 0.024836 0.000000 
-0.045842 -0.007252 0.020277 
-0.022188 -0.053500 0.049717 
-0.051055 -0.005377 0.043694 
-0.024442 -0.045596 0.030948 
-0.023524 0.026307 0.012382 
0.018433 -0.037602 0.010884 
0.027128 -0.019213 0.001487 
0.029195 0.035807 0.035727 
-0.013164 -0.053191 0.039736 
-0.022022 0.021601 0.003000 
-0.013474 -0.016791 0.002775 
-0.049671 0.029449 0.049834 
0.000564 0.036822 0.016296 
-0.008253 0.042448 0.028016 
-0.038867 -0.036384 0.035752 
-0.019301 -0.052209 0.043603 
0.020862 0.028748 0.013744 
0.003450 0.047797 0.023525 
0.022765 0.007316 0.000000 
0.016012 -0.050584 0.044966 
0.021643 -0.031826 0.005253 
-0.036016 -0.019769 0.023212 
0.016421 0.020786 0.002140 
0.052472 -0.008854 0.048891 
0.042149 -0.017125 0.018328 
0.017537 -0.006843 0.002631 
0.028098 0.017391 0.005791 
-0.049366 0.010211 0.043788 
-0.006407 0.051945 0.033566 
-0.033079 -0.021426 0.018443 
0.010025 -0.031157 0.000321 
0.045688 -0.030120 0.049477 
0.014682 -0.040913 0.026814 
0.039800 -0.028932 0.025221 
0.010756 -0.017248 0.002782 
-0.029672 -0.045188 0.037988 
-0.001838 0.052674 0.034299 
0.038683 0.033815 0.043780 
0.010905 -0.034863 0.012214 
-0.000305 -0.049487 0.025975 
0.050899 -0.027070 0.049277 
-0.014579 -0.035038 0.016865 
-0.040711 -0.022181 0.019689 
-0.027321 0.009921 0.000160 
0.048346 0.020648 0.034334 
0.015591 0.047773 0.029402 
-0.018871 -0.040573 0.016861 
0.012897 0.039452 0.022272 
0.027058 0.019458 0.003835 
-0.036755 -0.033117 0.026185 
-0.038839 0.036435 0.035801 
0.026112 -0.018328 0.000000 
0.036778 -0.000000 0.006654 
0.029576 0.020058 0.002775 
-0.041459 0.029749 0.029855 
-0.053449 0.016579 0.050000 
0.027851 0.031210 0.026376 
0.029722 -0.028571 0.010025 
-0.040247 0.036034 0.038123 
0.023846 -0.020944 0.000000 
-0.049869 0.006822 0.042583 
-0.037555 -0.028878 0.021259 
-0.019345 0.012748 0.000000 
-0.042235 -0.013624 0.015547 
0.023344 -0.039614 0.018467 
-0.044327 -0.030359 0.037166 
-0.025405 0.042080 0.041607 
0.008874 -0.001276 0.000000 
0.046557 -0.006829 0.036219 
0.030376 -0.038982 0.042379 
0.019382 -0.026392 0.007678 
0.047873 -0.006923 0.023705 
0.036218 -0.007497 0.004169 
0.028389 0.038380 0.039088 
-0.021655 0.015098 0.000000 
-0.010602 -0.030949 0.005205 
-0.013817 0.043635 0.030489 
0.049404 -0.005168 0.040628 
0.045487 -0.017611 0.041072 
-0.014535 0.044868 0.026387 
-0.030189 0.005983 0.000000 
0.023643 -0.048114 0.037576 
-0.019751 -0.005262 0.003000 
-0.035753 -0.014522 0.019188 
-0.029506 -0.048835 0.047594 
0.016577 -0.039176 0.026076 
-0.012792 0.039688 0.014152 
0.050182 0.013527 0.047382 
0.014431 -0.009033 0.002666 
-0.053046 -0.019523 0.046073 
-0.030164 0.000543 0.000000 
-0.020269 0.053886 0.048981 
0.036984 -0.005294 0.016825 
0.033129 -0.024091 0.020063 
0.026130 0.043574 0.028460 
0.011743 -0.040981 0.024961 
-0.026873 0.041676 0.025847 
0.018300 0.011025 0.002767 
-0.035614 0.000419 0.002614 
-0.054014 -0.020943 0.049986 
-0.035877 0.033364 0.025153 
-0.011495 0.004588 0.002502 
0.006593 -0.039239 0.007562 
-0.015223 -0.010611 0.002680 
-0.010087 -0.018871 0.000000 
-0.008725 0.056973 0.048236 
-0.016151 0.049609 0.037993 
-0.009500 0.048578 0.040787 
-0.016821 -0.001880 0.002802 
0.021623 0.004241 0.003000 
0.031824 -0.030470 0.014915 
-0.043591 0.007010 0.030630 
-0.030480 -0.032494 0.015746 
-0.043702 -0.034562 0.043400 
0.028979 0.006080 0.003000 
-0.034836 -0.024816 0.015291 
0.019272 -0.053067 0.045904 
-0.040384 -0.032460 0.043543 
-0.030040 -0.002982 0.001670 
0.055274 0.001213 0.041366 
0.016106 0.002481 0.002456 
-0.039511 -0.014336 0.011239 
0.028603 0.040530 0.042963 
0.030091 0.014858 0.008111 
0.015452 -0.026741 0.000000 
0.032056 -0.000763 0.003000 
0.014881 0.050228 0.033317 
-0.010456 -0.028800 0.000000 
-0.022688 0.049884 0.040393 
0.039608 -0.011274 0.025703 
0.016533 0.028572 0.008262 
0.013327 0.032035 0.010307 
-0.030902 0.024789 0.018789 
0.008704 0.052954 0.037189 
-0.040702 0.039429 0.046055 
0.020577 0.012826 0.000000 
-0.054588 0.019220 0.050000 
-0.022827 -0.042176 0.038791 
-0.027239 0.042174 0.044004 
0.004018 0.048584 0.040799 
0.015226 0.023268 0.000000 
-0.033734 -0.039926 0.033116 
0.020319 0.008940 0.003000 
0.021006 0.008824 0.000000 
-0.036453 0.032890 0.025311 
0.037566 -0.019999 0.012326 
-0.022235 -0.042525 0.038666 
0.038171 0.017441 0.011211 
-0.040531 0.002816 0.008807 
-0.012302 0.028896 0.002233 
-0.032000 0.041928 0.034541 
-0.005720 -0.029246 0.002952 
0.049095 -0.023456 0.039122 
-0.005696 0.030606 0.003347 
-0.032035 0.025710 0.021743 
0.008833 -0.033547 0.009474 
0.048160 0.023083 0.036258 
0.031007 0.040439 0.045699 
-0.019171 -0.034268 0.021088 
-0.009151 0.029430 0.000627 
-0.052038 -0.000000 0.040764 
-0.035570 0.038344 0.047624 
-0.006080 0.052099 0.033982 
0.021920 -0.010671 0.000000 
0.016442 0.044329 0.034738 
-0.030458 -0.029862 0.012503 
0.020322 0.052811 0.045968 
0.002791 0.020069 0.000000 
0.015990 -0.049606 0.039915 
-0.038862 -0.028365 0.034634 
-0.049537 -0.024082 0.041685 
0.048628 0.028712 0.050000 
-0.006956 0.056210 0.050000 
-0.034321 0.045878 0.047996 
-0.025246 0.052137 0.049677 
-0.003448 0.042832 0.013025 
0.016663 -0.041082 0.029407 
0.037413 0.026791 0.023071 
0.044889 0.028114 0.034501 
0.042434 -0.030935 0.042181 
-0.049662 -0.000000 0.037417 
-0.028423 0.036259 0.035348 
0.049012 -0.021342 0.036771 
-0.026395 -0.039251 0.020637 
0.027234 0.040809 0.041787 
-0.035765 -0.031334 0.021957 
-0.012257 -0.039528 0.010433 
-0.030261 -0.002113 0.001631 
-0.055868 0.005373 0.044213 
0.010513 0.055634 0.045674 
-0.032214 0.006145 0.000060 
0.041716 0.005793 0.011568 
-0.029520 0.040169 0.043362 
0.033762 -0.022406 0.007960 
0.016453 0.050724 0.038780 
-0.036403 0.021132 0.011025 
0.041219 -0.017000 0.032473 
0.051089 -0.015737 0.036705 
0.003434 0.042889 0.013129 
0.016686 0.042742 0.032361 
0.044377 0.032368 0.045964 
0.006292 -0.012253 0.000000 
-0.011389 0.041700 0.026458 
-0.033000 0.002932 0.001491 
0.010960 0.025732 0.002082 
-0.005717 -0.045599 0.034581 
0.023500 -0.043365 0.025875 
0.018925 -0.037313 0.010709 
-0.015091 0.045562 0.023173 
-0.014754 -0.045262 0.024972 
0.013751 0.042254 0.018911 
-0.054362 -0.002870 0.048637 
0.041136 -0.000000 0.013167 
-0.043972 0.032039 0.045523 
0.040252 -0.010823 0.026653 
0.033791 0.040488 0.049128 
-0.045893 -0.019503 0.042789 
-0.029408 -0.024917 0.005550 
0.047384 -0.032150 0.050000 
0.031653 0.026319 0.009632 
-0.047043 -0.029722 0.042947 
-0.042062 -0.001694 0.011613 
0.031897 -0.022628 0.005757 
0.013017 0.046822 0.037128 
0.014902 -0.045707 0.025333 
0.042240 0.031085 0.033568 
0.039562 0.028421 0.028737 
-0.020108 -0.037530 0.012341 
-0.024274 0.025971 0.002830 
-0.017507 -0.027747 0.007991 
0.057351 -0.001151 0.048239 
-0.025629 -0.025937 0.014555 
-0.012479 0.038910 0.014883 
-0.002416 0.032084 0.000000 
0.045829 -0.016142 0.024589 
-0.016111 -0.042837 0.018665 
0.051757 0.013047 0.035676 
-0.048939 -0.028310 0.045904 
0.047751 -0.009091 0.039964 
0.031237 0.022434 0.005261 
-0.012563 -0.038689 0.014584 
-0.004042 -0.031022 0.004212 
0.047626 -0.006540 0.038088 
-0.057802 -0.005260 0.049464 
-0.043136 -0.000000 0.016330 
-0.031373 0.004729 0.003000 
0.025289 0.030148 0.006534 
-0.025922 0.042598 0.026443 
0.001455 0.038096 0.018950 
-0.028702 -0.007268 0.003000 
-0.049650 -0.013908 0.046572 
0.007000 -0.051543 0.032718 
0.012615 0.039060 0.009746 
-0.029005 0.004452 0.003000 
-0.029640 -0.014458 0.007032 
-0.035605 -0.020587 0.022934 
-0.045479 0.025561 0.031929 
0.012638 -0.038914 0.016031 
0.019582 -0.049566 0.036584 
0.024506 -0.010291 0.000000 
-0.003953 -0.041682 0.010917 
0.021209 -0.051703 0.043953 
-0.028838 0.040435 0.026297 
0.038099 -0.022121 0.014777 
0.014052 -0.043155 0.021165 
-0.043463 0.010720 0.032763 
0.002018 0.008172 0.000000 
-0.014170 -0.043509 0.023336 
-0.001269 0.021224 0.002178 
-0.019297 -0.041088 0.032717 
0.002073 -0.008639 0.002631 
0.016972 -0.004999 0.000000 
-0.022249 -0.002234 0.003000 
0.008704 0.051623 0.032973 
-0.032772 0.038418 0.044338 
-0.044769 -0.000000 0.018326 
-0.023020 0.010550 0.000000 
0.005687 0.052463 0.035182 
-0.045617 0.015444 0.039933 
0.046623 0.024639 0.033847 
0.038612 -0.033306 0.042731 
0.019841 -0.043788 0.023854 
0.031877 -0.043964 0.050000 
-0.007207 0.041245 0.011362 
0.016396 0.050659 0.039480 
0.043647 -0.033297 0.040927 
-0.012556 -0.020663 0.002842 
0.029541 0.041942 0.030223 
0.013439 0.046652 0.036776 
-0.010173 -0.031935 0.003683 
0.033549 -0.000000 0.005824 
-0.021992 0.038229 0.030870 
0.028101 -0.044380 0.033505 
0.038368 0.042986 0.048795 
-0.011534 0.000921 0.000000 
-0.003190 -0.047362 0.021723 
-0.028400 0.008552 0.001604 
0.029624 0.044257 0.035690 
-0.013623 0.042065 0.017864 
0.041488 -0.031036 0.031734 
0.036069 0.025702 0.018075 
-0.031343 0.009923 0.008481 
0.044667 0.026187 0.044792 
-0.002076 -0.026016 0.002894 
0.034133 -0.027364 0.027124 
0.007090 0.031403 0.005006 
0.026843 0.017245 0.003000 
-0.013930 0.037034 0.006874 
0.036474 0.037760 0.033605 
0.033217 0.023305 0.019971 
-0.000243 -0.033369 0.009102 
-0.016239 -0.050677 0.035953 
-0.047286 -0.024351 0.035983 
-0.029687 -0.028371 0.023640 
0.015505 -0.047562 0.034701 
0.017298 0.044107 0.035394 
-0.011023 -0.054942 0.043482 
0.037213 0.002146 0.015017 
0.000906 -0.000213 0.000000 
0.007681 -0.021154 0.002834 
-0.018209 -0.035631 0.022226 
-0.013358 -0.028267 0.003936 
-0.043785 -0.000000 0.021679 
0.031621 0.007370 0.003000 
0.022767 -0.051152 0.043867 
0.036415 -0.009540 0.018453 
-0.016875 -0.042130 0.031558 
-0.035035 0.033274 0.038316 
0.031017 0.039217 0.043655 
-0.016716 0.051822 0.046184 
0.039464 0.017881 0.028848 
0.002150 0.053210 0.050000 
-0.012034 0.032032 0.008674 
0.005113 -0.046057 0.019531 
-0.009931 0.012355 0.000000 
-0.001919 0.044567 0.016206 
-0.031781 -0.022941 0.015502 
-0.031470 0.047021 0.050000 
-0.018163 -0.026478 0.000000 
-0.008974 -0.036441 0.015502 
0.041960 0.004164 0.025225 
-0.016104 0.049370 0.034060 
-0.040618 -0.034721 0.036549 
0.044048 -0.015324 0.020248 
0.008351 0.042420 0.013934 
0.009687 -0.030952 0.004109 
-0.000879 0.049981 0.043711 
0.043558 -0.018186 0.021950 
0.050433 -0.000000 0.038500 
-0.044202 -0.018885 0.038994 
-0.020887 -0.046691 0.044056 
-0.006533 0.038048 0.018850 
-0.042324 -0.000000 0.017140 
-0.040528 0.013421 0.028849 
0.041988 -0.038784 0.047407 
-0.043225 0.014109 0.017558 
-0.033430 -0.010167 0.012028 
0.047776 -0.025567 0.050000 
0.000665 0.050887 0.029040 
-0.050505 -0.014539 0.048702 
0.055303 0.016188 0.049141 
-0.019473 0.011224 0.000000 
-0.004384 0.010321 0.000000 
0.006421 -0.043152 0.014373 
-0.008067 -0.044954 0.018682 
0.027558 0.023626 0.003456 
0.012259 -0.040066 0.023054 
-0.024969 -0.037033 0.032710 
0.035641 -0.015225 0.020421 
0.043672 -0.022516 0.040727 
-0.031333 -0.011015 0.008447 
0.037424 0.017261 0.009658 
0.013762 0.042286 0.016008 
-0.004501 -0.023405 0.000000 
0.031802 0.000272 0.003610 
0.034412 -0.040431 0.035542 
0.025361 0.047863 0.038992 
0.013271 0.053356 0.040692 
0.016403 -0.042605 0.031686 
0.024773 -0.047753 0.037932 
0.043814 -0.000490 0.014827 
-0.003957 0.046578 0.020682 
-0.040375 0.008164 0.010252 
0.004194 0.047558 0.038663 
0.014019 -0.025696 0.000248 
-0.030654 -0.030197 0.013152 
-0.051013 -0.008065 0.031035 
-0.032158 -0.040149 0.046593 
-0.037542 -0.043676 0.048862 
0.013734 -0.032999 0.012294 
-0.023454 -0.022159 0.000000 
-0.053437 0.020222 0.047768 
0.011130 0.056412 0.050000 
0.043888 -0.017441 0.037887 
-0.038052 -0.031793 0.026601 
0.014742 0.003738 0.002448 
0.037085 -0.000000 0.011871 
0.023285 -0.047408 0.048117 
0.035558 -0.027409 0.028940 
-0.032748 0.015517 0.014604 
0.040806 0.029108 0.027402 
-0.042571 0.017401 0.019544 
-0.040272 -0.000000 0.015359 
0.017486 0.022115 0.000000 
0.038902 -0.042191 0.048085 
-0.009178 -0.005926 0.003000 
0.041317 -0.033265 0.045961 
-0.026396 0.001209 0.000000 
-0.022296 0.031460 0.005210 
-0.046231 0.029546 0.040384 
0.041719 0.032207 0.034440 
-0.019048 0.049043 0.034331 
-0.016958 0.034778 0.005406 
0.017498 -0.046650 0.027595 
-0.004035 -0.039073 0.020984 
-0.045357 0.027342 0.034247 
0.053936 -0.000126 0.046112 
-0.006415 -0.006232 0.000000 
0.011973 0.037844 0.007417 
0.033800 -0.024147 0.015774 
-0.005572 -0.041529 0.026102 
-0.015036 0.046358 0.030658 
-0.039201 -0.006542 0.021189 
-0.002239 0.020984 0.002182 
0.040718 0.004205 0.009150 
0.039055 -0.039238 0.042175 
0.022651 0.016924 0.003000 
-0.045307 -0.034822 0.050000 
0.017031 0.042904 0.033048 
-0.009999 0.031859 0.004567 
0.014227 -0.043681 0.019180 
-0.003384 0.026197 0.000000 
0.054227 0.010926 0.041217 
0.046940 -0.031662 0.045913 
0.046537 -0.027624 0.038016 
-0.030498 -0.021714 0.008549 
-0.028198 0.024948 0.015763 
-0.039785 -0.033209 0.031815 
-0.010921 0.055091 0.043566 
-0.028943 -0.020499 0.003767 
0.034089 -0.012478 0.003423 
0.045530 -0.006293 0.018592 
0.017807 -0.039387 0.027867 
-0.039035 0.037283 0.038004 
-0.036627 -0.043544 0.046862 
0.038760 0.042293 0.048000 
0.020021 0.035716 0.024548 
0.049892 -0.012720 0.030135 
-0.030132 0.027043 0.008658 
-0.008106 0.051980 0.047875 
0.030273 0.003584 0.000000 
-0.007001 0.020987 0.002172 
-0.002844 -0.036629 0.015893 
0.017878 -0.051755 0.040798 
0.004143 -0.046158 0.019702 
0.007093 0.044783 0.032880 
-0.017515 -0.027360 0.007329 
0.053469 -0.014001 0.041839 
-0.000713 0.013628 0.000000 
0.047538 -0.007444 0.022923 
0.052364 -0.000869 0.043565 
0.038280 0.032874 0.028513 
0.056736 0.004936 0.046102 
0.040484 -0.029588 0.037543 
-0.009955 -0.055902 0.046186 
-0.005518 -0.007543 0.000000 
-0.038482 0.027963 0.032217 
-0.033681 -0.024057 0.015485 
-0.027857 0.038295 0.020747 
0.034854 0.025092 0.012851 
-0.000681 0.010621 0.002339 
0.040766 -0.001672 0.009237 
0.021353 0.050691 0.041114 
0.020046 -0.002381 0.003000 
