
# .PCD v.6 - Point Cloud Data file format
FIELDS x y z 
SIZE 4 4 4 
TYPE F F F 
COUNT 1 1 1 
WIDTH 1647
HEIGHT 1
VIEWPOINT 0.000000 0.000000 0.000000 1.000000 0.000000 0.000000 0.00000
POINTS 1647
DATA ascii
0.018095 0.053459 0.012979 
0.063788 -0.070776 0.085000 
0.061861 -0.047086 0.058056 
0.046108 -0.000000 0.011063 
0.084433 0.003262 0.067541 
-0.008675 -0.086313 0.057833 
-0.030862 -0.036884 0.018578 
0.036118 -0.051303 0.020491 
-0.046474 -0.000000 0.006125 
-0.035291 0.088689 0.075811 
-0.042657 0.078690 0.079001 
-0.072111 -0.006864 0.051968 
0.054734 0.072202 0.064825 
-0.027081 0.043706 0.008925 
0.004501 -0.026839 0.003000 
-0.074034 -0.042198 0.053279 
-0.025319 -0.073748 0.058118 
0.066187 0.066846 0.085000 
0.069643 0.050535 0.057942 
-0.021690 0.026579 0.000000 
-0.031789 0.084451 0.076338 
0.019364 0.007762 0.000000 
0.053317 0.054501 0.059759 
-0.077638 0.044899 0.077440 
0.077969 -0.042300 0.060541 
0.021306 -0.066035 0.042157 
0.043084 -0.086569 0.078225 
0.024802 -0.076378 0.045535 
0.027887 0.006304 0.000000 
-0.019388 -0.091384 0.070830 
0.027142 0.012142 0.003000 
-0.075592 0.045407 0.059744 
0.073298 -0.053660 0.075985 
-0.036761 0.057029 0.026333 
0.028557 0.004734 0.000000 
0.049984 -0.055972 0.058248 
0.041572 -0.024491 0.017477 
-0.038617 -0.091105 0.083238 
0.077785 -0.021923 0.046383 
0.015605 0.091515 0.070384 
-0.051225 -0.071005 0.058017 
-0.053687 -0.015341 0.030078 
0.074704 0.010487 0.057258 
0.053665 0.056035 0.061873 
-0.068287 -0.025969 0.055497 
-0.008596 0.064547 0.023219 
0.001465 0.002855 0.000000 
0.051198 0.082180 0.077851 
-0.041203 -0.012984 0.011614 
-0.007625 -0.068367 0.048899 
0.018583 0.056203 0.031626 
-0.051455 -0.007549 0.023489 
-0.024404 -0.038492 0.015160 
0.073397 0.005733 0.034896 
-0.052710 0.037364 0.038994 
0.038750 0.037889 0.010349 
-0.008914 -0.011768 0.003000 
-0.083080 -0.026089 0.057412 
0.050727 0.067453 0.072811 
0.008197 -0.072714 0.055271 
0.056682 -0.051447 0.058722 
-0.074714 0.027934 0.044365 
0.063407 -0.029707 0.028532 
0.057417 -0.016519 0.036122 
0.031207 0.014291 0.003000 
-0.023274 -0.035456 0.010600 
-0.075531 -0.013142 0.059656 
-0.047993 0.010790 0.006822 
0.069828 0.022144 0.034037 
-0.020878 0.087907 0.077536 
0.020068 0.061841 0.031984 
-0.048236 -0.043591 0.022194 
-0.061097 -0.028220 0.046474 
-0.059719 -0.061034 0.054148 
0.035100 -0.052997 0.021449 
0.057968 0.053501 0.042843 
-0.066192 0.057754 0.059276 
-0.023150 -0.071524 0.047558 
0.062404 -0.038320 0.034094 
0.013910 -0.030860 0.000000 
0.036650 0.040502 0.028593 
-0.002833 -0.021683 0.003000 
-0.097884 -0.012894 0.083192 
0.056732 -0.065547 0.056789 
-0.063317 -0.061412 0.076488 
-0.073138 0.052870 0.068908 
-0.014352 0.094416 0.085000 
-0.013570 0.042694 0.009680 
-0.047471 -0.067273 0.069568 
0.068624 -0.043275 0.064162 
-0.035915 -0.055366 0.045147 
0.036015 -0.026243 0.007707 
0.044915 -0.077990 0.063357 
0.014609 -0.045430 0.007151 
-0.016206 0.033750 0.002768 
0.004545 -0.031249 0.003000 
-0.058049 -0.074383 0.085000 
-0.036618 -0.060215 0.051571 
-0.020570 -0.011630 0.000000 
0.012877 -0.087737 0.077287 
0.045762 0.077060 0.079850 
0.056519 -0.041254 0.032621 
-0.070739 0.030905 0.061238 
0.064042 -0.033924 0.053438 
-0.065231 -0.067755 0.072788 
0.096322 -0.025524 0.084338 
0.000455 0.036217 0.000000 
0.053856 0.039202 0.030426 
-0.030083 -0.011852 0.003000 
0.021404 -0.091050 0.082142 
0.051086 -0.052164 0.033060 
0.027048 0.067978 0.052881 
-0.036999 -0.064154 0.056622 
0.089686 -0.024980 0.070301 
-0.065931 0.040641 0.040866 
0.066842 -0.000000 0.039531 
0.005659 -0.072662 0.055194 
0.034128 -0.061671 0.029629 
0.071146 0.010647 0.052347 
-0.040982 0.018930 0.013953 
-0.026898 -0.060433 0.043470 
-0.024631 0.077814 0.047487 
0.062606 0.045707 0.044492 
0.018622 0.010604 0.003000 
-0.089739 0.033248 0.075936 
0.041282 0.079421 0.062124 
0.034237 0.057532 0.046781 
-0.038922 -0.064543 0.058779 
0.025574 -0.078450 0.057625 
0.003106 -0.084944 0.053618 
0.023280 0.061689 0.023785 
0.077599 0.021174 0.066305 
0.032252 -0.074900 0.046853 
-0.042006 -0.000654 0.001591 
0.080883 -0.013139 0.048636 
0.026182 0.079506 0.054694 
0.073989 0.005811 0.035882 
-0.041441 -0.031252 0.021139 
0.018079 0.051722 0.025897 
-0.009193 0.064945 0.043886 
-0.043151 -0.072706 0.072272 
-0.026295 -0.051595 0.032396 
0.027306 0.069119 0.035480 
0.020267 -0.001019 0.003000 
0.005411 -0.021992 0.000000 
-0.001711 -0.049092 0.020652 
-0.022763 0.085597 0.060947 
0.014438 0.045110 0.008574 
0.009080 0.091299 0.082507 
0.020731 0.061774 0.040071 
-0.081370 0.042350 0.066787 
-0.053481 0.038721 0.029609 
0.034013 0.014155 0.003000 
0.019394 -0.079892 0.065790 
-0.050480 0.079207 0.085000 
0.075176 -0.063969 0.085000 
-0.029208 -0.025395 0.000000 
0.046340 0.050747 0.049271 
-0.082020 -0.043852 0.083090 
-0.046021 0.062413 0.040843 
0.014552 0.045656 0.011429 
0.076671 -0.009891 0.059873 
0.029496 0.009230 0.003000 
0.045856 0.046211 0.043488 
-0.015568 0.061471 0.038794 
0.003904 -0.060638 0.018049 
0.068152 -0.036222 0.060233 
0.082626 -0.000000 0.052488 
-0.075868 0.011414 0.059322 
-0.065399 0.008712 0.024194 
-0.030652 -0.009088 0.000000 
0.073068 -0.052837 0.067076 
0.042846 0.031058 0.014051 
-0.064025 0.030836 0.051799 
0.085923 0.013376 0.074325 
0.056629 -0.055022 0.043061 
-0.009868 -0.085458 0.073947 
-0.041931 0.078616 0.061335 
-0.057046 -0.041366 0.034705 
-0.000638 0.060418 0.017260 
-0.093339 -0.030128 0.081056 
0.082682 -0.047333 0.074360 
0.024295 0.046879 0.025570 
-0.073025 -0.000000 0.047401 
0.065901 0.065577 0.083764 
-0.061363 0.075286 0.085000 
0.050295 -0.019415 0.010492 
-0.061133 -0.064281 0.078001 
-0.090828 0.035989 0.080477 
0.016235 -0.031513 0.000113 
0.015233 -0.026591 0.000000 
-0.009839 0.042300 0.010699 
-0.027530 -0.069528 0.036221 
0.061045 0.028210 0.046397 
-0.051217 -0.056288 0.038125 
0.011240 0.076172 0.040627 
0.062981 0.033824 0.051732 
-0.080650 0.003529 0.062388 
-0.055831 -0.061192 0.069641 
-0.023069 0.070953 0.036157 
0.067464 -0.034543 0.058495 
0.050747 0.031254 0.033391 
0.023124 -0.070817 0.037210 
-0.061069 -0.007815 0.037003 
-0.046797 -0.027681 0.026188 
0.072100 -0.015808 0.056253 
0.063670 0.069508 0.073080 
0.083166 0.036311 0.081175 
0.039967 0.034578 0.024061 
0.004930 -0.071546 0.053558 
0.053811 -0.026425 0.035645 
-0.011479 -0.081385 0.067978 
-0.002629 -0.084281 0.072223 
-0.048732 -0.035330 0.027034 
0.087692 -0.025019 0.082257 
0.033452 0.034744 0.006311 
-0.078735 -0.033615 0.053559 
-0.078934 -0.016579 0.066030 
0.053294 0.042755 0.026549 
0.038972 0.056123 0.049226 
0.016574 -0.095580 0.079086 
-0.074467 0.051374 0.064486 
0.049954 -0.057915 0.060547 
-0.049689 -0.035824 0.031808 
-0.046145 0.014622 0.006348 
-0.024565 0.076190 0.058058 
-0.014024 0.096649 0.080790 
0.076411 0.054014 0.070932 
0.005772 0.005068 0.003000 
0.077320 -0.032925 0.071477 
0.039807 0.029901 0.018123 
0.073196 -0.000000 0.045106 
-0.034765 -0.065923 0.056776 
-0.062115 0.061497 0.058504 
-0.056545 -0.026068 0.039093 
-0.058179 -0.081070 0.084151 
-0.064581 -0.005555 0.022807 
-0.030190 0.072228 0.041712 
0.016549 0.056513 0.031528 
0.038388 0.052831 0.044831 
-0.023289 0.072470 0.041998 
-0.045424 0.032886 0.022030 
-0.042777 0.046428 0.020070 
-0.009563 0.080920 0.067297 
-0.041065 0.077826 0.058995 
-0.078219 0.006118 0.042873 
0.035287 -0.041132 0.027555 
-0.092539 0.000436 0.069187 
0.004362 0.007173 0.003000 
0.026455 -0.069582 0.035756 
0.059298 -0.043112 0.044340 
-0.044554 -0.040711 0.016881 
0.064602 -0.023566 0.049408 
0.001713 0.081063 0.046846 
0.060997 0.039275 0.051498 
-0.023132 -0.071878 0.053610 
0.005030 0.032953 0.003000 
-0.066090 -0.026683 0.052752 
0.068587 0.055571 0.074275 
0.040694 -0.006143 0.007984 
0.012793 -0.009421 0.000000 
0.043611 -0.031543 0.023531 
0.071619 -0.036253 0.045132 
0.041293 0.077558 0.058745 
0.053769 -0.003828 0.025145 
0.076340 -0.023027 0.044557 
-0.030424 -0.082582 0.059243 
0.039439 -0.059756 0.031637 
-0.005778 0.068634 0.049291 
-0.013870 0.077276 0.061956 
0.045265 -0.051756 0.026652 
-0.018598 0.024252 0.003000 
-0.027695 -0.085028 0.069563 
0.088993 0.012813 0.064470 
0.062495 0.035761 0.051955 
-0.014690 -0.039518 0.001853 
0.049249 0.069704 0.074188 
0.087080 -0.045824 0.085000 
0.047548 -0.052652 0.029433 
0.072143 0.052527 0.067817 
0.071247 -0.068469 0.085000 
-0.044224 -0.013283 0.004670 
-0.011951 -0.092779 0.072285 
-0.053371 -0.029257 0.018412 
-0.056574 0.033587 0.023950 
-0.036719 0.057948 0.027160 
0.088992 -0.025435 0.084263 
-0.021797 0.067969 0.036644 
-0.002615 0.019042 0.003000 
-0.052840 0.065535 0.051683 
-0.008163 0.070897 0.052608 
0.024221 -0.069326 0.034224 
0.026375 -0.073814 0.059061 
-0.003902 -0.071029 0.052801 
-0.051853 0.075677 0.067066 
0.007687 0.066053 0.024660 
-0.059469 -0.033114 0.026444 
0.002049 -0.073405 0.034163 
0.074551 -0.050397 0.075733 
-0.016236 -0.071911 0.034699 
-0.066223 -0.024600 0.029668 
-0.056851 -0.000076 0.013112 
-0.021465 0.076488 0.060801 
-0.036200 0.026170 0.006674 
-0.006449 -0.055595 0.012807 
-0.014921 -0.086947 0.060634 
-0.055389 0.007261 0.012687 
0.045930 0.029604 0.025871 
0.072226 -0.060876 0.073516 
-0.066304 0.048024 0.053494 
0.025073 0.029927 0.001089 
-0.040717 0.010133 0.009672 
-0.021879 0.028626 0.000000 
-0.018478 -0.057435 0.031253 
-0.035854 -0.048230 0.017392 
0.037576 -0.002634 0.001999 
-0.036493 -0.081476 0.061465 
-0.094053 0.014701 0.075415 
-0.009170 0.029212 0.003000 
0.058550 0.056348 0.046926 
-0.055587 -0.006281 0.028684 
-0.074493 0.053813 0.073907 
0.023277 -0.048942 0.026748 
0.028091 0.061916 0.046626 
0.054100 -0.066047 0.073930 
-0.002112 0.080209 0.045405 
0.074895 0.049864 0.063330 
-0.046364 -0.064706 0.044161 
0.007678 0.072434 0.054860 
-0.013042 -0.096536 0.085000 
0.091795 0.018721 0.085000 
-0.079274 0.035197 0.075201 
0.032366 0.062890 0.029923 
0.090419 -0.000000 0.065494 
-0.033243 0.024089 0.003457 
-0.077459 -0.061349 0.082592 
0.038968 -0.040021 0.011800 
0.008582 -0.060439 0.037282 
0.078329 0.046242 0.079035 
-0.045288 -0.008134 0.004611 
-0.029224 0.066478 0.052612 
-0.056159 -0.000000 0.020971 
-0.018622 -0.057282 0.022994 
0.032504 0.061768 0.050281 
0.021273 -0.037292 0.011159 
-0.013423 0.083339 0.070841 
0.012722 0.083778 0.071485 
0.030603 -0.057918 0.043531 
-0.026774 -0.063053 0.046506 
0.095131 0.002327 0.075165 
-0.002398 -0.090231 0.064729 
-0.017714 -0.054779 0.021440 
-0.040840 0.063349 0.059036 
-0.071357 0.029457 0.061428 
0.047607 -0.059934 0.060901 
-0.009103 -0.004678 0.003000 
-0.054038 -0.001531 0.024421 
-0.077704 0.059693 0.085000 
0.090275 -0.021472 0.069544 
-0.019960 -0.061418 0.030360 
0.022869 -0.070620 0.048510 
-0.093995 -0.015996 0.075543 
-0.007305 -0.036438 0.002108 
-0.058691 0.049183 0.057778 
-0.031906 -0.030256 0.011560 
-0.060952 -0.039652 0.033429 
0.005308 0.046015 0.016143 
-0.083294 0.038128 0.082202 
-0.015642 0.049159 0.019853 
-0.036457 -0.043253 0.012883 
-0.045071 -0.049379 0.024316 
0.029827 -0.061701 0.026776 
0.046328 0.080283 0.084148 
0.067036 0.061075 0.065359 
-0.015935 -0.069636 0.030968 
-0.047710 -0.017924 0.022910 
-0.048471 -0.031994 0.030547 
0.048812 0.031227 0.030667 
-0.029068 0.080547 0.054214 
0.031305 -0.046780 0.013257 
-0.059969 0.035804 0.028665 
0.054603 -0.073124 0.066124 
-0.016435 -0.051304 0.020818 
-0.041769 -0.015379 0.003639 
0.049358 0.043635 0.043266 
0.012155 0.071583 0.033291 
0.054207 0.037141 0.023951 
-0.047246 0.068910 0.050568 
-0.048555 0.035405 0.017761 
0.016812 0.052221 0.019086 
-0.062461 -0.047286 0.042015 
0.052359 0.074829 0.066159 
0.024209 -0.036617 0.012755 
-0.063460 -0.049134 0.044975 
-0.056918 0.045425 0.033473 
-0.059447 -0.024254 0.021727 
0.041140 -0.029652 0.019188 
0.000956 -0.078046 0.041638 
0.043757 -0.054549 0.051067 
0.033563 -0.036036 0.019938 
0.045624 -0.081239 0.084662 
0.065353 -0.057535 0.073636 
0.064480 -0.031411 0.031374 
0.079765 -0.057874 0.081469 
-0.004856 -0.088890 0.078977 
-0.095229 0.009368 0.076875 
-0.020799 -0.038648 0.012394 
-0.026468 -0.094510 0.081181 
-0.017484 -0.024214 0.000000 
-0.061477 0.019517 0.042943 
0.034584 0.025209 0.006777 
-0.049299 -0.074477 0.061958 
-0.088613 0.013960 0.078368 
-0.033254 0.006606 0.003000 
-0.085596 -0.047555 0.085000 
-0.024842 0.011236 0.003000 
0.051946 -0.018248 0.029302 
-0.073498 -0.000000 0.044407 
-0.030674 0.070898 0.039922 
0.029261 0.090067 0.073879 
-0.085702 -0.034086 0.068245 
0.061473 0.066100 0.080539 
0.004634 0.050892 0.008607 
-0.098436 0.012599 0.085000 
0.095654 -0.013265 0.078611 
0.006567 0.052815 0.026109 
-0.050483 -0.039806 0.039332 
0.065122 -0.012110 0.044811 
0.094475 0.002019 0.073691 
0.017496 0.089108 0.079296 
-0.063573 -0.073223 0.078882 
0.071528 0.023960 0.037461 
-0.029748 -0.092067 0.083176 
-0.044371 -0.043897 0.038855 
-0.023899 -0.079005 0.049000 
-0.058888 -0.000000 0.019023 
-0.062631 0.007578 0.020923 
0.012213 -0.038662 0.001917 
-0.062911 0.003320 0.037577 
0.011592 0.086834 0.059611 
-0.026336 -0.035881 0.013617 
0.028360 -0.048075 0.029873 
0.044865 0.033209 0.026519 
-0.087525 0.039275 0.076346 
0.084025 -0.012854 0.071497 
0.019241 0.043483 0.017173 
0.048360 -0.000000 0.011474 
-0.015484 -0.050448 0.022639 
-0.027217 -0.006473 0.003000 
-0.095805 -0.005145 0.077200 
-0.033566 0.082394 0.061355 
-0.079259 -0.009155 0.063018 
0.045488 0.007247 0.015041 
0.020071 0.060600 0.022256 
0.026455 0.081057 0.056102 
0.083146 0.024221 0.075499 
0.003474 0.078242 0.042534 
0.083419 0.001231 0.065228 
-0.045354 0.032882 0.019985 
0.080668 -0.010390 0.047782 
-0.067279 0.048642 0.063261 
-0.012993 -0.040371 0.001903 
-0.005886 -0.022180 0.000000 
-0.012578 0.034749 0.000000 
0.080661 -0.050698 0.074559 
0.056831 0.029072 0.021657 
0.007927 -0.030666 0.000000 
0.039234 0.043564 0.034584 
0.019881 -0.080501 0.066683 
-0.011974 0.073972 0.037096 
0.021005 -0.085182 0.059154 
0.049232 -0.000000 0.016148 
-0.023434 0.008154 0.003000 
0.077993 -0.010645 0.043435 
0.067851 -0.013638 0.049324 
0.063472 0.046116 0.054200 
0.021836 -0.029769 0.002614 
-0.041846 0.022968 0.006157 
0.049440 -0.037229 0.019380 
-0.024040 -0.062163 0.043200 
0.063673 -0.000000 0.034832 
-0.058026 0.052721 0.041985 
-0.015403 -0.027442 0.000000 
0.004745 -0.009586 0.003000 
0.070478 -0.032807 0.061888 
0.098092 -0.019899 0.084983 
0.097726 -0.019085 0.084062 
0.031440 0.021234 0.000000 
-0.045877 -0.053970 0.029607 
-0.005771 0.048682 0.007100 
-0.012889 0.077911 0.043709 
0.013379 0.033839 0.000000 
0.008089 -0.048787 0.020204 
0.048288 0.053060 0.053693 
-0.000703 -0.032905 0.003000 
-0.067729 -0.031877 0.057474 
-0.054076 0.039529 0.025527 
0.038687 -0.072777 0.048672 
0.022406 0.093903 0.085000 
0.089235 0.042090 0.085000 
0.073363 0.032938 0.065865 
-0.046180 -0.058583 0.035942 
-0.095573 -0.000578 0.075692 
-0.037504 0.018651 0.008972 
-0.079708 0.029240 0.052675 
0.035320 0.023098 0.002069 
0.016737 -0.069314 0.050287 
-0.028503 -0.068279 0.054179 
0.040370 -0.089461 0.081301 
-0.027146 -0.083880 0.070494 
0.009899 0.039991 0.007314 
0.073325 0.053285 0.067029 
0.070405 -0.000000 0.044830 
-0.016125 0.038019 0.007812 
-0.014173 0.069766 0.030703 
-0.043579 0.074893 0.075266 
-0.043120 0.072586 0.072101 
0.013379 0.068344 0.048866 
-0.033460 0.024960 0.006586 
0.018969 0.057554 0.017980 
0.081956 -0.011849 0.068147 
0.058702 0.068169 0.080578 
-0.031178 0.024269 0.003753 
0.062461 0.006613 0.020596 
0.035477 0.025716 0.007230 
0.039199 -0.030069 0.017750 
-0.081038 0.049487 0.073997 
0.022836 0.001248 0.000000 
0.024989 -0.077226 0.059266 
-0.028478 0.024472 0.001713 
-0.017959 -0.055903 0.027023 
-0.060096 0.043218 0.035335 
-0.031693 0.022862 0.000110 
-0.023717 0.081957 0.068817 
0.083253 -0.004915 0.066734 
0.040709 -0.014423 0.011729 
0.079342 0.031149 0.073406 
0.015650 -0.025011 0.000000 
0.072436 0.052499 0.071513 
-0.066912 0.049681 0.065605 
-0.096201 0.023676 0.082995 
-0.047185 -0.010475 0.018837 
0.070058 0.016467 0.031905 
-0.000266 0.055507 0.030053 
0.076608 -0.038831 0.073228 
-0.045254 0.030904 0.011583 
-0.042526 0.017736 0.004784 
0.017451 -0.054198 0.018656 
-0.038636 -0.056352 0.048721 
0.070777 -0.059089 0.068642 
-0.014435 0.080592 0.066815 
-0.058181 -0.002840 0.030773 
-0.085836 -0.051103 0.084237 
-0.076674 -0.034745 0.071348 
0.086393 0.032880 0.084093 
0.073481 -0.005447 0.053364 
-0.038953 0.011985 0.000684 
-0.077429 0.044065 0.076758 
0.070565 0.068879 0.085000 
-0.029902 0.068037 0.035150 
0.036142 0.019282 0.001154 
0.071467 0.039917 0.047829 
0.096294 -0.025087 0.085000 
0.016556 0.091804 0.071171 
0.057331 -0.041586 0.036917 
0.015314 0.047943 0.017272 
-0.059576 0.036789 0.048346 
-0.046147 0.068556 0.069938 
0.050275 -0.035499 0.019182 
-0.067384 -0.066360 0.073943 
-0.069582 -0.065012 0.075238 
-0.041118 0.052722 0.024921 
0.019806 -0.012825 0.000000 
0.069796 -0.024133 0.056909 
0.023215 -0.071655 0.039579 
-0.038214 0.051030 0.041979 
-0.039785 0.030253 0.018488 
0.060093 -0.056421 0.048849 
-0.062925 -0.061397 0.059586 
0.044397 -0.068215 0.047246 
0.041176 -0.031882 0.021660 
-0.003026 -0.072449 0.054881 
-0.077221 0.055737 0.081124 
-0.062209 -0.029290 0.026981 
0.075117 0.061814 0.085000 
0.023499 0.072046 0.046795 
0.015395 -0.048186 0.017398 
-0.067997 -0.035708 0.059639 
-0.068157 -0.043272 0.063396 
0.050846 0.036883 0.032961 
0.049558 0.030752 0.031490 
0.027444 -0.050508 0.032035 
-0.004762 -0.055278 0.029718 
0.020357 0.061503 0.022526 
-0.078007 0.015709 0.044445 
-0.015211 0.047683 0.007563 
0.032935 0.017561 0.002121 
0.049707 -0.037253 0.035594 
-0.075753 0.050737 0.077526 
-0.073958 -0.021033 0.061138 
0.066752 0.000944 0.041876 
0.017111 -0.074388 0.057723 
0.084111 -0.022182 0.075950 
0.042432 -0.000000 0.002312 
0.063821 0.022236 0.025721 
-0.022500 0.068122 0.031511 
0.063500 -0.045619 0.057973 
0.059393 -0.072502 0.085000 
0.051572 0.016693 0.027745 
-0.058723 -0.076698 0.085000 
0.047325 0.068146 0.070676 
0.068449 -0.049589 0.053821 
-0.028961 -0.069399 0.036755 
0.039781 0.051778 0.023160 
0.070157 -0.000000 0.030815 
0.012270 0.018148 0.000000 
0.059904 -0.069639 0.067924 
0.023937 0.032114 0.007399 
0.045618 -0.033035 0.017017 
-0.092858 -0.003632 0.079491 
-0.072911 -0.019226 0.037646 
0.057248 -0.026960 0.020876 
0.077083 -0.035421 0.052060 
-0.040656 -0.027730 0.017607 
-0.020124 0.059781 0.037141 
-0.047563 0.078760 0.067644 
0.019927 0.052108 0.027956 
0.040835 -0.012176 0.002032 
-0.059393 0.002266 0.032207 
0.014300 -0.036422 0.003000 
-0.067558 0.048902 0.065241 
-0.048801 0.006374 0.007188 
-0.008696 -0.043937 0.013097 
0.048493 0.074934 0.061875 
-0.025306 0.032481 0.001333 
-0.093919 -0.025557 0.079537 
0.088502 -0.005869 0.074491 
-0.049034 -0.066522 0.048892 
0.074723 0.054619 0.068723 
0.026573 -0.091750 0.075786 
-0.018289 -0.092303 0.083978 
0.067492 -0.015006 0.027432 
0.058220 0.018387 0.037851 
-0.030257 -0.092874 0.085000 
0.058416 0.058402 0.049212 
0.089046 0.002873 0.073796 
-0.015360 -0.067034 0.046946 
-0.014100 0.076777 0.042088 
0.064839 0.055900 0.071411 
-0.075065 0.021076 0.062709 
0.058734 -0.000000 0.027935 
0.018877 -0.058957 0.027626 
-0.009691 -0.003009 0.000000 
-0.078802 -0.037837 0.075773 
-0.078185 -0.007590 0.043192 
-0.068273 0.035445 0.059903 
0.059088 -0.043093 0.038790 
0.080579 0.001489 0.045908 
0.066061 -0.056984 0.057982 
0.058932 0.019297 0.019362 
0.038315 -0.020116 0.002830 
0.044577 0.035916 0.029633 
0.063354 -0.045150 0.041317 
0.069113 -0.057800 0.077262 
-0.026746 -0.071551 0.038918 
-0.054782 -0.039959 0.029931 
-0.080015 -0.028120 0.052574 
-0.023260 -0.086824 0.063441 
0.002880 0.000380 0.003000 
0.044929 -0.061554 0.038754 
-0.003655 -0.031101 0.000000 
-0.023854 -0.041814 0.018687 
0.056160 -0.000000 0.023062 
0.090857 -0.000000 0.069600 
0.041532 -0.017712 0.014372 
-0.032179 0.022731 0.000888 
0.074786 0.010137 0.038127 
0.041519 0.030139 0.009517 
-0.081678 -0.023292 0.053002 
0.043916 -0.060181 0.036060 
-0.031684 0.075792 0.047929 
-0.037354 -0.079467 0.058477 
-0.006469 -0.050791 0.023141 
-0.079739 -0.043877 0.065706 
0.007618 -0.062994 0.021336 
-0.009292 -0.044605 0.014076 
-0.057166 -0.055226 0.043943 
0.072949 -0.000000 0.043937 
-0.049459 -0.000000 0.009900 
0.019192 -0.081174 0.067669 
-0.027306 -0.046044 0.026578 
0.087278 -0.000573 0.057981 
-0.032440 -0.088270 0.081483 
-0.097814 -0.004767 0.081377 
-0.020190 0.062607 0.035732 
-0.084881 0.029257 0.080283 
-0.064660 0.041915 0.040220 
0.091441 0.019698 0.071013 
0.023143 -0.096059 0.082387 
0.034140 0.024686 0.004986 
0.047622 -0.034741 0.030753 
0.053283 -0.060361 0.066404 
-0.019333 -0.032249 0.003532 
-0.003612 0.078678 0.043132 
-0.069730 0.035641 0.062036 
-0.063699 -0.030931 0.029909 
0.029321 0.047267 0.030389 
-0.054328 0.000218 0.010544 
0.056750 0.071939 0.083336 
-0.041997 -0.042927 0.035605 
0.033398 0.013854 0.000000 
-0.056188 0.042607 0.029782 
0.043754 0.015688 0.016367 
0.072780 -0.025675 0.061782 
0.000251 -0.039937 0.001434 
0.029013 -0.039055 0.019609 
-0.077784 -0.039688 0.057797 
0.018094 0.011248 0.000000 
0.096981 0.015647 0.081846 
0.001624 0.071595 0.031045 
0.008739 -0.084282 0.072224 
-0.045150 -0.051911 0.026728 
0.018051 0.086789 0.075897 
-0.015096 0.075197 0.039722 
-0.035743 -0.011016 0.000000 
-0.057649 -0.041793 0.044825 
0.049412 -0.073139 0.078298 
0.058031 0.042458 0.049166 
0.027359 -0.030505 0.008018 
-0.082470 0.044017 0.070524 
-0.008122 0.079319 0.064950 
-0.026788 0.082905 0.060942 
0.055328 -0.023020 0.017022 
-0.048585 0.047792 0.047225 
-0.065412 0.065236 0.069226 
-0.026026 -0.024100 0.003000 
-0.067775 -0.054347 0.057060 
-0.013669 0.005298 0.003000 
-0.082140 0.007700 0.049659 
-0.016750 -0.073237 0.037008 
-0.051725 -0.035784 0.036877 
0.042707 0.067390 0.065776 
-0.093350 0.029127 0.080549 
0.012414 -0.057695 0.033260 
-0.041765 0.030200 0.015546 
0.054889 -0.000000 0.020496 
-0.057929 0.044462 0.033909 
-0.053059 -0.050805 0.054767 
0.009376 0.040259 0.007708 
0.082755 0.051451 0.079173 
-0.062394 0.072569 0.076151 
0.052865 -0.043728 0.026733 
-0.086502 -0.043834 0.078740 
0.031148 -0.088475 0.072067 
0.060641 0.021358 0.042631 
-0.038822 0.035595 0.024036 
-0.031988 -0.056457 0.022890 
0.036877 0.026022 0.011514 
-0.003835 0.077724 0.062613 
-0.002732 0.071254 0.053131 
0.032028 -0.050997 0.036499 
-0.001427 0.080864 0.046370 
-0.034840 0.087677 0.082885 
0.051696 -0.071798 0.078701 
0.055142 -0.049511 0.034815 
0.042423 -0.062109 0.037394 
-0.055968 -0.079521 0.078777 
0.023055 -0.084558 0.058920 
0.052627 0.064550 0.050191 
0.080247 -0.026004 0.051850 
0.000822 -0.086394 0.056168 
-0.074531 -0.049116 0.061851 
0.009577 -0.033635 0.000000 
0.051166 0.037087 0.033291 
-0.014346 0.044883 0.010990 
0.041158 0.008770 0.009682 
0.039082 0.046494 0.017622 
0.002402 -0.035911 0.001334 
0.013001 -0.037118 0.000000 
-0.085571 -0.018767 0.058637 
-0.082199 -0.005778 0.065559 
0.084787 0.000197 0.052682 
-0.015891 -0.049043 0.011194 
0.019906 -0.062242 0.030307 
-0.046977 -0.030635 0.027819 
-0.047731 -0.077266 0.081759 
0.043151 0.031274 0.014969 
0.068977 0.051493 0.055056 
0.086017 -0.011979 0.057973 
-0.033497 0.079097 0.054272 
-0.011726 0.037160 0.002568 
0.085071 -0.012450 0.072767 
0.020714 0.051338 0.027728 
-0.034281 0.082219 0.061489 
-0.019074 0.064652 0.043455 
0.061991 0.044997 0.041501 
0.018103 -0.056327 0.027136 
0.078248 -0.057000 0.078491 
-0.049628 -0.000000 0.016979 
0.050134 0.074352 0.080445 
-0.022085 0.068059 0.040205 
0.079863 0.014296 0.047214 
0.025104 0.040278 0.018474 
0.042926 0.065931 0.064243 
-0.011429 -0.067306 0.026663 
0.047812 -0.000000 0.009839 
-0.064907 0.000537 0.039125 
0.046948 -0.028476 0.011814 
-0.046902 -0.000000 0.010940 
-0.032459 0.084880 0.065870 
-0.072193 -0.065998 0.080720 
0.009152 -0.094486 0.075254 
0.012750 -0.025162 0.003000 
-0.086686 -0.027606 0.082042 
0.044386 -0.012407 0.016020 
-0.009010 -0.082011 0.068895 
-0.029689 0.091822 0.082259 
-0.055811 -0.055112 0.042194 
0.006052 0.098316 0.085000 
0.068052 0.025342 0.032846 
0.021314 -0.065372 0.035189 
0.052982 -0.020635 0.013588 
0.056690 -0.021327 0.037343 
-0.018345 0.057416 0.032791 
0.009551 0.046077 0.016234 
0.060951 -0.066500 0.064353 
-0.059974 0.014554 0.038520 
-0.081893 0.005789 0.065137 
-0.086804 0.001308 0.069979 
-0.056188 -0.039915 0.027504 
-0.049091 -0.081873 0.074876 
-0.038411 0.072203 0.067501 
0.047848 -0.000000 0.006316 
0.078110 0.007714 0.060735 
0.006513 -0.087480 0.059834 
-0.077753 -0.025596 0.068586 
-0.026394 -0.080595 0.058866 
0.004509 -0.038520 0.000000 
-0.058841 -0.000000 0.019629 
0.019668 0.088424 0.064924 
-0.043865 -0.034665 0.012464 
-0.081866 0.000017 0.062526 
0.040462 0.075837 0.073807 
0.046929 0.026537 0.025838 
-0.023486 -0.033562 0.008506 
0.033143 -0.082696 0.061698 
0.084951 -0.046583 0.077712 
-0.053624 0.004049 0.010497 
0.036006 0.001787 0.003000 
-0.071618 0.019995 0.035813 
0.013235 0.055127 0.013031 
0.009046 -0.075637 0.059555 
0.091637 0.010186 0.080842 
0.020281 0.002021 0.000000 
-0.008167 0.087588 0.060427 
-0.068545 -0.068403 0.078825 
-0.098532 0.005979 0.083155 
0.028110 -0.049083 0.013625 
0.078541 0.049926 0.081054 
0.076968 0.033431 0.071146 
0.024344 -0.075128 0.054290 
0.040387 -0.083814 0.070320 
0.028777 -0.032984 0.012148 
0.029196 0.092934 0.079717 
0.029297 -0.067120 0.033437 
-0.082212 -0.043590 0.083238 
-0.043247 -0.042175 0.017008 
-0.019138 0.024199 0.000000 
-0.028822 -0.061618 0.026134 
-0.024299 0.050738 0.013046 
-0.008743 0.093604 0.073298 
0.017024 -0.052451 0.015462 
0.017834 -0.036780 0.007730 
0.050060 -0.038760 0.037709 
-0.047136 -0.084322 0.085000 
0.055704 0.013782 0.032176 
-0.072971 -0.000000 0.044191 
0.059504 -0.040201 0.049888 
0.065028 0.048711 0.046642 
0.022276 0.054758 0.033124 
0.024740 -0.088773 0.078805 
-0.030607 -0.052562 0.018388 
-0.031703 0.021860 0.000000 
0.016957 -0.077331 0.062037 
-0.049842 -0.017027 0.009560 
0.050664 0.005482 0.008545 
0.011939 -0.012170 0.000000 
-0.054324 0.051608 0.056841 
0.085923 0.045075 0.085000 
0.000884 -0.089871 0.080414 
0.027040 0.042375 0.022632 
0.059926 0.043420 0.049081 
-0.075325 0.009976 0.038979 
-0.015661 -0.048358 0.009269 
-0.017114 0.032315 0.001794 
-0.005101 0.035329 0.000482 
0.086715 0.004064 0.071087 
-0.056213 0.043075 0.048287 
0.038093 0.015042 0.001044 
0.051557 0.041360 0.042309 
-0.078754 0.008184 0.044229 
-0.057330 0.041696 0.039340 
-0.064106 0.054663 0.051917 
0.034741 0.062427 0.031165 
0.033637 -0.040282 0.009271 
-0.030131 -0.084531 0.063026 
0.061067 0.045847 0.038919 
0.059801 -0.007242 0.035136 
-0.068412 -0.009756 0.027727 
0.053246 -0.038924 0.024415 
-0.024958 0.076964 0.058373 
-0.069469 -0.050481 0.066712 
-0.035922 -0.074778 0.068394 
-0.003800 0.061204 0.038402 
0.047766 -0.032146 0.014765 
0.057445 0.046752 0.053994 
-0.038530 -0.002220 0.003000 
0.033414 0.039702 0.024855 
-0.075293 -0.002026 0.037304 
0.034599 -0.025165 0.006400 
0.058473 0.049842 0.039379 
0.078428 0.057209 0.084750 
-0.000707 -0.071226 0.053090 
-0.015821 0.019041 0.000000 
0.022021 -0.037965 0.003317 
0.022296 0.097172 0.085000 
0.023334 -0.092078 0.074492 
0.028575 -0.033307 0.003291 
-0.061467 -0.045430 0.039080 
0.059437 0.067788 0.064245 
-0.039501 -0.059484 0.053232 
0.034328 0.021999 0.006064 
-0.015232 0.047240 0.010746 
0.000142 -0.064964 0.022316 
-0.024475 -0.054384 0.034244 
-0.006278 -0.039000 0.002162 
-0.014134 0.041551 0.010409 
-0.036391 -0.059808 0.050884 
0.013804 -0.043518 0.009088 
0.034349 0.075294 0.048724 
-0.015291 -0.074643 0.058097 
0.034029 -0.088809 0.075041 
-0.092227 0.016625 0.071938 
-0.018472 -0.026529 0.000000 
-0.004105 0.071340 0.031151 
-0.055207 -0.064180 0.052544 
0.013552 0.011248 0.003000 
0.019098 0.058257 0.020792 
0.070335 -0.051181 0.065583 
0.045840 -0.033329 0.025962 
-0.013128 0.007526 0.003000 
0.071644 -0.022971 0.037199 
0.042556 -0.026642 0.008021 
0.018556 0.089606 0.066947 
0.062704 0.011102 0.040740 
0.069585 0.001185 0.045930 
-0.046993 -0.051987 0.027984 
-0.094517 0.005523 0.074550 
-0.045276 -0.022376 0.021578 
0.074010 0.037745 0.069016 
0.071206 -0.059770 0.070299 
0.075220 0.027230 0.044781 
0.016912 0.052493 0.019213 
-0.086615 -0.037208 0.085000 
-0.043455 -0.083784 0.073161 
0.059520 -0.000000 0.025168 
0.017093 -0.076321 0.060557 
0.028494 -0.034090 0.003627 
-0.095257 -0.018328 0.085000 
-0.012095 -0.018814 0.003000 
0.073084 0.021974 0.060352 
-0.032054 -0.079245 0.070339 
-0.003188 0.059469 0.016668 
-0.028166 -0.059654 0.023853 
0.053857 -0.000000 0.015632 
0.078181 -0.016235 0.044805 
0.095470 -0.028354 0.084332 
0.004018 0.065003 0.022988 
-0.016694 -0.011956 0.003000 
-0.082605 0.019634 0.053029 
0.081645 0.057655 0.084553 
0.054173 0.066412 0.074572 
0.028691 -0.067492 0.053390 
0.001520 -0.019117 0.000000 
0.005358 -0.019990 0.003000 
0.045425 0.030534 0.011532 
0.046957 0.021744 0.008956 
-0.007892 -0.042861 0.011520 
0.038333 -0.012905 0.007688 
-0.058782 0.009029 0.034355 
-0.040469 -0.084534 0.084073 
-0.073836 -0.053396 0.074801 
0.049768 -0.058927 0.039879 
-0.018886 -0.068198 0.048652 
-0.037069 0.066999 0.060089 
0.066117 -0.044050 0.060966 
0.046814 -0.000928 0.014107 
-0.031964 0.023036 0.000662 
0.048234 0.075546 0.080207 
0.068271 0.070316 0.085000 
-0.011525 -0.092687 0.084541 
0.057011 0.041370 0.034260 
-0.061804 0.042637 0.037074 
-0.018820 0.058732 0.033312 
-0.081288 0.047550 0.072179 
0.032567 -0.061539 0.049594 
0.055334 -0.060149 0.047622 
0.028891 0.030636 0.009771 
-0.021438 0.034378 0.000817 
-0.045752 -0.023914 0.022964 
-0.087051 0.049748 0.084876 
-0.056758 0.041443 0.032685 
-0.014542 0.019219 0.003000 
-0.016621 -0.047023 0.018999 
0.050618 -0.036929 0.021374 
0.049672 -0.005714 0.020312 
-0.073460 0.047084 0.057789 
-0.034926 -0.086069 0.069705 
-0.001704 0.061857 0.039360 
-0.051691 -0.043175 0.044430 
0.020908 0.064731 0.043717 
0.067207 -0.044800 0.062845 
0.006743 -0.051245 0.008980 
-0.087090 -0.021184 0.079607 
-0.061639 0.036706 0.031680 
-0.027472 -0.032753 0.002737 
0.032957 0.021343 0.000000 
-0.081612 0.042866 0.082059 
-0.014481 0.068901 0.029360 
0.025046 0.026300 0.000000 
-0.094533 -0.028518 0.082561 
0.028419 0.013076 0.003000 
0.035912 0.006048 0.000000 
-0.037622 -0.075518 0.051634 
0.006919 0.080344 0.066453 
-0.016476 0.038646 0.001866 
0.013537 -0.096166 0.079735 
-0.011629 -0.070395 0.051871 
0.008786 0.063183 0.021442 
-0.053173 0.026599 0.034615 
-0.084538 0.035856 0.067297 
-0.063509 0.045429 0.041765 
-0.019425 -0.031303 0.002475 
-0.046402 -0.065152 0.066087 
0.033927 0.031569 0.005020 
-0.034352 0.071759 0.063398 
-0.089676 0.040211 0.085000 
-0.046568 0.033800 0.016567 
0.072660 -0.055391 0.077498 
-0.086209 -0.030406 0.066639 
0.089559 0.015507 0.080416 
0.022371 -0.072439 0.054868 
-0.067230 0.003892 0.025491 
0.003943 0.057205 0.032542 
-0.051332 0.072257 0.060368 
-0.048138 -0.005716 0.006701 
0.091267 -0.011048 0.080749 
0.068962 -0.031149 0.037391 
0.053241 -0.047668 0.051172 
0.071117 -0.063006 0.085000 
-0.073925 -0.062699 0.085000 
-0.002405 -0.037524 0.003698 
0.007389 0.072494 0.033810 
0.024167 -0.075181 0.057800 
0.027426 0.027534 0.004680 
-0.024408 -0.046453 0.009686 
-0.080165 0.032273 0.055566 
0.060692 0.076176 0.079617 
0.096048 -0.006062 0.077863 
-0.007312 0.075313 0.038399 
0.070873 -0.051913 0.071762 
-0.040973 0.016618 0.012904 
0.055965 0.005677 0.028943 
-0.048068 0.082414 0.085000 
0.050971 0.064793 0.048690 
-0.007309 -0.088610 0.062412 
0.051797 -0.074740 0.065461 
0.082736 -0.011188 0.051323 
-0.000204 -0.043110 0.002318 
-0.057998 -0.000773 0.029602 
-0.019691 0.067416 0.029192 
0.028708 -0.052352 0.035279 
0.059737 -0.045086 0.053795 
0.088372 -0.028896 0.070060 
-0.066243 0.023674 0.029226 
0.006327 0.075468 0.038499 
-0.021099 -0.065097 0.038442 
-0.030551 0.031516 0.011877 
0.049644 -0.014151 0.024192 
0.074202 0.031660 0.045482 
0.095270 -0.029035 0.084340 
0.007799 0.097258 0.085000 
0.007760 0.073981 0.057128 
-0.053299 -0.059850 0.065807 
0.077658 -0.038619 0.074593 
0.012360 -0.085765 0.057528 
0.086304 -0.022137 0.061815 
0.017568 0.035084 0.005678 
-0.023865 0.073815 0.052054 
0.030975 -0.026691 0.001275 
0.020473 -0.097708 0.084287 
0.006191 0.039000 0.002670 
0.089430 0.034769 0.076558 
0.015994 0.049473 0.012082 
0.075858 -0.030254 0.068198 
0.048863 -0.076987 0.082420 
0.049783 -0.056876 0.059153 
-0.056239 -0.005134 0.013374 
0.006876 0.015242 0.003000 
0.020203 -0.005148 0.003000 
0.027906 0.047165 0.029042 
0.007675 -0.063784 0.042184 
-0.060910 0.019778 0.021673 
-0.066218 -0.025106 0.052196 
0.022180 -0.022215 0.003000 
0.079182 -0.035978 0.075489 
0.016046 0.035977 0.002637 
-0.043015 0.083474 0.071456 
-0.017426 0.054456 0.022552 
-0.062834 0.067326 0.068483 
0.044455 -0.033468 0.026444 
-0.057032 -0.042277 0.048051 
-0.090877 0.012930 0.068340 
0.021242 0.066762 0.028845 
-0.020859 -0.064304 0.034576 
0.016918 -0.096166 0.080380 
-0.018115 0.040032 0.003313 
-0.076337 0.015341 0.061814 
-0.056058 -0.000000 0.023992 
0.034896 -0.041102 0.010266 
0.072422 0.018460 0.057784 
0.071084 0.036756 0.044788 
-0.058511 0.041316 0.031581 
0.015439 -0.043057 0.004518 
0.072655 -0.015894 0.057066 
0.041918 0.072941 0.071649 
0.010461 -0.097421 0.085000 
-0.012216 0.037942 0.004518 
-0.043990 0.011506 0.014842 
-0.086656 -0.033250 0.069531 
-0.051068 -0.037719 0.037349 
-0.030534 0.035783 0.005413 
0.017926 0.071093 0.052894 
-0.057746 -0.035522 0.026232 
0.075185 0.047097 0.060770 
-0.003730 -0.001043 0.000000 
0.090268 -0.038241 0.081329 
-0.008734 -0.081590 0.068279 
-0.045629 0.087837 0.082740 
0.077155 -0.000000 0.052117 
-0.087167 0.009792 0.059869 
-0.031022 -0.069306 0.057532 
-0.006391 0.037406 0.000000 
0.036366 0.026262 0.004666 
0.080986 -0.002979 0.046951 
-0.010321 -0.036335 0.001957 
-0.006093 0.063955 0.042434 
-0.006503 -0.026056 0.000000 
0.028563 0.074298 0.061662 
0.059850 -0.044870 0.036651 
0.031015 0.023092 0.002217 
-0.041862 0.016584 0.014128 
-0.076724 -0.052814 0.079856 
-0.039061 0.050153 0.021151 
0.039407 0.057535 0.028632 
0.054255 -0.083753 0.085000 
-0.047723 0.070356 0.073479 
0.068825 0.021067 0.032033 
0.087032 0.048518 0.083720 
0.082442 0.045703 0.072228 
-0.020315 -0.039263 0.003614 
0.012379 -0.039138 0.003224 
-0.033790 -0.034864 0.018735 
0.047243 0.065290 0.045707 
-0.027203 -0.080384 0.052671 
-0.051930 0.025902 0.032548 
-0.029367 0.026067 0.004351 
-0.023872 -0.074871 0.042566 
0.023734 0.075913 0.044119 
0.088452 -0.030802 0.071745 
-0.051356 0.024228 0.030963 
0.043076 -0.079469 0.080301 
-0.039000 -0.026107 0.014528 
0.026266 -0.012736 0.000000 
0.092861 -0.012371 0.083585 
-0.092721 -0.022470 0.085000 
-0.008056 -0.010938 0.003000 
-0.039531 0.020407 0.003711 
0.007376 -0.068442 0.049010 
0.071715 -0.068105 0.085000 
-0.085874 0.035510 0.084595 
0.014776 0.007195 0.000000 
0.030511 0.084034 0.062269 
0.063560 -0.062441 0.062145 
0.042362 -0.086701 0.085000 
-0.006243 0.048024 0.019087 
0.021060 -0.018032 0.000000 
-0.026598 -0.079431 0.050904 
0.072755 0.052522 0.074030 
0.025126 -0.064684 0.047108 
0.089220 -0.009367 0.064141 
-0.030108 0.092343 0.080847 
0.008119 -0.037772 0.003000 
-0.043817 0.038713 0.014810 
-0.017240 -0.040549 0.011754 
0.061685 -0.065870 0.064513 
-0.016272 0.011680 0.000000 
0.025361 0.066151 0.029946 
0.012587 0.069509 0.050574 
-0.028915 0.076813 0.064732 
-0.043284 0.081211 0.067468 
-0.034659 0.051619 0.039557 
-0.090184 -0.012897 0.080072 
-0.061483 -0.036162 0.031024 
0.053683 0.039059 0.030717 
0.070197 -0.000000 0.044882 
-0.026003 0.088458 0.078344 
0.019954 -0.061913 0.035088 
-0.056117 -0.028760 0.020793 
0.081980 0.019106 0.071477 
0.026475 -0.082162 0.057649 
-0.002639 -0.056389 0.013050 
0.063635 0.060829 0.059803 
-0.096323 -0.007974 0.085000 
-0.069773 0.050419 0.067928 
-0.054530 0.039592 0.035299 
0.017730 0.054043 0.015292 
0.067228 0.038428 0.040759 
0.050699 0.037022 0.020547 
-0.000667 -0.065659 0.044931 
-0.004175 0.094031 0.073236 
0.054685 -0.041001 0.044460 
-0.040176 0.060261 0.054757 
0.088137 -0.000000 0.069252 
0.066145 -0.048091 0.058979 
0.081118 0.040063 0.063964 
-0.024738 0.036539 0.013095 
0.059892 -0.004610 0.017345 
-0.028944 0.049566 0.014581 
-0.089064 -0.011536 0.077867 
0.002051 0.073923 0.057042 
0.004105 0.085550 0.055145 
0.052182 -0.045169 0.047248 
0.099123 0.007657 0.084763 
-0.078020 -0.054169 0.082305 
-0.009172 0.038707 0.001385 
-0.022413 0.045642 0.022089 
0.067173 0.007005 0.045150 
-0.079555 -0.000000 0.057006 
0.020301 0.050809 0.026747 
-0.024979 0.077799 0.049749 
-0.012495 -0.039537 0.006357 
-0.061728 -0.035655 0.050832 
-0.040600 0.081467 0.065166 
-0.034819 -0.009816 0.003000 
0.003830 0.093442 0.071914 
0.048048 0.037929 0.018556 
0.070422 -0.035325 0.062980 
0.021271 0.088942 0.066934 
0.026540 0.081541 0.064140 
-0.012765 -0.072604 0.035090 
0.076770 0.058386 0.084702 
-0.020523 0.032567 0.004888 
0.057557 -0.003964 0.014607 
-0.024312 -0.075882 0.044328 
0.062828 0.052559 0.065719 
0.074059 0.056648 0.070511 
0.063368 0.020153 0.024518 
0.029763 0.029279 0.008828 
-0.052038 0.071564 0.059996 
-0.040811 0.030701 0.019926 
-0.060999 0.056848 0.050437 
-0.067807 -0.010805 0.047744 
-0.004296 0.080411 0.066550 
0.032744 -0.021855 0.003813 
0.062073 -0.045019 0.044414 
-0.002717 -0.058180 0.033970 
0.079674 -0.043792 0.079805 
-0.056987 0.057491 0.066225 
-0.065765 0.057140 0.057717 
0.005147 -0.030257 0.000000 
-0.082466 0.052711 0.080241 
0.055374 0.075030 0.070279 
0.066695 -0.040894 0.060364 
-0.008394 -0.063746 0.022045 
0.084109 0.052659 0.085000 
0.020317 -0.088003 0.064468 
0.059194 -0.045792 0.036812 
-0.024513 0.040809 0.018023 
-0.086117 -0.002869 0.056062 
0.068341 -0.002890 0.026587 
0.024693 -0.075970 0.044853 
0.036602 -0.048729 0.037807 
-0.050854 0.073263 0.079714 
-0.055015 -0.061982 0.069868 
-0.067207 -0.048949 0.057006 
-0.056147 0.040843 0.036432 
0.012372 -0.067975 0.027603 
-0.030746 0.082556 0.073152 
0.024633 -0.076194 0.053669 
0.004370 -0.000515 0.003000 
0.018622 0.054498 0.029646 
0.040618 0.065190 0.039967 
-0.021588 -0.087774 0.077341 
-0.072907 -0.038741 0.048896 
-0.021295 0.085802 0.060608 
0.020006 0.062350 0.039687 
-0.060858 0.044424 0.041215 
0.047917 -0.085128 0.085000 
-0.058391 -0.009442 0.016331 
0.011237 0.005747 0.000000 
-0.011436 0.025946 0.003000 
0.052834 0.038204 0.029876 
0.053450 0.011972 0.028229 
0.043286 0.020732 0.018022 
0.061360 0.010200 0.038467 
0.063206 -0.036678 0.053537 
0.064433 -0.008938 0.023139 
-0.036171 0.035325 0.007889 
-0.018031 0.074026 0.038866 
-0.072328 -0.050486 0.059492 
-0.016416 0.051380 0.018496 
-0.078754 -0.029495 0.071810 
-0.023726 -0.073727 0.056788 
0.049034 0.003859 0.018480 
0.026255 -0.079678 0.065984 
0.026893 -0.073147 0.041435 
-0.079941 0.051039 0.073887 
-0.042754 -0.074548 0.054812 
-0.024537 -0.075307 0.043891 
-0.084155 0.027902 0.078633 
0.058517 -0.054562 0.044760 
-0.031400 -0.017339 0.000000 
0.067286 0.004182 0.044056 
-0.007246 -0.027956 0.000000 
0.086237 0.007192 0.057345 
-0.052937 0.056622 0.040570 
-0.070035 -0.000000 0.043062 
0.076309 -0.004250 0.056749 
-0.052442 0.002980 0.022839 
-0.020556 0.089406 0.079733 
-0.028612 0.083417 0.059925 
0.037622 0.051720 0.042854 
0.085971 -0.004427 0.056097 
-0.031957 -0.036630 0.019236 
-0.060256 -0.024928 0.022845 
-0.058366 -0.019899 0.038762 
-0.063452 0.004792 0.038983 
0.079490 -0.012262 0.064903 
0.019129 0.058740 0.027523 
0.031685 0.038575 0.021990 
0.030013 0.068732 0.056345 
-0.058150 0.047208 0.036899 
0.039881 -0.030453 0.007809 
0.073789 0.053662 0.073625 
-0.049984 0.019988 0.010436 
0.060335 0.024387 0.043618 
-0.062338 -0.044759 0.055939 
-0.046618 -0.037196 0.016736 
-0.052029 0.083044 0.080371 
0.061740 0.069917 0.085000 
-0.031727 -0.078163 0.051579 
-0.045109 0.006936 0.004480 
-0.050270 0.066892 0.050604 
-0.048593 -0.041806 0.021476 
0.009240 0.085283 0.073690 
0.068985 -0.071407 0.085000 
0.089764 0.018507 0.067268 
-0.006752 0.073519 0.056450 
0.003808 -0.007019 0.000000 
-0.036957 -0.033879 0.020341 
0.035179 0.017642 0.000725 
-0.067396 -0.048989 0.051204 
0.033929 0.034112 0.006237 
-0.007065 0.077862 0.062815 
0.080819 -0.016218 0.068592 
-0.019027 0.059442 0.033056 
-0.079061 0.005353 0.060983 
0.083475 0.002752 0.065980 
0.067578 0.049002 0.053366 
0.026733 0.076753 0.062974 
0.011141 0.038979 0.005831 
0.039859 0.021111 0.013398 
0.007259 0.091532 0.068594 
-0.088550 0.003754 0.073513 
0.035134 -0.025304 0.004051 
0.088179 -0.009100 0.075542 
-0.045997 0.066426 0.046187 
-0.031126 0.094919 0.084938 
0.032963 -0.046112 0.013601 
0.018675 0.000041 0.000000 
0.045165 0.060435 0.059694 
-0.020310 -0.062781 0.033949 
0.085648 -0.013207 0.057479 
-0.051486 -0.043321 0.044424 
0.001259 0.039394 0.003000 
0.043464 0.075514 0.057318 
-0.017025 -0.062852 0.040818 
0.069605 -0.046295 0.050673 
0.063641 0.041020 0.038251 
-0.096562 -0.000184 0.083077 
0.032121 0.027746 0.008928 
-0.082269 0.053635 0.085000 
-0.064884 -0.049369 0.047051 
0.022371 0.022538 0.003000 
-0.052386 -0.082005 0.078948 
-0.065473 -0.072712 0.080748 
0.009485 -0.015492 0.003000 
0.024978 -0.086156 0.074969 
-0.015739 -0.005283 0.000000 
-0.087739 0.012019 0.076237 
0.067162 -0.062006 0.066971 
-0.086447 -0.044587 0.079280 
-0.030462 -0.093530 0.083327 
0.035375 0.009655 0.000000 
0.053985 0.025483 0.016867 
0.046778 -0.074770 0.077933 
-0.022007 -0.000178 0.000000 
0.041815 -0.000000 0.004041 
-0.065317 -0.039734 0.039347 
0.035371 -0.047843 0.016731 
0.052204 -0.080293 0.075857 
0.044747 0.062289 0.039585 
-0.015757 -0.059432 0.035805 
-0.048208 0.080839 0.072057 
0.038090 0.080137 0.060170 
0.063468 -0.045971 0.051292 
0.014717 -0.091833 0.083289 
0.065478 0.072211 0.079954 
0.016388 -0.039194 0.002246 
0.051590 -0.041823 0.024285 
0.052717 -0.004945 0.009930 
-0.076157 -0.048554 0.077073 
-0.086323 -0.029143 0.066013 
-0.010647 0.025739 0.003000 
0.078604 -0.028571 0.050644 
-0.008753 -0.070249 0.051658 
-0.066396 -0.057368 0.059024 
-0.050823 -0.082029 0.077138 
0.043690 -0.031795 0.022102 
0.087565 -0.025681 0.082387 
0.093257 0.034032 0.085000 
-0.080176 -0.057613 0.081891 
-0.076547 0.029257 0.068606 
-0.012434 0.032898 0.003000 
-0.015227 -0.069596 0.030643 
0.066223 0.032375 0.055597 
-0.054456 0.000730 0.010697 
0.076928 0.055965 0.075274 
-0.038098 -0.029011 0.015516 
0.055437 -0.019544 0.015733 
-0.006807 -0.089460 0.064107 
-0.058258 -0.030976 0.024090 
-0.059875 -0.016582 0.039327 
-0.022410 -0.015490 0.000000 
-0.039491 0.009214 0.000573 
0.001340 -0.082887 0.049775 
0.051569 0.056845 0.061012 
-0.023219 0.094712 0.085000 
0.020815 -0.034209 0.000469 
-0.072953 0.013624 0.035826 
0.012716 -0.069159 0.050060 
0.001993 -0.073989 0.057139 
-0.065979 0.048024 0.055769 
0.046588 0.019007 0.021844 
0.007663 -0.089830 0.065071 
0.038444 0.071126 0.066489 
-0.084392 -0.053876 0.085000 
-0.015170 -0.097506 0.082854 
-0.052753 -0.000712 0.022267 
0.047709 0.033866 0.015717 
0.061796 -0.044742 0.052005 
0.033535 -0.084110 0.064993 
-0.042181 0.052313 0.025210 
0.002464 0.095150 0.075237 
-0.081127 -0.009956 0.048457 
-0.034058 -0.049680 0.036708 
-0.010891 0.036720 0.003000 
0.002482 0.036817 0.003000 
-0.082366 0.039535 0.066034 
0.016946 0.045478 0.017538 
-0.030523 -0.055475 0.021112 
0.041879 -0.030500 0.019080 
0.026516 -0.078002 0.064191 
0.071380 -0.001623 0.048660 
-0.092122 -0.013869 0.071162 
-0.010797 0.032475 0.003000 
-0.025716 -0.092838 0.084763 
-0.071477 0.001594 0.030789 
-0.080806 -0.037210 0.078288 
0.031773 0.001036 0.000000 
0.002895 0.023197 0.003000 
-0.048317 -0.078586 0.068171 
-0.030565 0.023903 0.000000 
0.052465 -0.038236 0.036981 
0.027270 0.084219 0.069117 
0.063300 0.033105 0.031079 
-0.074490 0.036081 0.068911 
-0.032758 -0.067107 0.036092 
0.006551 -0.064588 0.043361 
-0.060348 -0.053639 0.045933 
-0.063868 -0.030072 0.051223 
-0.006499 0.096598 0.079168 
0.009986 -0.077551 0.042629 
0.056616 -0.027419 0.020531 
-0.004464 -0.044163 0.013428 
0.023867 -0.069894 0.034912 
0.041277 -0.055784 0.027970 
0.025643 -0.054920 0.035842 
0.023965 0.061662 0.024003 
-0.033719 0.004288 0.003000 
0.088447 -0.000000 0.070738 
-0.004204 -0.051438 0.008947 
0.022083 -0.068209 0.035409 
0.012408 -0.005460 0.000000 
0.000546 0.067616 0.025386 
0.040979 -0.006045 0.001451 
0.047767 0.018358 0.023192 
-0.030493 0.064151 0.030188 
0.027994 0.075894 0.063053 
0.047301 -0.034366 0.019902 
-0.042915 -0.010484 0.003168 
-0.026840 -0.064991 0.028924 
-0.009535 -0.080395 0.047200 
0.016183 -0.077750 0.044111 
-0.015884 -0.032834 0.000000 
-0.021726 -0.031231 0.004273 
-0.019654 -0.060966 0.033291 
-0.009893 -0.038527 0.002445 
0.000306 -0.065144 0.044176 
0.002020 0.090953 0.082000 
0.062619 0.022502 0.045937 
0.061464 -0.039439 0.052316 
0.062295 0.051456 0.046030 
0.078861 -0.044160 0.064099 
-0.066378 0.060366 0.077928 
-0.039361 0.057035 0.050177 
-0.004315 -0.070588 0.030007 
0.082326 0.049162 0.085000 
-0.020627 -0.071555 0.035995 
-0.037125 -0.039769 0.027540 
-0.077837 -0.000719 0.057223 
-0.055912 -0.016105 0.033551 
-0.096496 -0.021554 0.082308 
0.080461 0.026438 0.052398 
-0.044316 -0.023096 0.020570 
-0.026825 -0.065074 0.029045 
0.044024 -0.041848 0.017372 
0.075321 0.027907 0.066257 
0.022288 -0.003075 0.000000 
0.020090 -0.084666 0.057593 
-0.051893 0.060343 0.065159 
-0.040700 -0.031829 0.021178 
-0.028314 -0.086400 0.067983 
0.033510 -0.083346 0.076529 
-0.075999 -0.002003 0.038475 
0.062141 -0.021164 0.044862 
0.025165 0.077086 0.053878 
-0.072511 0.005041 0.051718 
-0.021411 -0.085970 0.060766 
0.058534 0.042374 0.038687 
-0.027210 -0.016115 0.000000 
-0.075516 -0.037179 0.070861 
0.002360 -0.046550 0.016927 
0.075150 0.010510 0.038801 
0.035062 0.005337 0.003000 
-0.024993 -0.077685 0.062216 
0.083774 0.028525 0.060386 
0.014748 0.045935 0.008776 
-0.041189 -0.089703 0.085000 
0.059275 0.042925 0.040382 
-0.040935 -0.021303 0.014996 
-0.018102 -0.044723 0.017458 
-0.066150 -0.010648 0.025310 
-0.022076 -0.059688 0.038629 
-0.018526 -0.063248 0.023797 
0.038299 0.048588 0.019175 
0.081540 0.001173 0.047451 
0.074261 -0.000000 0.035881 
0.037453 0.084803 0.069176 
0.005624 -0.088582 0.061975 
0.010016 -0.033080 0.000000 
0.045119 -0.038508 0.015931 
-0.015100 -0.009357 0.000000 
0.035276 0.063230 0.054413 
0.064764 0.036321 0.035665 
0.032178 -0.073071 0.063057 
-0.010975 0.049961 0.021925 
0.065572 -0.052009 0.050942 
-0.035915 -0.049703 0.018867 
0.040493 0.076343 0.074431 
-0.030056 -0.041661 0.008784 
-0.010056 0.062915 0.021590 
-0.074959 -0.054531 0.075459 
-0.035567 -0.025351 0.009365 
0.032157 0.022764 0.002366 
0.066398 0.017679 0.027078 
-0.095930 -0.018388 0.080106 
0.059216 0.024083 0.021417 
0.056753 0.079119 0.078993 
-0.030268 0.068430 0.055822 
0.059094 -0.016969 0.018687 
0.014645 0.096032 0.079666 
-0.033887 -0.063683 0.053322 
-0.052380 0.064062 0.049298 
-0.037844 0.082435 0.079251 
0.087841 -0.000000 0.061734 
0.062155 -0.012791 0.020903 
0.033229 0.026592 0.008436 
-0.021948 0.067618 0.034258 
-0.049358 0.073355 0.078508 
-0.040024 -0.026281 0.016045 
0.011839 -0.065489 0.024734 
0.014219 -0.044657 0.012288 
0.035059 0.083356 0.077999 
0.035671 0.017699 0.000337 
0.078013 0.032186 0.072029 
-0.085451 0.031031 0.081910 
-0.092896 -0.001542 0.078571 
0.046083 -0.009688 0.017156 
0.004985 0.044857 0.014446 
-0.062786 -0.021974 0.045924 
-0.050264 -0.017475 0.009963 
0.007639 -0.078442 0.063666 
0.047579 0.021389 0.009236 
0.033100 -0.050099 0.036366 
0.027350 0.084100 0.066490 
-0.019815 0.042484 0.016180 
0.065898 -0.000000 0.039592 
-0.062213 -0.007505 0.038461 
-0.054522 0.039584 0.035506 
-0.016024 0.075155 0.058848 
0.025935 -0.029787 0.005993 
0.040136 -0.084617 0.071606 
-0.082837 0.028131 0.058203 
-0.069461 0.054067 0.073098 
-0.045921 -0.053759 0.029368 
0.005157 -0.043821 0.012927 
0.066592 -0.000000 0.034220 
-0.015707 0.058684 0.034709 
0.065371 0.047641 0.052420 
0.033818 0.085873 0.068377 
-0.019946 0.061943 0.028400 
0.075121 -0.025191 0.043589 
0.048868 0.021463 0.010094 
-0.019270 0.076588 0.043464 
0.043448 0.002490 0.002985 
