
# .PCD v.6 - Point Cloud Data file format
FIELDS x y z 
SIZE 4 4 4 
TYPE F F F 
COUNT 1 1 1 
WIDTH 1648
HEIGHT 1
VIEWPOINT 0.000000 0.000000 0.000000 1.000000 0.000000 0.000000 0.00000
POINTS 1648
DATA ascii
-0.067996 0.030610 0.051000 
-0.010474 -0.044825 0.003910 
-0.038942 -0.012243 0.003000 
0.026510 0.027470 0.002687 
0.008539 -0.007862 0.000000 
-0.021926 -0.048667 0.006670 
-0.004818 0.053570 0.022650 
0.016947 -0.027560 0.003000 
0.023861 0.030916 0.002574 
-0.054332 -0.011705 0.008888 
0.002843 0.006047 0.000000 
-0.038696 -0.020047 0.000000 
0.067182 0.011680 0.051796 
0.017641 0.053596 0.016785 
-0.029429 0.031346 0.000000 
0.036393 -0.043299 0.010903 
0.028439 -0.036652 0.007733 
-0.046429 -0.019888 0.015971 
-0.046305 -0.058754 0.060000 
-0.055276 0.048026 0.046939 
-0.009027 0.061265 0.019335 
-0.056815 -0.030834 0.043252 
0.073648 0.008282 0.050043 
-0.060977 0.014270 0.041036 
-0.017268 -0.038176 0.003000 
0.056567 0.025329 0.039253 
0.001349 0.067520 0.052542 
0.043860 -0.032078 0.007911 
0.056032 -0.040973 0.043162 
-0.049687 -0.048034 0.035906 
0.000376 0.044206 0.002584 
-0.025959 0.013180 0.003000 
-0.043730 0.008711 0.003353 
0.060420 0.043685 0.054163 
0.006356 -0.057813 0.031742 
0.062730 0.004660 0.038426 
0.023374 0.071967 0.056612 
-0.074258 0.017271 0.060000 
-0.062025 -0.036635 0.043202 
0.026789 0.034762 -0.000000 
-0.060475 -0.029062 0.049445 
0.025967 0.067395 0.057488 
-0.038351 0.024131 0.000000 
0.034968 0.049844 0.016966 
-0.052468 -0.034901 0.020838 
-0.025982 0.041267 0.001403 
-0.038418 0.028162 0.002194 
-0.037526 -0.028632 0.002246 
0.030414 -0.034802 0.007211 
-0.048645 0.035239 0.024049 
-0.046687 -0.033675 0.023629 
-0.047642 -0.012333 0.002057 
-0.028507 -0.048335 0.027288 
-0.057389 -0.045860 0.058768 
0.071646 -0.004882 0.056484 
0.037710 0.030895 0.010251 
0.059564 0.026561 0.046031 
0.024254 0.023181 0.002748 
0.002440 0.041711 0.002180 
-0.071264 -0.000000 0.050611 
-0.072202 0.001736 0.044922 
-0.003508 -0.055449 0.008770 
0.050757 -0.036810 0.033827 
0.021248 0.060218 0.039169 
0.075094 0.002864 0.054010 
-0.064995 0.004725 0.042998 
0.020125 -0.025763 0.000000 
-0.045536 -0.048203 0.029390 
0.042307 0.030983 0.011349 
0.006641 0.003488 0.000000 
0.068887 -0.016706 0.058442 
-0.005936 0.000093 0.003000 
-0.011462 -0.074444 0.060000 
-0.006479 0.001765 0.000000 
0.027862 -0.013348 0.000000 
0.041066 -0.017951 0.003000 
-0.059477 -0.046598 0.053456 
-0.021413 0.069905 0.046519 
0.030643 -0.018060 0.003000 
0.053872 -0.002508 0.019480 
-0.023090 0.016716 0.003000 
0.032094 0.032623 0.000000 
-0.039993 -0.046106 0.018099 
0.052400 0.018875 0.026812 
-0.016593 -0.050172 0.011798 
-0.008209 -0.005188 0.003000 
-0.015089 -0.042100 0.000000 
0.002201 -0.064497 0.025617 
-0.023324 0.071852 0.053874 
-0.005677 0.061590 0.019298 
-0.022732 -0.052428 0.012008 
0.043063 0.041669 0.016079 
-0.043268 0.028764 0.015801 
-0.075407 -0.008214 0.060000 
0.023649 -0.072900 0.057553 
0.015334 0.041773 0.002155 
0.014656 -0.010646 0.003000 
0.014169 -0.045166 0.001150 
-0.009499 -0.053455 0.007175 
0.000707 0.068899 0.055497 
-0.043289 0.033945 0.008684 
-0.036701 -0.045731 0.032902 
0.039798 0.036657 0.022407 
0.048600 0.013471 0.003225 
0.012770 0.029036 0.002547 
-0.021449 0.053045 0.012292 
-0.004758 0.074610 0.060000 
0.026515 -0.014063 0.003000 
0.032692 0.053639 0.021091 
0.069304 -0.012997 0.056952 
0.068316 -0.028210 0.048807 
-0.055119 0.051427 0.053093 
0.034861 0.013093 0.003000 
0.012165 0.053935 0.008507 
0.021765 0.023301 0.002719 
-0.008509 -0.059147 0.034601 
0.051228 -0.054654 0.060000 
0.022336 0.074129 0.060000 
0.004052 -0.025071 0.000000 
-0.040917 0.013208 0.000939 
-0.041857 -0.062534 0.052477 
0.027977 0.053080 0.035842 
0.018993 -0.058427 0.029467 
-0.064175 -0.029145 0.056897 
-0.067828 -0.036747 0.058912 
-0.045447 -0.058435 0.049125 
0.017074 0.051855 0.012167 
-0.052580 0.032473 0.036158 
-0.057256 0.010977 0.031498 
-0.001342 0.059412 0.035168 
0.019091 0.058697 0.031477 
-0.053510 0.042398 0.048118 
0.003312 -0.060850 0.038250 
0.039705 -0.011766 0.003000 
0.034792 0.029456 0.002445 
-0.050217 -0.020103 0.023391 
-0.032194 -0.021934 0.000000 
-0.044654 0.020645 0.013064 
-0.050479 0.036708 0.026421 
-0.032029 -0.061400 0.036102 
0.025307 -0.042366 0.013028 
0.034816 0.069310 0.059784 
0.047091 -0.007547 0.009407 
-0.029442 0.035248 0.002023 
-0.023854 -0.039748 0.000000 
-0.072234 -0.024168 0.055167 
0.032919 -0.068214 0.054643 
0.020987 -0.064692 0.044946 
0.041516 0.014975 0.000000 
-0.065712 0.032473 0.048112 
0.030204 0.030020 0.000000 
-0.012262 -0.066230 0.049779 
-0.016173 -0.049104 0.010545 
-0.026732 0.015296 0.003000 
0.051909 0.037913 0.023280 
0.041021 -0.052967 0.050879 
0.046273 0.013758 0.011595 
-0.028396 -0.012461 0.000000 
0.028033 0.058196 0.044518 
-0.034910 0.055307 0.026525 
-0.045688 0.011560 0.002696 
0.014091 -0.052491 0.020337 
0.067226 -0.004244 0.047391 
-0.056651 0.042272 0.051818 
-0.021566 -0.068813 0.043288 
0.033446 -0.032773 0.007716 
-0.027233 0.032951 0.000000 
-0.043451 0.052098 0.052375 
-0.011652 0.039745 -0.000000 
-0.039620 0.025841 0.000163 
0.055095 0.019054 0.032316 
0.035396 -0.063839 0.046580 
-0.050798 0.036773 0.029992 
0.001546 0.033920 0.002354 
-0.006640 0.053687 0.022900 
-0.055680 -0.002815 0.023152 
0.043373 -0.061245 0.051737 
0.065284 0.028445 0.058670 
-0.013184 -0.054994 0.025702 
-0.059944 -0.009404 0.017292 
-0.041295 -0.025571 0.009887 
-0.039945 -0.032490 0.004418 
-0.044809 0.025743 0.004424 
-0.039713 0.062049 0.060000 
0.041678 -0.049799 0.025689 
-0.052404 -0.000000 0.014609 
0.032980 -0.065989 0.049453 
-0.049375 0.052164 0.059833 
-0.022240 -0.067121 0.038600 
-0.062550 -0.036863 0.058557 
0.069933 0.007592 0.054697 
-0.017024 -0.004344 0.003000 
0.058626 0.011542 0.015718 
0.034553 0.040261 0.022201 
0.025461 0.072641 0.057901 
0.054253 0.054868 0.058242 
-0.018466 -0.033886 0.000000 
0.043467 0.033961 0.022258 
0.013732 -0.055344 0.026452 
-0.070808 0.021333 0.049210 
-0.065264 -0.027314 0.040252 
0.018129 -0.013158 0.000000 
-0.023428 -0.050680 0.025082 
0.033739 -0.062800 0.041592 
0.055300 0.016889 0.031347 
-0.007177 0.051267 0.017715 
0.038024 -0.015842 0.000000 
-0.041303 0.056844 0.057991 
0.064749 0.040270 0.060000 
-0.043334 -0.023358 0.012332 
0.037788 -0.023994 0.002188 
0.046737 -0.000000 0.001623 
0.051056 -0.023750 0.010458 
0.026564 0.034198 0.001557 
0.040795 0.060400 0.045691 
-0.052586 -0.000000 0.010735 
-0.022392 -0.071858 0.052839 
0.060910 -0.039399 0.056965 
0.026889 0.048086 0.008060 
0.042360 0.043149 0.036353 
-0.020986 -0.046292 0.003986 
0.023632 -0.049473 0.008029 
0.026567 0.041395 0.002063 
-0.071454 -0.006698 0.057171 
-0.062059 -0.018203 0.045702 
0.025932 -0.055549 0.018610 
0.000317 0.074551 0.060000 
-0.026841 0.020081 0.003000 
0.023560 0.037269 0.002844 
-0.057575 -0.011617 0.032544 
0.056928 0.015863 0.033950 
-0.046571 0.059246 0.052907 
0.038475 -0.028057 0.006382 
0.063010 -0.042924 0.060000 
-0.050169 0.026764 0.011077 
-0.016601 -0.050272 0.011287 
0.066587 0.012304 0.032992 
-0.015334 -0.000421 0.000000 
-0.014871 -0.068822 0.040183 
0.009221 0.027227 0.002535 
0.057732 0.030691 0.027155 
-0.041713 0.056561 0.038335 
0.016515 -0.049964 0.009303 
0.020812 0.011211 0.000000 
0.044587 -0.054716 0.039526 
-0.025539 0.053951 0.015697 
0.003508 0.050027 0.015059 
-0.045488 0.047030 0.046059 
0.028888 -0.020133 0.000000 
0.035095 -0.068745 0.058847 
0.027680 0.045099 0.021748 
0.060835 0.025043 0.028168 
0.008647 -0.065887 0.029672 
0.040702 -0.065849 0.059526 
0.019207 -0.068448 0.041167 
-0.031338 -0.043972 0.007515 
-0.049165 0.010494 0.003184 
-0.052677 -0.038055 0.037822 
-0.048352 0.002502 0.000831 
-0.005524 0.055317 0.026394 
0.066659 0.023582 0.039238 
-0.038915 0.063632 0.060000 
0.030644 0.062173 0.036567 
0.040822 -0.013854 0.001236 
-0.069548 -0.022418 0.045781 
-0.020142 0.062055 0.037661 
-0.053614 0.002766 0.018988 
0.034649 0.018293 0.000000 
0.040574 -0.010615 0.003000 
0.009339 0.043827 0.001772 
0.047554 0.004558 0.000532 
0.029450 0.036443 0.009237 
-0.075855 -0.012494 0.058198 
0.063836 -0.020153 0.030679 
-0.053638 0.038806 0.032463 
-0.008075 0.018244 0.003000 
0.016892 0.000956 0.000000 
0.045501 0.030962 0.021553 
0.051859 0.057247 0.058213 
0.027903 -0.008265 0.003000 
0.056776 -0.033335 0.045125 
-0.068578 0.013153 0.038309 
-0.017149 -0.052783 0.020186 
-0.015216 -0.002503 0.000000 
0.028895 0.033055 0.002416 
0.005308 0.046423 0.007336 
0.040082 -0.038921 0.009203 
-0.050146 0.001234 0.002453 
0.022670 -0.069750 0.050811 
0.046977 0.033857 0.021598 
0.015206 -0.066979 0.051384 
0.017067 0.052241 0.019931 
-0.050591 0.036609 0.030185 
-0.046568 0.020309 0.016517 
0.039016 -0.035520 0.005481 
-0.047884 -0.034777 0.017810 
-0.038629 -0.019907 0.000000 
-0.069559 -0.011815 0.040034 
0.060732 -0.000000 0.018654 
0.027824 0.015073 0.000000 
-0.004887 -0.002479 0.000000 
-0.064706 -0.020083 0.052192 
-0.029374 0.020431 0.003000 
-0.018575 -0.001710 0.000000 
-0.042278 -0.009543 0.001117 
0.022117 0.048117 0.019550 
0.032208 -0.059021 0.050516 
0.056725 -0.041022 0.048881 
-0.040501 0.021891 0.005914 
-0.042525 -0.045339 0.039437 
-0.029838 -0.024099 0.000000 
-0.040212 0.048795 0.021813 
-0.057867 0.017416 0.036818 
-0.057196 -0.008964 0.012648 
-0.022170 -0.052697 0.027043 
-0.032004 -0.006918 0.003000 
-0.064642 0.017604 0.050486 
-0.006878 0.030716 0.000000 
0.066733 -0.007608 0.048583 
0.053725 -0.045170 0.053024 
0.038320 0.025597 0.002602 
-0.036693 -0.027149 0.000000 
0.020369 -0.058149 0.034322 
0.021946 -0.046443 0.015856 
0.053360 -0.039948 0.029290 
0.021049 -0.016662 0.000000 
0.014486 0.036885 0.002361 
0.040420 -0.004199 0.003000 
-0.049936 -0.029456 0.029072 
-0.066493 -0.025080 0.058946 
-0.053885 0.022361 0.031998 
0.063491 -0.027009 0.036097 
-0.031741 0.036922 0.001536 
-0.059009 0.005532 0.014872 
-0.057996 -0.047985 0.052751 
-0.017073 0.051773 0.010940 
-0.032174 0.033202 0.006826 
0.013512 0.019779 0.003000 
0.033789 -0.012848 0.003000 
-0.033227 -0.023131 0.000000 
0.069221 0.025620 0.049084 
-0.018873 0.057379 0.024255 
0.003846 0.074137 0.051001 
-0.005930 -0.073823 0.050014 
0.044733 0.048158 0.028004 
-0.017628 -0.023718 0.003000 
-0.004868 0.062927 0.022085 
0.023008 0.052528 0.012295 
-0.024295 -0.070146 0.049374 
-0.034664 0.058454 0.032572 
0.047003 0.033726 0.026277 
0.030093 0.065696 0.044545 
0.022205 -0.047728 0.018417 
0.060026 0.015841 0.040132 
-0.064376 0.036946 0.050007 
-0.068470 -0.016658 0.039908 
0.050492 -0.007163 0.015944 
-0.057794 0.009918 0.031899 
-0.029234 -0.071613 0.058795 
0.072424 0.012134 0.060000 
0.051825 0.009749 0.019854 
-0.072014 -0.014521 0.048384 
-0.065614 -0.019072 0.034147 
0.069706 -0.016094 0.043031 
-0.015976 -0.002893 0.003000 
0.072409 -0.005505 0.058362 
-0.042576 -0.019253 0.003000 
0.020108 0.051423 0.022559 
-0.068009 0.029660 0.060000 
-0.018054 0.068900 0.055500 
0.004013 -0.064631 0.025919 
0.012038 0.043299 0.000641 
0.014641 0.044474 0.003381 
0.028332 -0.037599 0.000000 
0.047839 -0.033193 0.027587 
0.029129 0.018208 0.000000 
0.047004 -0.036908 0.031208 
-0.013201 0.017092 0.000000 
-0.016210 0.071615 0.048446 
0.038210 -0.034484 0.016386 
-0.053982 -0.047832 0.057985 
-0.029393 0.046662 0.008055 
0.025327 0.054574 0.016642 
0.041081 -0.018009 0.000000 
-0.009340 -0.009884 0.000000 
-0.032240 0.038647 0.015662 
0.039368 0.025361 0.006045 
-0.038229 0.033286 0.014484 
-0.046397 -0.017358 0.014227 
0.047547 -0.051291 0.056044 
-0.019719 -0.020109 0.000000 
0.011880 -0.069280 0.056313 
0.059755 -0.049299 0.058927 
-0.063534 -0.000000 0.029007 
0.042877 0.029376 0.005003 
-0.067972 0.021110 0.040551 
0.064194 -0.025668 0.054848 
-0.032254 0.067884 0.052961 
-0.066605 -0.007206 0.047795 
0.018831 -0.066829 0.036669 
-0.011635 0.026881 0.000000 
-0.041768 0.019497 0.006757 
-0.068147 -0.005514 0.033831 
-0.051439 -0.039681 0.025615 
-0.006667 0.076426 0.058197 
-0.049658 -0.007707 0.003121 
-0.035839 0.012793 0.003000 
0.021693 -0.064682 0.033318 
0.008913 0.066436 0.030697 
-0.067395 0.000312 0.044989 
0.031331 0.030065 0.000000 
-0.060427 0.032590 0.051593 
-0.020700 0.063819 0.043227 
0.034998 0.067400 0.060000 
0.022779 0.069834 0.048933 
0.056586 -0.018761 0.016097 
0.029938 0.047338 0.028573 
0.000344 -0.048411 0.000469 
-0.064944 -0.022577 0.034650 
0.030219 -0.062053 0.035943 
-0.049750 0.053049 0.045599 
0.030081 -0.066938 0.047777 
0.025854 0.010819 0.003000 
-0.035446 0.007252 0.003000 
0.050118 -0.054191 0.048619 
-0.064399 -0.023289 0.034293 
-0.048540 0.053589 0.044258 
0.068071 -0.009083 0.034832 
0.066906 -0.011423 0.051293 
0.046501 -0.018093 0.015528 
-0.020427 0.041900 0.002011 
-0.018161 -0.020865 0.003000 
0.017928 0.015069 0.000000 
0.020508 0.063229 0.043090 
-0.032029 -0.040841 0.005208 
-0.041490 0.061309 0.049399 
0.010592 -0.053503 0.022506 
0.020308 -0.062296 0.027849 
-0.012031 -0.041024 0.003000 
0.018428 -0.012611 0.000000 
0.039095 0.030356 0.002544 
-0.019600 0.062367 0.027374 
-0.064433 -0.000000 0.027095 
-0.012371 0.055910 0.027664 
0.032760 0.043595 0.008061 
-0.070138 0.000532 0.038433 
-0.000760 0.043929 0.001991 
-0.059226 0.048189 0.055780 
0.021217 0.004241 0.003000 
-0.068950 -0.008259 0.053155 
-0.043382 0.008931 0.000000 
-0.052921 -0.006862 0.006139 
-0.051454 0.002144 0.014273 
-0.041139 0.064822 0.057627 
-0.073316 -0.016260 0.052848 
-0.032699 -0.058807 0.050750 
0.037225 -0.026694 0.002824 
0.026795 0.017365 0.003000 
0.001359 0.049657 0.002657 
0.013321 -0.053090 0.021622 
0.060678 0.002513 0.017735 
0.050868 -0.019593 0.025052 
0.019733 -0.060815 0.024398 
0.015248 0.058358 0.017037 
-0.062690 -0.002369 0.036888 
-0.053159 -0.051359 0.049036 
-0.052623 0.039877 0.027755 
0.056840 0.040968 0.046215 
-0.051884 -0.038639 0.024542 
-0.000692 0.052907 0.005907 
0.072656 0.019671 0.053530 
-0.050823 -0.020691 0.024948 
-0.030741 -0.023266 0.000000 
-0.009970 -0.072461 0.060000 
0.012569 -0.044827 0.000000 
0.031189 0.068481 0.052763 
0.017923 0.040310 0.000586 
-0.058946 0.045366 0.050086 
0.068257 0.012358 0.037032 
-0.043702 0.010050 0.000000 
-0.007274 0.069745 0.037553 
0.023728 0.058848 0.040107 
0.001249 0.068344 0.034275 
0.070225 -0.023081 0.048305 
0.064904 -0.021205 0.053461 
0.048624 0.035363 0.018647 
-0.025100 0.052968 0.031147 
0.040384 0.030505 0.003789 
-0.059883 -0.006409 0.033845 
0.019036 -0.059073 0.020434 
-0.062952 -0.036119 0.044935 
-0.049264 -0.035573 0.030774 
-0.019293 0.070647 0.047846 
-0.005483 -0.053653 0.022829 
-0.041279 0.034671 0.020499 
0.005810 0.017437 0.003000 
0.017854 -0.065383 0.047964 
0.030489 -0.031599 0.000000 
-0.009738 0.060506 0.018263 
0.046306 -0.057002 0.047571 
0.053911 0.016956 0.028612 
-0.020740 0.071702 0.060000 
0.015744 0.037418 -0.000000 
0.057108 0.029022 0.024237 
-0.051246 0.041682 0.028064 
0.018737 0.066523 0.050407 
0.054102 -0.014339 0.009902 
0.003781 0.053230 0.006230 
-0.009433 0.066405 0.050154 
-0.018322 -0.031184 0.003000 
0.058784 -0.004034 0.030360 
-0.017900 -0.054362 0.019852 
0.015484 -0.071434 0.060000 
-0.022400 -0.012132 0.003000 
-0.039199 0.026401 0.000076 
-0.017186 -0.068470 0.054579 
-0.024559 0.029734 0.002255 
0.028766 -0.030843 0.000000 
-0.007138 -0.011992 0.003000 
0.017988 0.041697 -0.000000 
-0.004032 -0.072170 0.044819 
0.047493 -0.002536 0.000267 
-0.065223 -0.037711 0.053355 
0.033316 -0.056487 0.047470 
0.016451 -0.050506 0.012037 
0.047177 -0.023610 0.005806 
-0.062934 -0.003403 0.038033 
-0.052921 0.038202 0.027880 
-0.039838 -0.059093 0.041107 
0.061771 0.021853 0.027443 
-0.051977 -0.020644 0.027132 
0.045262 0.006295 0.004689 
-0.048634 0.045000 0.029220 
-0.040048 -0.034390 0.018519 
-0.021575 0.066358 0.042170 
0.050448 0.056122 0.053139 
-0.047413 -0.059871 0.060000 
-0.008453 0.021724 0.000000 
0.016992 -0.026571 0.003000 
-0.049659 -0.049009 0.054680 
-0.001966 0.065540 0.027966 
0.015709 0.055742 0.027304 
-0.068711 -0.000000 0.043229 
0.007333 0.063059 0.042983 
-0.029052 0.048111 0.027572 
-0.013496 -0.054431 0.024496 
0.043565 -0.054569 0.056828 
0.027887 0.028387 0.000000 
-0.038986 -0.056678 0.034544 
-0.046388 -0.049794 0.033388 
-0.055935 0.002906 0.009602 
-0.015430 0.070255 0.058404 
-0.020070 -0.036145 0.000000 
-0.043612 0.031428 0.007265 
0.038795 -0.059369 0.040119 
0.055535 -0.036978 0.030178 
-0.014821 0.061887 0.023509 
-0.068382 0.019607 0.041140 
-0.030293 0.047642 0.009935 
-0.073274 -0.003990 0.048288 
0.060802 0.036539 0.040103 
-0.002081 -0.009592 0.000000 
-0.029203 -0.033363 0.000000 
-0.013247 -0.042792 0.003000 
0.010789 0.072571 0.048677 
-0.046517 0.023508 0.018548 
0.053321 0.015644 0.009361 
0.058043 0.036112 0.049073 
0.005881 0.001723 0.000000 
0.067223 0.027940 0.046283 
0.032564 -0.053145 0.019908 
0.055253 0.016908 0.013044 
0.034924 -0.049462 0.016746 
-0.026695 0.054756 0.036242 
0.010480 0.061928 0.021144 
0.060550 -0.015291 0.020736 
-0.050397 -0.031037 0.015245 
-0.018040 -0.055552 0.025942 
-0.004718 0.058544 0.014075 
0.057999 -0.042307 0.045929 
0.042618 -0.050181 0.047998 
-0.031234 0.056957 0.026316 
-0.033939 -0.041846 0.007119 
-0.022829 0.067367 0.039926 
0.009494 -0.006998 0.003000 
-0.026675 -0.025326 0.003000 
0.020549 0.058790 0.035790 
-0.031984 0.013013 0.003000 
-0.059744 -0.021423 0.043120 
-0.054167 -0.027419 0.017402 
0.065532 0.000918 0.027946 
0.051214 0.017318 0.023455 
-0.009337 0.002147 0.003000 
-0.017498 0.053040 0.009907 
-0.037494 0.015793 0.003000 
0.069372 -0.022448 0.045286 
0.060201 -0.024419 0.046274 
-0.054551 0.048121 0.045542 
0.046651 0.037160 0.031420 
-0.063348 0.005686 0.040314 
0.017764 -0.054257 0.020343 
0.069383 -0.006722 0.053209 
0.053357 -0.047800 0.057156 
-0.065207 0.037047 0.052498 
0.043112 0.056279 0.040249 
0.037346 0.036189 0.018698 
-0.017556 0.063194 0.043273 
-0.014690 -0.071474 0.060000 
0.037857 -0.000810 0.003000 
0.001443 -0.044375 0.000000 
0.002908 -0.027288 0.003000 
-0.001226 -0.070130 0.058135 
0.003295 0.065285 0.047753 
0.023714 0.002283 0.000000 
-0.026232 0.070139 0.051416 
0.000414 -0.027404 0.000000 
-0.019715 0.075032 0.059897 
-0.016357 -0.044322 0.002695 
0.003528 0.031480 0.000000 
-0.057704 -0.026252 0.042114 
0.061373 0.035435 0.039684 
0.032704 0.060977 0.035920 
0.004636 -0.056584 0.010716 
-0.028202 -0.011101 0.003000 
0.062365 -0.000000 0.024038 
-0.030399 -0.053809 0.019307 
-0.055300 -0.011209 0.010184 
0.040228 -0.057288 0.057434 
0.051562 0.002205 0.004562 
0.018797 0.030062 0.002934 
-0.004688 0.037465 0.002232 
0.047194 -0.014368 0.014336 
0.037705 0.037590 0.006033 
0.050142 -0.059270 0.060000 
0.059688 -0.035414 0.052103 
-0.050680 -0.026762 0.028710 
0.054138 0.053585 0.055447 
-0.061737 0.006393 0.019550 
-0.056376 -0.045282 0.056505 
0.037001 -0.055604 0.050497 
0.045412 0.054765 0.041120 
0.036859 0.000019 0.000000 
-0.016248 0.065728 0.033529 
-0.029018 0.057729 0.044308 
0.039826 -0.037581 0.007569 
-0.046269 0.036209 0.014478 
0.041301 0.043986 0.036494 
-0.050621 0.036885 0.032022 
0.004457 0.045003 -0.000000 
0.035675 -0.046441 0.014116 
0.061590 -0.002144 0.034664 
-0.060221 0.032308 0.051002 
-0.045937 -0.033158 0.023694 
0.016724 -0.053267 0.022000 
0.010713 -0.074562 0.053520 
-0.059721 -0.035330 0.051924 
-0.065119 -0.032093 0.046193 
-0.000072 -0.040050 0.003000 
0.042043 0.029494 0.013934 
0.040239 -0.015323 0.001086 
-0.016977 -0.000802 0.000000 
-0.041450 0.020715 0.006955 
-0.066385 -0.002916 0.029866 
-0.055648 -0.019215 0.014975 
-0.051665 0.004594 0.004472 
0.026786 0.011106 0.003000 
0.063702 0.012591 0.045416 
-0.008999 0.018696 0.000000 
-0.036929 0.036790 0.018502 
0.023222 -0.004670 0.003000 
0.040301 0.025645 0.008027 
0.043440 0.031888 0.012477 
-0.007893 -0.057897 0.031921 
-0.032278 0.014371 0.000000 
0.030192 0.052439 0.017053 
-0.044785 -0.028914 0.018816 
0.018605 -0.042722 0.003000 
0.003126 0.043783 -0.000000 
0.026726 -0.050541 0.028928 
0.046906 0.009904 0.000865 
-0.058572 -0.019405 0.019561 
-0.026188 0.045361 0.019226 
0.018575 0.065612 0.033363 
0.007336 0.026133 0.000000 
-0.025918 -0.060353 0.028232 
-0.017044 0.058167 0.017676 
0.034711 -0.010485 0.003000 
-0.029670 0.004578 0.000000 
-0.035571 -0.025835 0.000000 
-0.016774 0.026530 0.000000 
0.056940 -0.000000 0.013524 
-0.044360 0.005132 0.002183 
-0.056478 0.020726 0.016954 
0.028727 -0.037619 0.000135 
-0.012792 0.045287 0.002606 
-0.018143 -0.051206 0.019449 
0.009750 0.031381 0.002474 
-0.054085 0.029132 0.036829 
0.002495 -0.044804 0.003865 
0.012504 -0.065733 0.048714 
0.047409 0.051473 0.037807 
-0.034431 -0.032793 0.000163 
-0.040581 -0.032464 0.005008 
0.062764 0.030484 0.054926 
-0.063045 0.007741 0.041015 
0.025984 0.025699 0.000000 
0.013965 0.067068 0.051574 
-0.019714 0.060371 0.029694 
0.033743 0.068440 0.055848 
-0.020904 -0.042238 0.002472 
0.042338 -0.061564 0.060000 
0.018819 0.057689 0.026918 
-0.039614 -0.042785 0.013279 
-0.071163 -0.026281 0.060000 
-0.052479 -0.015373 0.007934 
0.053585 0.024601 0.032853 
-0.025137 -0.063896 0.035091 
-0.056725 0.040827 0.037534 
-0.027798 -0.064341 0.054331 
-0.014469 0.073034 0.051450 
0.026745 0.059261 0.044770 
-0.000639 0.019501 0.003000 
0.017772 0.010781 0.003000 
-0.025577 0.041683 0.001493 
0.052918 -0.038208 0.029797 
-0.057106 -0.004222 0.026898 
0.035190 0.056721 0.030268 
0.046506 0.027319 0.021061 
-0.059098 0.046557 0.052561 
0.012936 0.022514 0.000000 
-0.040364 -0.062105 0.060000 
-0.025594 -0.036618 0.000000 
-0.042969 0.037542 0.027216 
-0.041725 -0.010137 0.000450 
-0.030215 0.065806 0.045278 
0.066719 0.005524 0.046953 
0.057186 0.038994 0.049344 
0.045962 -0.011070 0.009588 
0.043537 -0.017926 0.002025 
0.067920 0.026672 0.046857 
0.066514 -0.024229 0.039537 
-0.022930 -0.040195 0.000000 
-0.028262 -0.053518 0.017386 
0.020255 -0.062415 0.040079 
-0.004973 -0.032095 0.003000 
0.032949 0.019894 0.003000 
0.032847 -0.025261 0.000000 
0.016057 -0.066475 0.050304 
-0.043295 0.053384 0.034984 
-0.017627 0.054188 0.024013 
0.004521 -0.072432 0.060000 
0.053569 -0.025004 0.014855 
-0.024660 -0.060296 0.027161 
-0.050970 -0.010103 0.018368 
-0.014870 -0.051271 0.017724 
0.060932 0.044197 0.057727 
0.064632 0.007620 0.044113 
0.014434 0.014528 0.003000 
0.060144 0.026044 0.027763 
0.051854 0.023202 0.011466 
0.056284 -0.045778 0.057255 
0.048712 0.035105 0.025564 
-0.041382 0.030002 0.007018 
0.070572 0.010879 0.042679 
0.020557 0.050214 0.007628 
-0.019826 -0.055429 0.015014 
-0.028357 -0.048035 0.026579 
-0.058967 -0.047812 0.060000 
-0.034050 -0.022444 0.000000 
-0.011600 0.075398 0.060000 
0.013558 -0.006025 0.003000 
-0.002399 0.031316 0.000000 
-0.002156 0.013182 0.003000 
-0.041244 0.028535 0.003193 
-0.010988 -0.068023 0.035648 
0.048743 0.027976 0.009261 
0.075970 -0.000000 0.058739 
0.018525 0.009350 0.000000 
0.049313 0.036096 0.026163 
0.005020 0.057877 0.031880 
0.021415 -0.050319 0.021959 
0.042966 0.025407 0.012988 
-0.046529 0.058398 0.050996 
-0.014992 -0.009995 0.003000 
0.044346 -0.036736 0.012781 
-0.059769 -0.048422 0.057375 
0.050565 0.057761 0.060000 
-0.002601 -0.007953 0.003000 
-0.042086 0.051007 0.028991 
-0.022771 0.070221 0.054590 
-0.008237 -0.003174 0.003000 
-0.017790 -0.009539 0.000000 
0.034217 0.062959 0.042099 
0.046046 -0.045400 0.025639 
-0.018813 0.056174 0.015537 
-0.061886 0.035699 0.041432 
0.004543 -0.009660 0.000000 
-0.035150 -0.068658 0.058716 
-0.001189 0.026115 0.000000 
0.060084 0.019314 0.022411 
0.073072 0.004624 0.047653 
0.012819 -0.053516 0.008192 
-0.046547 -0.029408 0.022528 
0.026509 0.004053 0.003000 
-0.018495 0.072447 0.052188 
0.000909 -0.000333 0.000000 
-0.004424 0.066718 0.030614 
0.009501 -0.036995 0.003000 
-0.048340 -0.042156 0.024372 
0.028906 0.051175 0.014192 
0.018038 -0.042478 0.003000 
-0.017699 -0.014510 0.000000 
0.065664 -0.011692 0.030883 
0.028732 -0.024384 0.003000 
-0.017705 0.005915 0.000000 
-0.038329 -0.011196 0.000000 
-0.047299 0.036539 0.015838 
0.036183 -0.026635 0.001248 
0.001909 -0.065445 0.048095 
-0.002384 0.072353 0.045394 
0.040678 0.027815 0.002031 
0.042419 0.056534 0.058878 
0.001819 0.068073 0.033663 
-0.013466 -0.016404 0.003000 
-0.006462 0.059538 0.035440 
0.029069 0.070164 0.054991 
0.034019 0.021143 0.002877 
-0.024228 0.006143 0.000000 
0.070720 0.006215 0.040263 
0.016171 -0.048972 0.008892 
-0.012039 -0.056797 0.029565 
0.046297 0.037011 0.030748 
-0.008851 0.067471 0.033042 
-0.015551 -0.046903 0.002785 
0.002603 -0.016752 0.000000 
0.043488 0.015973 0.007717 
-0.001131 -0.018783 0.000000 
0.018537 -0.057042 0.027094 
-0.051820 -0.020402 0.009817 
0.071956 -0.017737 0.049744 
-0.024952 0.039929 0.002005 
0.006640 0.064254 0.025071 
-0.016335 0.049816 0.011702 
-0.011507 0.069176 0.038918 
-0.047012 -0.048968 0.033057 
0.064234 -0.037885 0.050964 
0.074495 0.004738 0.052126 
0.046847 -0.034264 0.026763 
0.058087 -0.010880 0.014589 
-0.038112 0.063139 0.048697 
-0.036589 0.062368 0.060000 
0.000527 -0.017619 0.000000 
0.055575 -0.040531 0.043234 
-0.052517 0.037970 0.029449 
-0.063458 0.025095 0.034221 
-0.069433 0.020266 0.044600 
0.009025 0.066489 0.030861 
0.065635 0.022299 0.055459 
-0.010879 0.068787 0.055257 
-0.072418 0.006817 0.059175 
-0.037501 0.001492 0.003000 
-0.057032 -0.024615 0.019855 
0.026426 0.033998 0.001030 
0.035685 0.023363 0.000000 
0.069283 -0.000000 0.046264 
0.035762 0.040689 0.024360 
0.006944 0.025340 0.002534 
-0.007310 -0.015493 0.000000 
-0.067455 -0.003532 0.047158 
0.015320 -0.068936 0.055578 
0.026872 -0.072343 0.058500 
0.002719 0.059830 0.036065 
-0.066284 0.023960 0.038726 
-0.019432 0.025901 0.000000 
-0.061209 -0.041280 0.048363 
-0.053317 0.038688 0.031794 
0.020896 0.064282 0.043019 
-0.033487 0.043644 0.008643 
0.053575 0.017164 0.010551 
-0.068508 0.000708 0.034643 
-0.000885 0.031000 0.000000 
0.006071 0.069432 0.036721 
-0.071840 -0.023377 0.053206 
-0.048888 -0.013392 0.016377 
-0.034979 -0.019483 0.000000 
0.020930 0.010122 0.003000 
0.050318 -0.002579 0.012422 
0.050526 0.034292 0.017076 
-0.051834 -0.000853 0.014211 
-0.044448 -0.059285 0.049163 
-0.008654 0.017620 0.000000 
0.067168 0.034471 0.060000 
-0.023108 0.001717 0.000000 
-0.048477 -0.037852 0.017995 
0.017438 0.053491 0.010791 
0.001756 0.066182 0.049676 
-0.009376 0.070646 0.059242 
0.033446 0.055325 0.025504 
0.058091 -0.001875 0.013299 
-0.064213 0.042870 0.058570 
-0.050648 0.020749 0.008216 
0.031088 0.037306 0.012891 
-0.014900 0.068979 0.040616 
0.055461 0.011463 0.028217 
-0.012569 0.062310 0.041378 
0.046027 -0.058142 0.049536 
0.047165 -0.034442 0.020240 
0.059891 -0.044669 0.050871 
-0.002001 0.036905 -0.000000 
0.027500 0.035831 -0.000000 
0.015597 0.062286 0.024304 
-0.035525 0.059847 0.056068 
0.050673 0.006535 0.015504 
-0.049664 0.039162 0.021352 
0.049301 -0.017966 0.020980 
0.044679 -0.032395 0.019575 
-0.050981 -0.021817 0.009381 
-0.072164 -0.006774 0.044801 
-0.053934 0.039390 0.037323 
0.025778 0.027293 0.002823 
-0.023685 -0.015859 0.003000 
-0.031832 -0.003078 0.000000 
0.048330 0.035027 0.020919 
-0.010947 0.065316 0.047821 
0.001675 0.043821 0.001760 
-0.062411 0.045565 0.058394 
-0.010206 0.067336 0.052148 
-0.071891 -0.006745 0.058075 
-0.003285 -0.064646 0.046385 
0.013992 0.051893 0.019056 
-0.026697 -0.057421 0.022538 
0.073900 -0.007397 0.060000 
0.025514 0.066393 0.041163 
-0.017339 0.064300 0.045642 
0.037625 -0.053173 0.025378 
-0.011858 0.054252 0.008843 
0.033881 0.040578 0.021932 
0.026922 -0.070285 0.053220 
-0.018271 0.040031 0.000000 
0.018237 -0.057915 0.017904 
-0.050398 -0.039809 0.040090 
0.032819 -0.033999 0.000000 
-0.043458 -0.062210 0.054142 
0.039507 0.056590 0.055502 
-0.069508 -0.033600 0.058631 
0.048874 0.041660 0.041619 
0.014666 -0.055553 0.012343 
0.055883 -0.038385 0.046521 
0.007186 -0.049188 0.013260 
0.044226 -0.035965 0.011907 
0.030515 0.008111 0.000000 
-0.053854 -0.050683 0.060000 
-0.044828 0.023489 0.003535 
-0.056692 0.010108 0.029816 
-0.020590 -0.041460 0.000000 
-0.036903 -0.026264 0.000000 
-0.015852 -0.064914 0.030677 
-0.000037 0.013397 0.003000 
0.025699 0.050278 0.028010 
-0.022392 -0.011469 0.003000 
0.065000 -0.015336 0.050002 
-0.030647 0.026886 0.003000 
0.068699 -0.014580 0.056755 
-0.012871 0.046453 0.007399 
-0.061043 -0.027725 0.031446 
0.064385 0.017319 0.030988 
-0.074197 -0.004934 0.060000 
0.061887 0.008400 0.020270 
-0.020928 0.028707 0.002399 
0.019070 -0.058725 0.030946 
0.029752 -0.035600 0.000000 
-0.009825 0.034196 0.002241 
0.044987 0.044089 0.021761 
0.044768 0.036808 0.028585 
-0.061823 -0.004202 0.036321 
-0.008958 -0.028807 0.003000 
-0.051176 -0.016870 0.007111 
-0.025431 -0.064682 0.036859 
0.008747 -0.067139 0.051727 
-0.025260 -0.052402 0.013692 
0.022934 -0.032071 0.003000 
-0.045538 -0.005613 0.000000 
0.002989 -0.012153 0.000000 
0.033287 -0.033037 0.007944 
0.046156 0.009219 0.000848 
0.042496 -0.038501 0.011596 
0.012666 -0.029073 0.000000 
-0.024223 0.071114 0.060000 
-0.074786 0.013777 0.055393 
-0.045322 -0.007187 0.000000 
-0.055964 -0.042016 0.037665 
0.053631 0.020434 0.012622 
-0.022625 0.069739 0.049552 
-0.031286 0.032974 0.005356 
0.024314 -0.071133 0.052546 
0.002596 0.063874 0.044731 
0.013787 0.050626 0.016341 
-0.024898 0.057146 0.020223 
-0.001671 0.014424 0.003000 
0.030685 0.063416 0.039430 
0.037273 0.020356 0.002922 
-0.023470 -0.066893 0.039535 
0.009989 -0.068784 0.055251 
0.038594 -0.048517 0.040108 
0.008918 -0.039187 0.000000 
0.054853 0.023089 0.034398 
-0.012803 0.048473 0.011729 
-0.045619 -0.011903 0.001289 
0.070611 0.008144 0.040721 
0.013243 0.038319 -0.000000 
-0.051719 -0.044251 0.048934 
-0.029939 -0.034398 0.000000 
-0.006210 -0.046411 0.000000 
-0.008437 0.062679 0.022067 
-0.059675 0.041735 0.045687 
-0.063500 -0.041590 0.060000 
0.064129 0.003753 0.024790 
-0.049211 -0.007051 0.012910 
0.049713 0.044211 0.046899 
0.041589 0.020097 0.000000 
-0.056549 -0.021074 0.036508 
-0.015657 0.005596 0.000000 
-0.046930 0.022719 0.005285 
0.057039 0.019236 0.036319 
-0.032315 -0.035820 0.011210 
0.003260 -0.034024 0.003000 
0.018649 0.054794 0.026411 
0.037943 -0.056652 0.033045 
0.022857 -0.021787 0.000000 
-0.027215 -0.034732 0.000000 
0.042969 -0.032208 0.018641 
-0.048657 0.015779 0.017519 
-0.001345 0.064686 0.026043 
-0.018235 0.020431 0.000000 
-0.059475 0.043664 0.048158 
0.049456 -0.012094 0.017284 
-0.001844 -0.057749 0.012712 
-0.006553 -0.046786 0.000094 
0.060730 -0.048609 0.059792 
0.033473 -0.014268 0.000000 
-0.027126 -0.046011 0.021522 
-0.057159 0.003891 0.026793 
0.038793 -0.007568 0.000000 
-0.016595 -0.043593 0.004250 
-0.019413 -0.062475 0.027225 
-0.018912 -0.054341 0.025873 
-0.046072 -0.043020 0.039878 
-0.047089 -0.000792 0.000000 
0.002990 -0.075160 0.054216 
0.000647 0.054920 0.025542 
-0.066344 -0.000000 0.037875 
0.003128 -0.070527 0.039658 
0.023966 -0.025450 0.003000 
0.048130 0.003100 0.008233 
-0.000282 0.047275 0.009160 
0.018981 0.058079 0.026016 
0.067648 0.012160 0.035451 
-0.015691 -0.073837 0.060000 
-0.055075 0.020106 0.032944 
-0.006097 -0.070842 0.059661 
-0.005494 -0.007827 0.003000 
0.056430 0.036971 0.031238 
0.053347 0.011652 0.007545 
-0.015505 0.069395 0.056561 
0.021611 -0.066104 0.038379 
-0.051470 0.048265 0.039471 
0.060257 0.035114 0.052859 
0.057416 0.039878 0.050374 
-0.042837 0.058365 0.044268 
0.000542 -0.047613 0.009886 
0.064426 -0.005017 0.025459 
0.059125 0.038100 0.038487 
-0.016464 0.054914 0.025530 
-0.016604 0.050177 0.010948 
0.005509 0.010736 0.003000 
-0.016148 0.048866 0.006061 
-0.055160 0.001936 0.008273 
-0.066933 -0.011927 0.033596 
0.007013 0.076372 0.058028 
0.024664 0.003268 0.000000 
0.037159 -0.045189 0.032524 
0.038112 0.027851 0.000004 
0.030393 0.068140 0.051042 
0.050571 -0.049419 0.056527 
0.051234 0.056315 0.060000 
-0.067017 0.006186 0.047971 
0.020348 -0.062504 0.032677 
0.018186 0.021792 0.002992 
-0.013233 0.061534 0.039715 
0.008210 -0.004389 0.000000 
-0.034334 -0.062351 0.041039 
-0.036052 0.028505 0.004092 
0.065757 -0.027506 0.059041 
0.024047 0.068953 0.046186 
0.050976 -0.054070 0.050091 
-0.045078 0.013854 0.000000 
0.062425 -0.045177 0.057351 
-0.021008 -0.064388 0.040912 
-0.047378 0.034478 0.015230 
-0.012448 -0.008568 0.000000 
0.057996 -0.011214 0.033755 
0.061824 0.020588 0.046749 
0.006816 0.055701 0.009441 
-0.056063 0.018919 0.015361 
-0.004101 0.073636 0.049426 
-0.010904 -0.060722 0.018973 
-0.046328 -0.045562 0.044538 
-0.019087 -0.036956 0.000000 
0.064438 -0.011839 0.046732 
0.057237 0.052699 0.059873 
-0.031087 -0.023054 0.000000 
0.020899 -0.063808 0.030910 
-0.053391 0.044379 0.051230 
0.009349 0.043369 0.000000 
-0.031252 -0.016105 0.003000 
0.062398 -0.024612 0.050683 
-0.009684 0.050886 0.004705 
-0.060391 0.043997 0.053703 
0.010207 -0.041726 0.000000 
-0.017179 0.054590 0.024836 
-0.071920 0.024255 0.060000 
-0.046684 0.003791 0.005780 
-0.020176 -0.010984 0.003000 
0.015090 0.004184 0.003000 
-0.044712 0.036271 0.012911 
-0.022702 0.007762 0.000000 
0.000064 -0.015414 0.003000 
0.042049 -0.021377 0.002579 
0.043590 -0.049230 0.027888 
0.035367 -0.058277 0.053134 
0.069603 0.004502 0.037106 
0.001849 0.052755 0.020904 
-0.040210 0.019716 0.003910 
-0.058851 0.026561 0.044605 
0.014892 -0.045570 0.004290 
0.012934 -0.062873 0.024569 
-0.062542 0.006276 0.039077 
0.015906 -0.044877 0.005636 
0.019726 0.059010 0.020566 
0.005368 0.022569 0.000000 
0.013791 0.000788 0.000000 
-0.044542 0.057637 0.045765 
0.040173 0.000202 0.003000 
0.042763 0.007437 0.000000 
-0.038536 0.063849 0.051216 
0.064996 0.016082 0.031794 
0.017391 -0.053381 0.016490 
0.036152 0.052727 0.045021 
0.034703 0.015467 0.003000 
0.042258 0.021278 0.008883 
-0.000426 -0.042501 0.003000 
-0.053111 -0.045704 0.053194 
-0.014719 -0.064010 0.028042 
-0.020072 0.042571 0.000625 
0.002444 -0.075679 0.055848 
0.048518 -0.015638 0.017863 
0.046135 0.040864 0.018799 
-0.017505 0.053673 0.011409 
-0.018242 0.048034 0.014040 
0.054547 0.054072 0.060000 
0.033567 0.038064 0.017340 
0.046239 0.005583 0.006093 
-0.012278 -0.033878 0.003000 
0.010150 0.068705 0.036781 
0.068268 0.001324 0.034104 
0.041296 0.028351 0.002918 
-0.033234 0.038543 0.016730 
-0.000889 0.056930 0.029851 
-0.049404 0.035110 0.016790 
0.041659 -0.012050 0.001661 
0.000524 0.020391 0.003000 
-0.068920 -0.012643 0.055886 
0.070784 0.002506 0.053164 
-0.052645 -0.013148 0.007333 
0.065997 -0.013063 0.050536 
0.040022 0.052981 0.050061 
-0.005617 -0.006257 0.000000 
0.015399 -0.048410 0.011592 
-0.062518 -0.016528 0.045553 
-0.031035 -0.035671 0.009381 
-0.056146 -0.030693 0.024161 
0.027554 0.044268 0.005201 
0.032327 0.013040 0.003000 
0.057795 0.002354 0.012792 
0.034809 0.035560 0.014618 
0.051364 -0.001612 0.003845 
-0.068713 0.034382 0.060000 
0.074223 0.001024 0.051273 
0.025991 -0.065193 0.038518 
-0.064903 0.023370 0.054677 
-0.022791 -0.042069 0.000571 
-0.061623 -0.042902 0.060000 
-0.003306 -0.071999 0.044282 
-0.057224 -0.001063 0.025124 
-0.028067 0.055662 0.039524 
0.034658 -0.009716 0.000000 
0.029272 -0.056173 0.041909 
-0.007800 0.034908 0.000000 
-0.066241 0.010007 0.030783 
0.001091 0.024810 0.002734 
-0.019675 -0.060098 0.030838 
0.019840 0.001293 0.003000 
0.016132 -0.028679 0.000000 
-0.007813 0.052876 0.006282 
0.012230 0.033760 0.000000 
0.011194 0.042381 0.002165 
0.063254 0.004732 0.022820 
-0.064672 0.014143 0.029515 
-0.022157 0.072433 0.054474 
0.045152 0.038589 0.032029 
-0.006579 -0.062390 0.041550 
-0.050713 -0.000000 0.003744 
0.003639 0.008582 0.003000 
-0.019781 0.066073 0.035343 
0.061530 -0.041631 0.049670 
-0.050131 0.058785 0.058327 
0.014678 0.042115 0.002145 
-0.009996 0.030246 0.000000 
0.049375 0.028466 0.027335 
-0.015816 0.009609 0.000000 
0.033405 0.050000 0.037171 
-0.038428 -0.012208 0.000000 
-0.043518 -0.003666 0.003000 
-0.042361 0.015252 0.000000 
-0.029388 -0.036654 0.008915 
-0.051597 0.026301 0.030165 
-0.027293 -0.071793 0.057240 
0.043554 -0.057950 0.044663 
0.062107 0.020398 0.027147 
-0.053175 -0.041472 0.046213 
-0.066651 0.035638 0.060000 
-0.046617 0.016211 0.002222 
0.017032 0.063716 0.044391 
-0.039115 -0.025804 0.000000 
0.060901 -0.033186 0.036096 
0.065489 0.039732 0.057285 
0.047170 -0.017892 0.016727 
-0.065952 -0.020609 0.035337 
0.013266 0.045734 0.000418 
0.018919 -0.066697 0.036414 
-0.042297 -0.042462 0.016111 
-0.034278 -0.022561 0.000000 
-0.035056 -0.048512 0.035715 
0.047791 0.058964 0.054495 
-0.071204 -0.000000 0.047157 
0.072351 -0.001983 0.045390 
0.020012 -0.061039 0.026113 
0.037111 0.022458 0.000000 
-0.054322 0.036215 0.026591 
0.020395 -0.062675 0.033396 
0.016828 0.024375 0.002653 
0.065071 -0.010189 0.028705 
-0.050464 0.003007 0.012841 
-0.043258 0.016164 0.007403 
-0.033671 0.033329 0.000047 
-0.032266 0.007361 0.000000 
-0.045468 -0.009491 0.007211 
0.011043 0.051685 0.018610 
-0.051358 0.037176 0.024624 
0.061290 -0.033660 0.037382 
0.051749 0.012240 0.021287 
0.062491 0.020087 0.047765 
-0.067290 -0.000000 0.036317 
0.036965 0.058223 0.035269 
0.012488 0.025385 0.002595 
-0.010162 -0.012632 0.000000 
0.000872 0.069372 0.036587 
-0.055382 0.024716 0.017466 
-0.007795 0.069290 0.036774 
0.026758 0.042610 0.003248 
-0.033337 -0.023407 0.003000 
0.034852 0.054041 0.045677 
-0.047625 0.050496 0.036561 
-0.030320 0.034404 0.006455 
0.009373 -0.063982 0.044962 
-0.011952 0.014573 0.003000 
0.058456 -0.041635 0.053563 
0.014204 -0.061915 0.023091 
0.044387 -0.032509 0.016100 
-0.004003 -0.020071 0.003000 
-0.033848 0.035788 0.001917 
0.002927 0.066218 0.049753 
0.014731 -0.051470 0.006658 
-0.030548 0.043855 0.022002 
0.065283 -0.005859 0.044622 
-0.021828 -0.038343 0.000000 
-0.042974 -0.021556 0.010442 
-0.068623 -0.013463 0.038636 
0.014050 0.036410 0.002378 
0.058403 -0.042288 0.054021 
0.020646 0.063616 0.040620 
0.041271 0.023321 0.001994 
-0.061226 -0.020098 0.025258 
-0.041940 0.056241 0.038052 
-0.073797 -0.007841 0.050048 
0.001949 -0.020556 0.000000 
-0.041096 0.011442 0.000000 
-0.007048 0.030096 0.002327 
0.011838 0.057069 0.013251 
-0.050492 -0.012288 0.018804 
0.041494 -0.022811 0.008746 
-0.063045 -0.044004 0.057089 
-0.019955 0.008029 0.003000 
-0.040443 0.013334 0.000000 
0.045093 0.027608 0.018538 
0.027593 0.013884 0.003000 
0.065891 -0.003810 0.028756 
0.027829 -0.025168 0.003000 
0.049321 -0.031889 0.029670 
-0.015275 -0.049537 0.004964 
0.005358 -0.075666 0.060000 
0.041695 0.034053 0.007046 
-0.071702 0.007929 0.043614 
-0.035332 0.033812 0.011731 
-0.037458 -0.003027 0.003000 
-0.017147 0.068779 0.055240 
0.043560 0.008872 0.003133 
0.052265 0.038005 0.036514 
-0.045956 0.060268 0.054009 
-0.049010 0.021805 0.022206 
-0.017139 -0.052435 0.017222 
0.060946 -0.044682 0.060000 
0.027849 0.054321 0.037797 
-0.063242 0.007966 0.041554 
-0.010714 -0.040884 0.003000 
0.025495 0.061302 0.046664 
0.003015 -0.070838 0.040633 
0.017067 0.008865 0.003000 
-0.014982 0.030709 0.000000 
-0.020731 0.044004 0.010094 
0.001583 0.016002 0.003000 
-0.007546 0.029399 0.000000 
-0.074418 -0.005032 0.051884 
0.062050 -0.011211 0.041678 
-0.051327 0.011156 0.005423 
0.020429 0.062909 0.041254 
-0.019334 0.037179 0.002101 
-0.025567 -0.054435 0.034285 
0.002920 -0.051282 0.003772 
-0.001346 0.014729 0.000000 
-0.016817 0.058663 0.018334 
-0.054731 -0.039381 0.034087 
0.051247 -0.000000 0.012028 
-0.028288 -0.060754 0.048681 
-0.050624 -0.008502 0.016659 
-0.057173 0.043171 0.042289 
-0.047515 -0.050976 0.055454 
0.028240 -0.057116 0.023676 
-0.043067 -0.025915 0.002803 
-0.062980 0.031685 0.039594 
0.066735 0.032769 0.060000 
-0.044475 0.005365 0.000000 
-0.019229 0.047642 0.014580 
-0.032342 0.041773 0.006203 
-0.041323 -0.036955 0.024226 
0.043962 0.032122 0.010892 
0.002208 -0.060986 0.038541 
0.009698 0.065216 0.047607 
-0.002366 -0.066500 0.050357 
0.018646 0.041196 0.002151 
0.015848 0.048747 0.012302 
-0.033026 0.027976 0.002878 
0.001864 -0.007973 0.000000 
0.000521 0.061913 0.019851 
0.053578 0.043175 0.035150 
-0.070656 -0.010844 0.042312 
-0.022215 -0.067807 0.041201 
-0.005308 0.069320 0.036470 
-0.013775 -0.026650 0.000000 
0.066280 -0.037597 0.060000 
0.060618 0.033143 0.052327 
-0.064187 -0.015738 0.029625 
0.002056 0.032729 0.000000 
-0.020419 0.004959 0.000000 
0.042774 0.042083 0.035057 
-0.024700 -0.061095 0.044829 
-0.005371 -0.071070 0.041362 
0.069908 -0.019586 0.044924 
0.009104 0.068298 0.054210 
0.058356 0.001001 0.027349 
0.063168 0.009507 0.023569 
-0.045947 -0.050481 0.052648 
-0.035066 0.033958 0.011634 
-0.056616 0.041352 0.045114 
0.031580 -0.055491 0.043580 
-0.005746 -0.048020 0.010757 
-0.003225 -0.048529 0.001342 
-0.031281 -0.037999 0.002186 
0.073771 0.014237 0.053367 
0.063158 0.028860 0.036972 
0.052003 0.041494 0.045070 
0.076479 -0.008495 0.060000 
-0.019068 -0.065077 0.032214 
0.009934 0.009700 0.003000 
-0.016435 0.042332 0.002127 
-0.028467 0.032567 0.001199 
-0.068973 0.019146 0.042725 
0.049738 -0.009019 0.003456 
-0.046543 -0.008582 0.008672 
-0.066518 -0.029730 0.046307 
0.045187 -0.014027 0.000000 
-0.027145 0.064513 0.038209 
0.030738 -0.021593 0.000000 
-0.058547 -0.008067 0.014601 
-0.041891 -0.015600 0.000000 
0.057282 0.025502 0.040793 
0.053362 0.007429 0.021451 
-0.065185 -0.016298 0.032384 
-0.030217 0.035172 0.000000 
0.044852 0.047693 0.027437 
0.008336 0.073628 0.050024 
0.054958 0.015959 0.030071 
-0.073956 -0.003222 0.059963 
0.051541 -0.037267 0.026971 
-0.011614 -0.032092 0.003000 
0.066715 -0.004447 0.046508 
-0.022770 -0.070168 0.050721 
-0.027407 -0.009105 0.000000 
0.003769 -0.017869 0.000000 
-0.022055 0.058215 0.036526 
-0.031940 -0.046228 0.027867 
-0.050655 -0.054871 0.051052 
-0.006273 -0.075480 0.055224 
-0.042670 0.029427 0.005054 
0.033069 0.034129 0.000144 
-0.002222 0.012567 0.003000 
0.027398 0.021499 0.000000 
0.018958 -0.068150 0.040161 
0.049450 0.045124 0.030757 
-0.010641 -0.005072 0.000000 
0.013016 -0.050832 0.016783 
-0.019240 0.059169 0.020498 
-0.051057 0.058550 0.059491 
-0.070547 0.003289 0.039720 
0.053478 -0.013047 0.025988 
0.021536 0.066235 0.046638 
0.009513 -0.026429 0.003000 
-0.049078 0.008850 0.002778 
0.039653 -0.056929 0.035988 
0.055665 -0.040704 0.042102 
0.013434 -0.069271 0.056294 
-0.003451 0.011788 0.003000 
0.032032 -0.029991 0.000000 
-0.022734 -0.045084 0.014462 
-0.041085 0.055729 0.035865 
-0.038879 -0.028445 0.002746 
0.010138 0.012666 0.003000 
-0.006644 0.049498 0.013925 
-0.039841 0.024726 0.000000 
-0.048115 -0.049894 0.054312 
0.022887 0.070605 0.056617 
0.012576 0.049151 0.003849 
0.042779 -0.017154 0.000000 
0.049418 0.045065 0.047980 
0.024125 -0.054865 0.016369 
-0.044194 -0.007494 0.000000 
-0.024999 -0.041086 0.010588 
0.013887 -0.065844 0.032252 
-0.011680 -0.023091 0.003000 
-0.031789 -0.049466 0.013791 
-0.058707 0.038710 0.038459 
-0.061170 0.004040 0.018577 
0.024402 -0.055086 0.016876 
-0.057321 -0.044436 0.056201 
0.035305 -0.003374 0.003000 
-0.055830 -0.017484 0.014247 
-0.001128 0.006938 0.003000 
-0.027128 0.044661 0.019170 
-0.058460 -0.036169 0.049936 
-0.008496 -0.057093 0.030199 
-0.021008 0.012687 0.003000 
-0.062389 -0.032945 0.055743 
0.018085 0.054949 0.020478 
-0.013801 -0.069662 0.057132 
-0.020246 -0.068909 0.043008 
-0.024405 -0.055507 0.034714 
0.003643 0.044903 0.002075 
-0.030070 -0.004049 0.000000 
-0.011531 0.021786 0.003000 
-0.025728 -0.051423 0.012602 
0.053747 0.012546 0.008410 
0.044783 -0.060916 0.053295 
0.008945 -0.060606 0.037727 
-0.021881 0.015014 0.000000 
-0.020263 -0.016813 0.003000 
-0.053904 -0.053342 0.054492 
0.016274 0.032564 0.002512 
0.049188 0.008915 0.014050 
0.025088 -0.065030 0.052174 
-0.012592 -0.040151 0.003000 
-0.004820 -0.061658 0.019414 
-0.012272 -0.021407 0.003000 
0.050226 -0.001373 0.011402 
0.067834 -0.010428 0.052486 
0.010296 -0.043002 0.000003 
0.058822 -0.042509 0.054114 
-0.058230 -0.048106 0.053475 
-0.021273 0.070627 0.048638 
0.063455 0.011323 0.024894 
0.044718 0.052074 0.034476 
-0.061669 0.005564 0.036880 
0.020361 -0.062727 0.038726 
-0.062956 -0.029789 0.037427 
-0.031236 0.051015 0.015413 
-0.020811 -0.062588 0.042614 
0.064829 0.019679 0.032655 
-0.072022 0.006729 0.044355 
-0.058960 -0.041146 0.054183 
-0.067497 0.034511 0.055099 
0.031853 -0.017765 0.003000 
0.022497 0.067121 0.039016 
0.001329 0.044447 0.002091 
-0.000375 0.059037 0.034365 
0.021642 -0.041943 0.002146 
0.025816 0.043133 0.003052 
0.065595 -0.033827 0.060000 
0.039997 -0.030873 0.003544 
-0.057056 0.043431 0.054186 
0.014374 0.033990 -0.000000 
-0.033480 0.055392 0.045762 
-0.043626 -0.016606 0.000000 
0.015457 0.059829 0.019450 
-0.041007 0.059201 0.043478 
0.036745 -0.034180 0.002854 
-0.035739 0.027986 0.000000 
0.024331 -0.008386 0.000000 
-0.033097 0.022298 0.000000 
0.071146 -0.007938 0.057406 
-0.061889 0.022673 0.028953 
-0.056028 0.041557 0.037019 
-0.061542 -0.022624 0.047480 
0.016090 0.046343 0.008510 
0.019511 -0.023289 0.003000 
-0.024205 -0.018702 0.003000 
0.033715 0.053921 0.044120 
0.030592 -0.001107 0.003000 
-0.046953 0.061535 0.058548 
0.064505 -0.041194 0.056703 
-0.046526 -0.003059 0.004999 
-0.044902 0.008760 0.000000 
-0.058431 -0.007664 0.014273 
-0.069415 -0.018251 0.043077 
-0.001353 0.076721 0.059124 
0.035511 0.030269 0.000000 
-0.055339 0.045943 0.043319 
-0.036254 0.028875 0.002753 
-0.068338 0.022724 0.042674 
-0.001119 0.004655 0.003000 
-0.027225 0.064814 0.039041 
-0.067894 0.016068 0.038141 
0.059476 -0.047032 0.054235 
0.051889 0.001037 0.014437 
0.036325 0.058362 0.034734 
-0.051661 0.001229 0.014105 
-0.007565 -0.051151 0.017467 
0.036621 -0.032567 0.011331 
0.065211 -0.017963 0.052046 
-0.049456 -0.008047 0.014032 
0.060843 0.004931 0.034823 
-0.021105 0.065088 0.046459 
0.005601 0.046880 0.000045 
0.014508 0.058307 0.016571 
0.012984 -0.042670 0.003000 
0.012492 0.057781 0.031674 
-0.043859 -0.050653 0.030980 
0.027846 0.048418 0.027665 
0.035366 0.049015 0.037856 
-0.023024 -0.058550 0.022005 
-0.017780 0.070882 0.059748 
-0.027363 0.044347 0.018913 
0.042291 0.052943 0.052702 
0.002453 0.066154 0.049616 
-0.032431 0.032366 0.000000 
0.030760 0.047838 0.011105 
-0.064347 -0.021749 0.052533 
0.072510 -0.003886 0.045889 
0.016197 0.054064 0.010811 
0.019264 -0.073648 0.055903 
0.061103 0.011824 0.039729 
0.065910 -0.030227 0.060000 
0.047988 0.045719 0.029338 
0.020862 -0.068542 0.054733 
0.065529 0.015070 0.032254 
-0.063202 -0.035014 0.058686 
0.005456 0.075018 0.060000 
0.069412 -0.006836 0.036678 
0.069932 -0.000930 0.050507 
-0.051980 -0.037523 0.037564 
0.022022 0.067429 0.040356 
-0.031081 0.038496 0.013979 
-0.050867 -0.010263 0.018264 
0.066725 0.011007 0.050455 
0.039265 0.052914 0.027332 
0.017687 -0.065741 0.033995 
-0.060834 -0.030286 0.033484 
0.030245 0.002728 0.000000 
0.002633 -0.019342 0.000000 
0.070981 0.021207 0.049680 
-0.019109 0.058607 0.021473 
0.043975 0.048514 0.027346 
-0.047347 -0.058853 0.053455 
0.033232 0.020596 0.000000 
0.031502 -0.030712 0.003000 
0.042591 0.018916 0.007951 
-0.009277 0.043421 0.000000 
0.065346 -0.011125 0.029848 
-0.034025 0.060557 0.036222 
-0.044770 0.051948 0.034618 
0.008287 0.072799 0.047468 
0.018129 0.044254 0.000771 
-0.052630 0.012718 0.007168 
-0.007016 0.071321 0.042151 
0.013977 -0.057750 0.031607 
-0.008327 0.007614 0.003000 
-0.022241 0.057291 0.035144 
0.057963 0.022157 0.020031 
-0.028265 0.020146 0.000000 
-0.043714 -0.032143 0.007809 
0.029085 -0.039697 0.002226 
0.061388 -0.014099 0.021772 
-0.000131 0.063500 0.023376 
-0.005295 0.030593 0.002338 
0.035398 0.048567 0.037143 
-0.048486 0.041375 0.023045 
0.070926 -0.009212 0.041943 
-0.010150 -0.001899 0.003000 
-0.025711 0.026051 0.003000 
-0.010103 -0.044617 0.000000 
-0.056461 0.020451 0.016783 
-0.019131 0.035184 0.000000 
-0.060770 -0.014472 0.040749 
0.026107 0.070775 0.060000 
0.048642 -0.035552 0.023335 
-0.005883 0.069751 0.057323 
0.032016 -0.053545 0.040725 
-0.064994 -0.000000 0.029769 
0.061112 0.022618 0.026637 
-0.057366 0.012481 0.014041 
-0.024789 -0.073019 0.060000 
-0.014458 -0.070819 0.045449 
0.016902 -0.036211 0.003000 
-0.032712 0.063135 0.058318 
-0.029006 0.055010 0.039551 
-0.019827 0.016102 0.000000 
-0.058005 -0.000069 0.013152 
0.038980 -0.057287 0.055886 
0.074813 -0.004002 0.053127 
0.061813 -0.000000 0.027067 
