
# .PCD v.6 - Point Cloud Data file format
FIELDS x y z 
SIZE 4 4 4 
TYPE F F F 
COUNT 1 1 1 
WIDTH 1647
HEIGHT 1
VIEWPOINT 0.000000 0.000000 0.000000 1.000000 0.000000 0.000000 0.00000
POINTS 1647
DATA ascii
0.046147 -0.059211 0.001111 
0.092342 0.051328 0.042129 
0.050822 0.117683 0.105000 
-0.104933 -0.030634 0.081259 
-0.011511 0.096911 0.056359 
0.081261 0.021189 0.008759 
-0.026355 -0.081462 0.011689 
0.048853 -0.031052 0.002809 
0.038951 0.117588 0.088968 
-0.066506 0.059601 0.014282 
0.045373 0.066795 0.005406 
-0.051768 -0.014993 0.000000 
-0.083766 0.097423 0.102212 
-0.012425 0.117823 0.098584 
-0.052817 -0.005468 0.000000 
0.030175 0.105690 0.074085 
-0.117666 0.043989 0.094378 
-0.090266 0.072682 0.065028 
-0.079801 -0.071423 0.071826 
-0.099428 0.007932 0.056323 
0.023264 0.072550 0.004533 
0.111734 -0.015880 0.059033 
0.046578 -0.070501 0.030823 
-0.004601 -0.071324 0.000000 
-0.112841 -0.046632 0.105000 
-0.008288 -0.097169 0.027061 
0.034924 0.066721 0.011352 
0.103555 0.038690 0.053653 
-0.115867 0.046597 0.092152 
0.032114 -0.011187 0.002586 
0.016228 0.106324 0.046845 
-0.020447 0.022079 0.002975 
-0.057255 -0.078271 0.026274 
-0.085874 -0.094937 0.100429 
-0.122760 0.037869 0.105000 
-0.088768 -0.091948 0.105000 
0.030579 -0.095216 0.052682 
0.019798 -0.126500 0.105000 
0.051257 -0.050812 0.000000 
-0.047989 -0.096037 0.047025 
0.092483 -0.072189 0.069265 
0.059529 0.096016 0.088276 
-0.085859 0.031988 0.018283 
0.090984 0.085405 0.091081 
-0.077011 0.070578 0.040383 
-0.096616 0.040136 0.070893 
-0.101899 0.000667 0.056607 
-0.063899 0.026973 0.003000 
0.125213 -0.016628 0.105000 
0.054485 -0.095397 0.051799 
-0.032744 -0.117298 0.083525 
-0.029748 -0.091843 0.042864 
0.046016 -0.073478 0.035065 
0.038039 0.080128 0.013209 
0.026339 -0.087919 0.018726 
0.035640 0.063076 0.000000 
0.046180 -0.088043 0.059168 
-0.041208 0.027462 0.002272 
-0.018992 0.002267 0.002906 
-0.106024 0.050271 0.069571 
0.078980 -0.040779 0.013525 
0.045213 -0.084934 0.025336 
-0.037489 0.061956 0.006305 
-0.106905 -0.026480 0.053055 
0.059572 0.044680 0.003474 
-0.119756 -0.018767 0.081230 
-0.089123 -0.081125 0.078153 
-0.039607 0.109630 0.087031 
0.006108 0.102539 0.036155 
-0.105020 0.034057 0.083452 
-0.084171 0.083979 0.073736 
0.082745 -0.031172 0.013204 
-0.103999 -0.075385 0.103397 
0.029410 0.113114 0.068976 
0.028741 -0.070393 0.000769 
-0.002830 -0.111911 0.056743 
-0.067737 -0.048834 0.020527 
0.086239 0.094453 0.100140 
0.088290 -0.021674 0.043216 
-0.023709 0.078723 0.007285 
-0.108933 0.042210 0.096133 
-0.045220 -0.041994 0.003000 
-0.038869 0.073723 0.027219 
0.050002 -0.054878 0.000000 
0.008984 -0.008417 0.000000 
0.086579 -0.015953 0.036330 
0.024307 0.124228 0.105000 
-0.092294 0.069379 0.083025 
0.099496 -0.049968 0.055683 
0.048240 0.112115 0.083430 
-0.075718 0.101996 0.105000 
0.089257 0.007996 0.014939 
0.000832 0.053623 0.000000 
0.030998 0.030101 0.002282 
-0.121890 -0.029711 0.093538 
0.070481 -0.046933 0.024624 
-0.034849 0.067523 0.012401 
0.067183 0.051226 0.023323 
-0.001822 0.072195 -0.000000 
0.050794 -0.051426 0.004368 
0.008916 0.111360 0.085535 
-0.071503 -0.071079 0.033358 
0.082733 -0.038455 0.017235 
0.051618 0.081547 0.055322 
0.090080 -0.026297 0.049574 
0.078791 0.077620 0.080835 
0.078897 0.037010 0.011567 
-0.078556 0.064954 0.059427 
0.093655 -0.049764 0.043729 
-0.063424 0.094934 0.061424 
-0.063284 -0.075874 0.059756 
0.018549 0.104061 0.070795 
0.069263 -0.006509 0.000000 
-0.084343 0.061372 0.058070 
-0.055255 0.057054 0.004317 
-0.101030 0.038337 0.078357 
0.032975 -0.067384 0.002996 
-0.031771 -0.075330 0.021833 
-0.116219 -0.014870 0.093341 
0.122102 -0.001234 0.082729 
-0.098045 -0.000000 0.029085 
-0.035937 -0.110521 0.074308 
0.095405 0.012420 0.051293 
-0.066269 -0.021687 0.000642 
-0.041083 -0.085904 0.050066 
0.006470 0.094682 0.051858 
0.048104 0.110329 0.098251 
0.051190 0.061980 0.022516 
-0.037958 0.117578 0.095787 
-0.022732 0.076917 0.005368 
0.089749 0.039298 0.057020 
0.062171 -0.009964 0.000000 
-0.120833 -0.037271 0.096860 
-0.082243 -0.043154 0.045091 
-0.058817 0.085699 0.070249 
0.077502 -0.059899 0.028173 
0.101029 0.010126 0.033474 
-0.023040 0.071939 0.005016 
0.057100 -0.106247 0.102122 
-0.061467 -0.085002 0.072545 
0.057556 -0.100884 0.093813 
-0.077394 0.102890 0.102790 
-0.121955 0.038889 0.101219 
-0.120470 -0.000000 0.088456 
-0.026078 -0.113974 0.069266 
0.005370 0.128725 0.102480 
0.068187 0.049372 0.018677 
0.056471 0.063682 0.009708 
0.089758 -0.009327 0.038388 
-0.053643 0.071506 0.040689 
-0.008944 0.088979 0.014505 
-0.094674 -0.074938 0.079310 
0.088181 -0.042392 0.028034 
-0.006170 0.107597 0.046993 
0.021735 0.005244 0.000000 
0.050796 -0.100749 0.058560 
0.053269 -0.060656 0.022378 
0.120542 0.013777 0.081257 
-0.099390 0.075034 0.090326 
-0.020043 0.059945 0.002659 
0.101948 0.058016 0.070047 
0.090137 0.056092 0.043678 
-0.084552 -0.084984 0.076655 
-0.058028 0.108264 0.086363 
0.066250 0.082273 0.042586 
-0.105215 -0.048306 0.092752 
-0.107650 0.025024 0.082945 
0.112337 0.052676 0.105000 
0.101922 -0.071232 0.100559 
-0.116553 -0.051737 0.099596 
-0.108511 -0.024103 0.055262 
-0.056979 -0.054718 0.003898 
-0.091139 0.079913 0.080444 
0.080159 -0.000000 0.011204 
-0.095685 0.065903 0.066081 
0.062227 0.049178 0.004078 
-0.059391 0.084114 0.036300 
-0.071094 0.010913 0.000000 
0.089314 -0.083760 0.103223 
0.088378 -0.076050 0.066903 
-0.007755 -0.103660 0.038832 
-0.079629 0.057768 0.039632 
-0.057597 -0.033158 0.000000 
-0.037515 -0.032973 0.002752 
-0.052549 -0.100943 0.061127 
-0.078723 0.008352 0.003740 
-0.104660 -0.063001 0.100781 
-0.002300 -0.068431 0.002956 
0.107012 -0.065385 0.093254 
0.054954 0.097585 0.085464 
0.118068 -0.026486 0.080635 
0.127126 -0.000000 0.104987 
-0.070303 -0.086763 0.085808 
0.017871 -0.085791 0.033904 
0.123123 0.003481 0.099627 
-0.105847 -0.049126 0.094483 
-0.094796 0.056895 0.053624 
-0.092236 0.053494 0.044380 
0.047044 -0.110517 0.077677 
-0.091393 0.053712 0.069231 
0.020434 0.071733 0.000461 
-0.039046 0.098192 0.067602 
0.002035 0.073621 0.009331 
0.108380 0.043513 0.095870 
-0.050774 -0.040279 0.000000 
0.067839 0.071123 0.057298 
-0.059381 0.044359 0.003000 
-0.099150 -0.021430 0.064361 
0.076875 0.057385 0.044969 
-0.001083 0.124920 0.090706 
-0.029030 0.019052 0.000000 
-0.086772 0.034954 0.048531 
-0.094616 -0.024179 0.028082 
0.031523 -0.123878 0.100363 
-0.008229 -0.103677 0.070021 
0.018805 -0.056597 0.002893 
-0.023471 0.117496 0.097924 
-0.046111 -0.086329 0.027739 
0.116471 0.042676 0.089625 
-0.078937 -0.008237 0.016758 
0.071508 0.030327 0.016172 
0.073971 -0.068437 0.059735 
-0.017555 0.111513 0.085843 
-0.035872 0.079420 0.033117 
-0.076821 -0.100382 0.095909 
0.014769 -0.098088 0.058736 
-0.013557 0.101033 0.064683 
0.098953 -0.016590 0.060788 
-0.053392 0.097821 0.083819 
-0.103241 -0.015536 0.039883 
0.033072 0.056102 0.000000 
0.005684 0.114327 0.091527 
-0.068068 0.049532 0.021601 
0.034049 -0.072552 0.019735 
0.013434 -0.120708 0.104410 
0.033154 0.088930 0.023840 
0.090912 0.003215 0.016841 
-0.083611 -0.089501 0.084184 
0.067667 -0.020830 0.002796 
0.057060 0.100000 0.091888 
0.017634 -0.117539 0.098011 
0.039457 0.116184 0.097663 
-0.052622 0.102726 0.091000 
-0.032635 -0.118361 0.099670 
-0.088555 -0.089850 0.095325 
-0.023691 -0.111191 0.060884 
0.115000 -0.032834 0.077025 
-0.058637 -0.054859 0.019364 
0.026509 0.103781 0.046470 
0.013726 -0.089426 0.041246 
-0.058828 0.067155 0.014251 
-0.037863 0.065078 0.001700 
0.083993 -0.086096 0.077818 
0.093934 0.001117 0.041399 
0.100398 -0.055394 0.063048 
0.096764 -0.033583 0.067103 
-0.123465 -0.002027 0.099410 
0.038761 0.091886 0.057117 
-0.084556 -0.041578 0.022306 
-0.087138 -0.024342 0.042900 
-0.028643 0.058791 0.002295 
0.026360 0.081164 0.012261 
0.085782 0.058890 0.038909 
0.080298 0.059208 0.030835 
0.068586 0.029554 0.000000 
0.073632 0.053345 0.016431 
-0.109744 0.059830 0.092165 
-0.105429 0.028150 0.050999 
0.023225 -0.071788 0.001695 
0.082636 -0.009673 0.007902 
-0.106411 -0.026986 0.081860 
0.057045 -0.070652 0.016667 
0.035823 -0.109637 0.065997 
-0.010770 0.112139 0.058205 
0.091933 0.015684 0.046572 
0.027057 -0.126916 0.105000 
-0.080566 -0.093770 0.087737 
-0.050111 0.080298 0.051009 
-0.044353 0.109288 0.071435 
-0.009922 -0.013171 0.002585 
0.081771 0.085944 0.097946 
0.032783 0.076707 0.025273 
-0.004350 0.101762 0.034597 
0.094472 0.029426 0.029921 
-0.094376 0.027182 0.058478 
0.099337 -0.040957 0.076696 
0.090526 0.067343 0.077594 
0.032451 -0.025631 0.002692 
0.031050 -0.094028 0.030067 
-0.116824 0.005006 0.068546 
0.040710 -0.072260 0.007466 
-0.024006 -0.009728 0.000000 
-0.066527 0.033203 0.008369 
-0.096584 -0.079818 0.092810 
0.043016 -0.106212 0.062434 
0.094550 0.081390 0.091087 
0.084345 0.082617 0.095531 
0.071415 0.042477 0.007638 
0.106057 0.015610 0.046316 
0.009663 0.125488 0.105000 
-0.094307 -0.000000 0.031817 
-0.100022 -0.000000 0.052520 
-0.027863 0.120985 0.089589 
-0.106648 -0.014204 0.074400 
-0.027520 -0.094125 0.028478 
0.035159 0.045001 0.002166 
-0.000125 0.016301 0.002391 
0.071981 0.059115 0.020490 
-0.123101 0.038146 0.105000 
-0.042424 0.114003 0.097515 
-0.033503 -0.102959 0.061529 
-0.034480 0.105701 0.062635 
-0.072896 -0.075762 0.041988 
0.089684 -0.064861 0.065829 
0.041814 0.019754 0.000000 
-0.008974 -0.129153 0.104417 
-0.051561 0.030756 0.000000 
-0.054883 0.112040 0.092049 
-0.017294 0.006949 0.002635 
0.060733 0.044194 0.003442 
-0.099285 0.017340 0.032659 
0.033339 -0.101900 0.047656 
-0.049772 0.077017 0.045209 
-0.027675 0.087792 0.019026 
0.030290 -0.074718 0.018954 
0.087445 -0.000000 0.020785 
-0.029649 -0.107614 0.056330 
0.044807 -0.017593 0.002650 
-0.028083 0.064338 0.002365 
0.027000 0.070638 0.008553 
-0.091141 -0.009537 0.017952 
-0.035189 -0.107586 0.061312 
0.038277 -0.091190 0.029960 
-0.043266 -0.097146 0.071011 
-0.100389 0.002504 0.032274 
0.088228 0.090243 0.095464 
0.030269 -0.092964 0.037127 
0.106136 -0.026646 0.081011 
0.058412 -0.099414 0.064330 
0.041695 -0.083644 0.046771 
0.063111 -0.102116 0.078050 
-0.007039 -0.122784 0.086013 
0.043184 -0.090559 0.032212 
0.105655 0.023600 0.078180 
-0.021834 -0.044755 0.003000 
-0.033010 0.053947 0.002101 
-0.074049 -0.081702 0.081935 
0.069233 0.079324 0.072387 
-0.071269 0.068132 0.029674 
-0.017474 -0.083634 0.029550 
0.107366 -0.033035 0.087378 
-0.070384 0.025462 0.000315 
-0.078009 0.065017 0.058882 
0.103710 0.025693 0.045653 
0.047444 0.063577 0.020787 
0.079835 0.068190 0.041644 
-0.086935 0.065121 0.069642 
0.080927 -0.057020 0.051116 
-0.081713 -0.054372 0.051013 
0.074490 -0.013396 0.011290 
0.012765 -0.048788 0.002833 
0.075630 0.023101 0.019588 
-0.093655 0.062382 0.057945 
0.053281 -0.093658 0.046950 
-0.039398 0.072822 0.026350 
0.038527 0.041791 0.002181 
-0.080710 -0.067991 0.042837 
0.125289 -0.029998 0.102887 
-0.072572 0.084436 0.084479 
0.099448 -0.068645 0.079563 
-0.059219 0.026993 0.003000 
0.067736 -0.064218 0.045379 
-0.016308 -0.093901 0.050282 
0.015157 0.075264 0.012649 
-0.025434 -0.110257 0.083307 
-0.054789 0.004360 0.003000 
0.048465 0.084917 0.057126 
0.004711 0.030678 0.002295 
-0.086335 -0.084757 0.101369 
-0.016347 0.126941 0.105000 
-0.093038 -0.068433 0.063974 
-0.021646 -0.110576 0.083951 
-0.077637 0.033482 0.029980 
-0.085991 0.011619 0.032490 
0.089470 0.051407 0.064072 
0.061348 0.028992 0.000000 
-0.011208 -0.091996 0.046434 
0.064849 -0.079401 0.036031 
-0.010990 -0.108985 0.051120 
-0.098379 -0.057417 0.061152 
0.091705 -0.019436 0.048464 
-0.097307 -0.029211 0.065613 
-0.053626 0.024443 0.003000 
-0.074996 -0.090070 0.068831 
0.093183 -0.005310 0.020383 
-0.110481 -0.029927 0.091560 
0.094428 0.056528 0.076857 
0.067819 0.017528 0.001014 
0.024433 -0.076164 0.011764 
0.081062 0.083237 0.065630 
0.043005 -0.043333 0.000000 
-0.004546 -0.015128 0.000000 
-0.089988 -0.086735 0.091783 
-0.008256 0.080825 0.023878 
0.084016 -0.015605 0.010029 
-0.098253 -0.071515 0.092090 
-0.024692 -0.110178 0.059221 
-0.031889 0.098376 0.050786 
0.078327 -0.060459 0.029780 
-0.074152 0.087205 0.061769 
0.026672 0.076305 0.017435 
0.029114 -0.083881 0.032643 
0.095448 0.060277 0.058951 
-0.063281 0.095052 0.090980 
-0.010441 0.080151 0.022516 
-0.061389 -0.075202 0.026898 
-0.004946 -0.002734 0.000000 
-0.071572 -0.030252 0.016375 
-0.011422 0.095307 0.053119 
0.047497 -0.009930 0.000000 
-0.086966 0.011418 0.012300 
-0.106170 -0.063523 0.104026 
-0.014349 -0.114549 0.064867 
-0.067808 0.098752 0.102455 
-0.084758 0.012651 0.010408 
-0.057279 -0.062883 0.031163 
0.021014 -0.074934 0.003003 
0.116580 -0.020014 0.097192 
0.050156 -0.008959 0.000000 
0.081994 -0.036372 0.014746 
-0.028829 0.041282 0.002271 
-0.036385 -0.030090 0.000000 
0.001228 0.087386 0.037126 
-0.089236 -0.083251 0.082867 
-0.043262 0.110355 0.073290 
0.120409 0.001641 0.077987 
-0.049453 0.032916 0.003000 
0.065519 -0.036367 0.008410 
0.021475 -0.037083 0.002764 
0.114264 -0.007114 0.084662 
0.119145 0.028789 0.105000 
-0.038702 0.062747 0.009005 
-0.107291 -0.070740 0.102373 
-0.023714 -0.073273 0.003038 
0.101427 0.020054 0.037812 
0.108101 -0.038777 0.063199 
0.064013 0.107059 0.091463 
-0.115380 -0.014530 0.091506 
-0.028046 0.123254 0.095823 
0.105269 0.060395 0.100325 
0.075811 -0.054771 0.026841 
-0.107310 0.005018 0.069836 
0.096402 0.044358 0.043769 
0.096929 0.064416 0.086638 
0.084184 0.080277 0.091516 
-0.049803 -0.088941 0.065277 
0.044582 -0.098490 0.074479 
-0.104217 -0.054171 0.094453 
-0.065367 -0.060195 0.036162 
-0.000107 -0.109179 0.050404 
0.033423 0.072327 0.018864 
-0.033556 0.102910 0.057616 
0.055702 -0.100005 0.090163 
0.075613 0.023351 0.019711 
0.040611 0.083220 0.019424 
0.111191 -0.045391 0.077992 
0.008315 -0.113813 0.061798 
-0.007171 0.123772 0.105000 
-0.095869 -0.021303 0.028667 
-0.010966 0.111910 0.057716 
-0.068515 0.073913 0.033180 
-0.004726 -0.016082 0.000000 
0.068997 -0.044349 0.020136 
0.003332 -0.103326 0.069313 
0.024250 0.112911 0.088666 
0.023179 0.097066 0.031276 
0.107788 0.054288 0.101422 
-0.059731 -0.092344 0.052436 
-0.115745 -0.000000 0.069173 
0.087532 -0.011142 0.035189 
0.016426 -0.076653 0.003371 
0.103569 -0.005117 0.038622 
0.097577 0.077283 0.090319 
0.045975 -0.108431 0.092531 
-0.055858 0.040309 0.003000 
-0.038117 -0.087228 0.023809 
-0.060235 -0.106001 0.083371 
0.008746 -0.050164 0.002836 
0.070013 -0.061458 0.043524 
-0.027101 0.085139 0.032589 
-0.112329 0.045666 0.104887 
0.017677 -0.126556 0.099750 
0.024786 -0.063542 0.000000 
0.030724 0.038110 0.002224 
-0.062835 0.043193 0.007521 
-0.045829 0.071683 0.031900 
-0.050820 -0.099165 0.083190 
-0.071923 -0.043778 0.025499 
-0.067688 -0.087763 0.053818 
-0.054871 0.063845 0.008843 
0.021896 0.071334 0.000017 
0.025805 -0.094659 0.028826 
0.077351 0.048593 0.017429 
0.050013 -0.103059 0.062373 
0.087346 -0.000000 0.025428 
-0.051908 0.084381 0.059878 
-0.109661 0.011139 0.078216 
-0.039259 -0.021415 0.002658 
-0.101454 0.079506 0.103439 
-0.074011 0.079598 0.078203 
-0.067068 0.024940 0.004222 
0.083950 -0.026565 0.012823 
-0.060709 -0.090388 0.080461 
-0.009282 0.105350 0.042353 
-0.080716 0.058339 0.035451 
-0.071811 0.102572 0.092490 
-0.122794 0.027203 0.093894 
-0.036370 -0.066996 0.013507 
-0.079384 -0.061027 0.053988 
-0.027168 0.110656 0.061674 
0.089010 0.061848 0.048516 
-0.088769 0.057565 0.066589 
0.124832 0.005670 0.104312 
0.076692 -0.003358 0.001572 
0.069861 -0.050445 0.019013 
-0.030760 -0.104055 0.049299 
0.042377 0.060959 0.000000 
0.048309 0.077250 0.016954 
0.058951 -0.043089 0.000000 
0.047677 0.071896 0.010720 
-0.088376 -0.000000 0.023129 
0.060034 -0.101926 0.072830 
0.006061 -0.003307 0.000000 
0.071740 0.093624 0.098716 
-0.045175 0.054193 0.002426 
-0.111948 0.011844 0.057993 
0.084310 -0.039804 0.046827 
-0.110479 0.026015 0.060678 
-0.004156 -0.105430 0.073560 
-0.102778 -0.022877 0.042085 
-0.026586 0.085051 0.014370 
0.087752 -0.040174 0.025911 
-0.033872 -0.040746 0.002795 
0.000900 0.007171 0.002452 
-0.070271 0.053183 0.012480 
-0.106137 -0.054448 0.098341 
0.026650 -0.082429 0.014896 
-0.061173 0.092829 0.054604 
0.071323 -0.102544 0.091678 
0.109620 -0.000000 0.068489 
0.044695 0.057024 0.000000 
0.065373 0.022526 0.000000 
0.085443 -0.036823 0.020291 
0.102125 -0.044456 0.084292 
-0.028501 -0.110100 0.061127 
0.059886 -0.069317 0.044483 
0.050131 -0.067043 0.029245 
-0.084792 -0.052380 0.055740 
0.021471 0.071014 0.000000 
-0.047013 -0.082862 0.023459 
0.046568 0.076496 0.014480 
0.092605 0.076768 0.095674 
0.021165 -0.098270 0.059103 
-0.024475 -0.071814 0.007510 
0.058542 0.046066 0.004580 
0.008813 0.128639 0.102931 
0.066849 -0.096498 0.097597 
0.002249 -0.007978 0.002553 
-0.018211 0.107271 0.077278 
-0.057073 -0.027154 0.000000 
-0.055955 0.090143 0.074188 
0.061520 -0.087232 0.044635 
-0.017985 0.078665 0.005607 
0.099317 0.080492 0.100374 
0.061712 -0.070605 0.021589 
0.065189 -0.031823 0.000000 
-0.006519 0.051092 0.002159 
0.043911 0.041566 0.000000 
0.048788 0.098329 0.051449 
0.030567 -0.094112 0.034950 
0.005892 0.057851 0.002114 
0.082839 0.023245 0.033595 
-0.007379 -0.122154 0.084300 
0.078270 0.056822 0.038139 
-0.062969 0.084754 0.073614 
-0.044868 0.056507 0.000000 
0.097232 -0.015764 0.056927 
0.059720 -0.087437 0.074189 
-0.015404 -0.094308 0.051104 
0.061755 0.044583 0.006310 
0.075924 -0.021108 0.018903 
0.099094 -0.042777 0.077356 
-0.031567 -0.014563 0.000000 
0.052006 -0.088406 0.066638 
-0.046263 -0.110850 0.077767 
0.007703 -0.119571 0.102114 
0.070509 -0.047179 0.009282 
-0.033775 0.113315 0.089482 
-0.067049 -0.061805 0.040821 
0.048767 0.074461 0.013591 
-0.008311 -0.115491 0.093876 
0.024190 0.093973 0.026790 
0.060999 -0.055498 0.022997 
-0.029820 -0.018125 0.002629 
-0.090384 -0.030188 0.024171 
-0.064883 -0.069205 0.023522 
-0.011168 -0.004173 0.000000 
-0.050800 -0.082893 0.056561 
-0.118392 0.033314 0.087059 
-0.004758 -0.026223 0.002675 
0.073022 -0.052743 0.020543 
-0.045814 -0.090889 0.034377 
-0.038743 -0.099976 0.046346 
0.010136 -0.093022 0.021020 
-0.003712 -0.035806 0.002739 
-0.004509 -0.065811 0.002939 
-0.022638 0.010153 0.003000 
-0.055349 0.111745 0.091889 
0.012794 -0.071183 0.004408 
-0.006784 0.073808 0.000000 
0.005430 -0.013439 0.002590 
-0.089689 -0.085851 0.089294 
-0.111651 0.028405 0.092829 
0.055254 -0.043199 0.003000 
-0.026974 0.083381 0.029352 
0.045943 0.076377 0.040199 
-0.089444 0.052645 0.064801 
0.105763 -0.004624 0.066582 
-0.091505 -0.075670 0.092587 
0.026465 0.082443 0.025366 
-0.042862 -0.083494 0.048215 
-0.001455 -0.042924 0.002786 
-0.083731 0.042548 0.047435 
0.065679 -0.047657 0.013835 
0.041770 0.119575 0.097328 
-0.051154 -0.104438 0.092203 
0.125077 -0.031541 0.103592 
0.034059 0.103693 0.052391 
-0.071757 -0.003522 0.003000 
0.111376 -0.039814 0.072793 
-0.105271 -0.022182 0.076676 
-0.091201 0.029007 0.024805 
0.007891 -0.059344 0.002896 
-0.005434 -0.126476 0.096131 
0.020745 -0.121434 0.086770 
0.077347 0.027669 0.006977 
-0.086790 0.020031 0.039278 
0.045132 -0.114829 0.087675 
0.070603 0.015453 0.000000 
-0.003478 -0.021106 0.002641 
-0.015178 0.079215 0.020627 
-0.070121 -0.033682 0.015725 
-0.000477 0.124955 0.090683 
0.016874 0.111900 0.059787 
0.002419 -0.074580 0.011266 
-0.099626 -0.048657 0.082149 
-0.006732 -0.056906 0.000000 
0.036398 -0.100798 0.046201 
0.026211 0.075562 0.015678 
-0.111916 0.011192 0.082635 
0.105035 -0.045915 0.090859 
0.061830 0.040457 0.000000 
-0.073266 0.031490 0.004214 
0.034041 -0.082260 0.035667 
-0.014074 0.117136 0.097198 
0.074566 -0.058884 0.044676 
-0.013998 -0.095452 0.053412 
-0.059031 -0.020478 0.000000 
0.029242 0.112643 0.067586 
-0.042091 0.091198 0.032423 
0.061728 0.053267 0.006259 
-0.108623 -0.054524 0.103202 
-0.111422 0.000599 0.075082 
-0.026689 0.042109 0.000000 
0.084877 0.061365 0.045332 
0.078988 0.057353 0.045771 
-0.075593 -0.017184 0.015921 
-0.024473 -0.108541 0.055528 
0.064485 0.033674 0.000000 
0.015148 -0.018340 0.002627 
0.048911 -0.075488 0.041705 
0.080394 -0.099854 0.101429 
0.005453 -0.108884 0.050725 
0.068383 -0.029504 0.009626 
0.059838 0.091722 0.081618 
0.118582 -0.029934 0.084856 
-0.067177 0.097474 0.099597 
0.094326 -0.049413 0.044823 
0.008802 0.078599 0.003727 
0.034279 -0.083405 0.015747 
0.023169 0.119601 0.082827 
0.114218 -0.011014 0.086999 
-0.085604 -0.002945 0.009958 
0.084957 -0.064415 0.044465 
0.070080 0.091902 0.064252 
0.105611 -0.018175 0.074718 
-0.071029 -0.096748 0.076889 
0.069585 0.037892 0.017215 
0.102473 0.035586 0.079450 
-0.091246 0.024113 0.022425 
-0.053930 0.113488 0.105000 
-0.038759 0.071912 0.006319 
-0.033409 0.106803 0.076333 
0.058075 -0.069526 0.016368 
-0.089582 0.029524 0.050613 
0.037341 -0.088563 0.025375 
0.031171 -0.092677 0.049461 
0.081791 -0.047390 0.022283 
-0.036913 -0.023489 0.000000 
0.030928 -0.060561 0.000000 
-0.080387 0.060545 0.032370 
-0.005008 0.013807 0.000000 
-0.079281 -0.041332 0.014389 
-0.107542 -0.026919 0.084008 
-0.117979 0.048316 0.099904 
0.108822 0.047075 0.072969 
0.071384 -0.021655 0.000458 
0.015750 0.126745 0.105000 
0.126376 0.000020 0.094651 
0.005404 0.084801 0.031905 
0.102904 0.011871 0.037450 
0.064334 0.060996 0.013383 
0.002178 -0.093790 0.050056 
-0.120222 0.008365 0.097025 
0.109143 0.022596 0.055909 
-0.088543 -0.072587 0.062020 
0.019744 -0.019095 0.002638 
0.024648 0.124409 0.096771 
0.005763 -0.073906 0.000000 
0.022468 -0.094424 0.027007 
0.074654 0.007252 0.007747 
-0.044617 -0.110050 0.073809 
-0.056364 0.049563 0.002561 
0.068747 -0.103361 0.105000 
-0.005282 -0.121637 0.082363 
0.006541 0.088566 0.039507 
-0.020069 0.112335 0.062067 
0.095332 -0.084415 0.098637 
0.069039 0.088770 0.057417 
-0.087858 -0.072272 0.082690 
-0.034374 0.066887 0.002001 
-0.094265 0.011503 0.048507 
0.127585 -0.018415 0.105000 
0.070649 0.051017 0.012001 
0.072048 0.006677 0.002357 
0.091964 0.086318 0.105000 
0.081534 0.014239 0.007622 
-0.067091 -0.031992 0.000000 
0.114103 0.054948 0.097457 
-0.059606 0.047174 0.007607 
0.078395 0.032963 0.031117 
0.056033 0.071389 0.043897 
0.055965 -0.087378 0.038101 
-0.076338 -0.004260 0.001243 
-0.108663 0.055355 0.083259 
-0.017221 -0.108083 0.051563 
0.049816 0.044223 0.002969 
0.067861 -0.036690 0.013134 
-0.077370 0.014568 0.003849 
0.082052 -0.003375 0.019701 
-0.042011 0.085615 0.050371 
-0.046315 -0.044676 0.000000 
0.032698 0.070599 0.015187 
-0.031143 -0.085446 0.017241 
-0.067687 0.016218 0.000000 
0.089946 -0.019501 0.045085 
-0.032513 -0.121786 0.095571 
0.070377 0.100770 0.085749 
-0.056805 0.099499 0.090637 
0.032343 -0.098880 0.041222 
0.097805 0.048703 0.050342 
0.063064 -0.031688 0.000735 
-0.084215 -0.041840 0.021998 
0.048522 -0.115177 0.092293 
0.001005 0.082991 0.028250 
-0.016456 0.083403 0.029083 
0.080424 0.045255 0.042753 
0.010082 0.114677 0.092233 
0.111103 0.035324 0.067669 
0.120997 -0.007694 0.098114 
-0.003273 -0.075757 0.013645 
0.053588 0.041707 0.000000 
-0.056381 0.023725 0.000000 
0.103833 -0.000648 0.039043 
0.068953 0.065499 0.023945 
0.021617 0.120296 0.084031 
0.029592 -0.011001 0.002582 
0.025523 0.067749 0.000000 
0.015219 0.127782 0.102120 
0.038250 -0.058873 0.002121 
0.098146 -0.036247 0.040846 
-0.034397 -0.105198 0.057130 
-0.013010 0.069347 0.000000 
0.118520 0.007787 0.093356 
-0.072970 0.016107 0.001143 
0.061217 0.105556 0.083487 
-0.059254 0.024877 0.000000 
0.069671 -0.042563 0.020316 
0.066303 0.076922 0.065017 
-0.004589 -0.117997 0.098936 
0.036201 -0.045250 0.002849 
0.055420 -0.091505 0.045178 
-0.094616 -0.049368 0.044639 
0.060106 -0.108583 0.089609 
0.104494 -0.048402 0.091355 
0.029827 -0.009106 0.000000 
0.077003 -0.056446 0.023869 
0.094136 0.068512 0.082143 
0.123749 -0.002447 0.100201 
-0.049111 0.029212 0.003000 
-0.072026 0.023288 0.012750 
-0.035356 -0.109753 0.082328 
0.020691 0.009589 0.002437 
-0.078171 -0.025618 0.026272 
-0.019456 -0.022183 0.000000 
-0.023434 -0.031237 0.000000 
0.040816 -0.056834 0.001734 
0.112508 -0.042164 0.103057 
-0.033418 -0.005859 0.002532 
0.010104 -0.004456 0.002533 
-0.117180 0.007976 0.090869 
-0.026423 0.042082 0.000000 
-0.015208 -0.072029 0.000000 
0.093718 -0.046300 0.069095 
-0.047063 -0.007916 0.000000 
-0.037610 -0.115297 0.082407 
0.099020 -0.020466 0.033241 
-0.056184 0.116178 0.104407 
-0.006953 0.124183 0.105000 
0.050230 -0.049695 0.000000 
0.075914 -0.055191 0.035880 
-0.113089 -0.017739 0.062879 
-0.047417 0.014964 0.000000 
-0.084879 0.028075 0.040567 
0.129005 -0.000480 0.105000 
-0.083350 -0.043381 0.021845 
-0.009472 0.115770 0.094439 
-0.059390 0.014796 0.000000 
0.006653 -0.090162 0.015941 
-0.004471 0.024297 0.000000 
-0.060549 -0.102583 0.100212 
-0.012595 -0.063708 0.000000 
-0.077340 0.055883 0.028142 
-0.086529 0.034530 0.047797 
-0.004910 0.080282 0.022781 
0.063233 -0.080759 0.067335 
-0.095134 -0.069071 0.069577 
-0.085029 0.016704 0.011067 
0.026890 0.012044 0.000000 
0.034548 -0.119121 0.090024 
-0.026991 -0.114953 0.092789 
0.025252 -0.101461 0.065545 
-0.072818 -0.087550 0.090051 
0.072911 -0.102484 0.093938 
0.050112 -0.091288 0.038732 
-0.069260 -0.100417 0.083158 
0.083650 -0.053133 0.053927 
0.074615 -0.008104 0.008208 
-0.013268 -0.119650 0.102273 
0.015108 -0.124470 0.092812 
-0.120805 -0.000000 0.088629 
0.034087 -0.049884 0.000000 
0.075739 0.049803 0.016253 
-0.090614 0.065537 0.056893 
0.119352 0.003520 0.075414 
-0.116976 -0.004856 0.068945 
-0.124986 0.020093 0.096489 
0.064031 -0.099107 0.098560 
0.035024 0.036043 0.000000 
0.029590 0.091328 0.038087 
0.023248 -0.096530 0.055590 
-0.016571 0.103288 0.040460 
0.049876 0.051453 0.000000 
-0.079007 -0.088177 0.071913 
-0.030848 -0.095287 0.044164 
0.065726 -0.061209 0.015241 
0.079844 0.014292 0.006082 
0.053767 0.057758 0.003780 
-0.047363 0.056327 0.000000 
-0.017140 -0.001755 0.000000 
-0.101287 -0.013157 0.034545 
-0.011696 -0.001404 0.000000 
0.103813 0.051782 0.092135 
0.058665 0.092295 0.050581 
0.026176 0.080731 0.019388 
0.046772 -0.008754 0.000000 
-0.069954 0.103774 0.105000 
-0.024864 0.076368 0.015403 
-0.037040 -0.065451 0.000000 
0.080336 0.069864 0.044711 
0.002120 0.071618 0.005287 
-0.126984 0.021702 0.102701 
-0.069498 0.077729 0.069764 
0.081749 0.004874 0.006348 
0.052444 -0.101034 0.087997 
-0.091353 -0.062038 0.053182 
0.004929 -0.096390 0.055306 
-0.108467 0.007298 0.049925 
0.012994 -0.085981 0.034288 
0.013048 0.032009 0.002286 
-0.040520 0.060890 0.002019 
0.066024 0.105027 0.105000 
-0.082947 0.051978 0.051845 
0.067405 0.034219 0.010702 
-0.113588 -0.038268 0.102742 
-0.098628 0.032343 0.038672 
0.002447 -0.091217 0.044862 
-0.109426 0.013709 0.079357 
0.080737 -0.021626 0.028514 
-0.073105 0.094178 0.101189 
-0.062107 0.100208 0.071765 
0.033776 0.063820 0.000000 
0.084858 0.094316 0.097083 
0.088979 0.034443 0.052502 
-0.083635 0.001711 0.008019 
0.042751 0.055247 0.002054 
0.038311 0.117854 0.094688 
0.020136 0.090192 0.042792 
0.033077 0.122184 0.096717 
-0.026937 0.106620 0.075963 
-0.011353 -0.091359 0.045149 
-0.017761 0.098863 0.060300 
-0.024594 0.053787 0.000000 
-0.086411 -0.050014 0.057408 
0.093943 -0.078385 0.084187 
0.075859 -0.037597 0.009237 
0.069703 -0.044549 0.021625 
-0.119826 0.032402 0.090227 
-0.044392 0.111879 0.096343 
0.096102 -0.055220 0.054086 
0.029210 0.086587 0.037228 
-0.039490 0.036108 0.002215 
0.103705 0.029044 0.077776 
-0.011905 -0.067314 0.000000 
-0.050925 0.030202 0.003000 
-0.012054 0.035874 0.000000 
-0.115924 -0.045908 0.105000 
0.006102 0.076916 0.001916 
-0.067755 -0.107653 0.098696 
-0.039507 -0.061712 0.008367 
-0.032138 0.099188 0.061266 
-0.023580 -0.073411 0.007293 
-0.043547 0.107001 0.087290 
-0.033346 -0.085301 0.039987 
-0.039894 0.021558 0.000000 
-0.079214 0.003940 0.003913 
0.022265 -0.108476 0.079712 
-0.058948 0.101532 0.070191 
-0.047986 -0.098945 0.079500 
0.041290 -0.116915 0.089460 
0.066177 0.000123 0.000000 
0.117517 0.048396 0.098700 
-0.084058 -0.045092 0.023982 
-0.030195 -0.048116 0.000000 
-0.038960 -0.106875 0.060749 
-0.099136 -0.072175 0.095083 
0.051179 -0.084345 0.029014 
-0.006294 -0.059196 0.000000 
0.015085 -0.073229 0.000526 
0.077750 -0.056636 0.044739 
0.005899 -0.113735 0.090331 
-0.085465 -0.000000 0.022908 
0.035851 0.097649 0.063120 
0.099224 0.075962 0.091653 
0.072840 0.062565 0.048880 
0.059180 -0.043115 0.000258 
0.002670 -0.041748 0.000000 
-0.025289 0.077992 0.013968 
0.016606 -0.113925 0.064318 
-0.122261 -0.020638 0.089014 
0.107974 -0.069952 0.102825 
-0.028121 0.081059 0.010558 
-0.003599 0.053310 0.000000 
-0.107651 0.055496 0.080894 
0.067830 0.048967 0.010073 
0.107989 -0.027911 0.056200 
-0.093674 -0.083047 0.092192 
-0.114521 0.017547 0.066242 
-0.002120 0.008743 0.002442 
-0.092043 -0.066635 0.062728 
-0.080176 -0.086917 0.097663 
0.117762 0.006820 0.091281 
0.075000 0.003324 0.000902 
-0.044685 0.054000 0.000000 
0.060960 -0.085448 0.072376 
0.076024 -0.016311 0.016081 
0.049015 -0.008843 0.000000 
-0.022626 -0.086760 0.014952 
-0.100787 -0.057758 0.090034 
0.085172 0.090228 0.105000 
-0.100328 0.001216 0.032170 
0.074881 -0.051805 0.016706 
-0.090978 0.006400 0.017160 
-0.106088 0.011922 0.044711 
-0.081825 0.084508 0.069911 
0.093462 -0.072919 0.072901 
-0.127914 -0.011804 0.101486 
-0.096819 -0.006436 0.026858 
0.047543 0.033280 0.002591 
-0.007851 -0.114320 0.062802 
0.080663 -0.034249 0.036302 
0.031375 -0.067633 0.008572 
0.105875 0.006825 0.068171 
-0.068211 0.033168 0.011597 
0.003091 0.120128 0.103239 
0.060905 -0.083624 0.069301 
0.102505 0.049641 0.060840 
-0.026049 -0.079387 0.008496 
0.085587 0.021851 0.038071 
-0.021530 -0.059333 0.000000 
0.030825 -0.061778 0.000000 
-0.085563 0.062247 0.063344 
0.030677 -0.084009 0.034657 
-0.021942 0.015456 0.003000 
-0.028688 -0.104070 0.070814 
0.129398 0.001073 0.103514 
-0.107182 -0.056419 0.081495 
0.127375 0.020897 0.103424 
-0.049927 -0.029703 0.000000 
-0.011694 0.077374 0.016910 
-0.097140 -0.052536 0.079740 
-0.074402 0.017175 0.001550 
0.071841 0.062707 0.047945 
-0.073519 0.029115 0.003759 
-0.055739 0.058239 0.021281 
-0.094557 -0.064065 0.081883 
0.092206 -0.089295 0.105000 
0.032926 -0.084880 0.038682 
-0.053052 -0.090490 0.071629 
-0.020014 -0.067693 0.000000 
-0.006804 -0.058616 0.002891 
0.022146 -0.113873 0.066555 
0.073705 -0.066810 0.056735 
-0.115125 0.025817 0.097973 
-0.076479 -0.085611 0.062249 
-0.043891 -0.079354 0.042654 
-0.014223 -0.093877 0.022988 
-0.063383 0.020742 0.000000 
0.005859 -0.106722 0.045897 
-0.025268 0.124330 0.096878 
-0.042291 0.116473 0.101433 
0.093060 0.024282 0.054114 
0.088177 -0.008495 0.013188 
0.055674 -0.030821 0.003000 
-0.080379 0.016433 0.006788 
-0.053337 0.101921 0.063739 
0.099776 0.072201 0.090919 
0.104541 -0.023875 0.046475 
-0.059900 -0.100885 0.070092 
0.006582 0.121766 0.105000 
-0.095353 0.069297 0.080973 
-0.093468 0.037923 0.063395 
-0.058067 0.032276 0.003000 
0.036919 0.107913 0.061451 
-0.039618 0.105936 0.059295 
-0.080389 0.061449 0.055817 
-0.048122 -0.055920 0.008805 
0.098620 0.029953 0.068454 
-0.117269 0.041630 0.090782 
-0.111888 0.009939 0.081799 
0.013670 -0.047078 0.002823 
-0.002014 -0.002608 0.000000 
0.011809 -0.056576 0.000000 
-0.035074 -0.105708 0.055392 
0.091791 0.086500 0.095085 
0.062544 -0.091524 0.084282 
0.081094 -0.016278 0.007426 
-0.010079 -0.123723 0.089282 
0.104708 0.011930 0.041577 
-0.021572 0.014810 0.000000 
0.072347 0.079709 0.076676 
0.075198 0.081176 0.082425 
0.001268 -0.005497 0.002537 
0.068068 -0.048344 0.020854 
0.014895 -0.076764 0.003127 
-0.091903 0.089898 0.102477 
0.102633 0.026408 0.074051 
-0.019363 0.108849 0.080465 
-0.060484 -0.029252 0.003000 
-0.065949 0.077283 0.064819 
-0.052927 0.071328 0.039545 
0.031348 -0.060864 0.002942 
0.030366 -0.093925 0.043842 
0.094565 0.006795 0.046160 
0.057932 0.103460 0.098570 
0.076265 -0.082583 0.085801 
-0.069751 0.043270 0.020914 
0.039133 -0.017002 0.000000 
0.116576 -0.015656 0.094473 
-0.045160 0.087005 0.056287 
0.023098 -0.118546 0.100045 
-0.024280 0.121268 0.087989 
0.036940 -0.082582 0.039541 
-0.022771 0.003378 0.000000 
-0.022336 0.026672 0.000000 
0.125085 0.003411 0.103398 
0.022929 -0.091754 0.045945 
-0.109236 0.030483 0.060408 
0.103341 -0.071794 0.094223 
-0.108145 0.021966 0.082004 
-0.035986 0.114336 0.091544 
0.086352 0.071518 0.056944 
0.047325 -0.101546 0.056506 
0.070365 -0.085087 0.082936 
0.118446 -0.037811 0.105000 
-0.071646 0.090422 0.063860 
-0.052526 0.011402 0.000000 
-0.011549 0.127611 0.105000 
-0.038301 0.037813 0.000000 
0.117628 0.015488 0.096413 
0.114218 -0.021853 0.093744 
-0.050444 0.097633 0.080011 
0.005185 0.097231 0.027506 
0.100192 0.022321 0.036175 
0.116175 0.008866 0.067611 
-0.026399 -0.004165 0.002575 
0.103355 -0.000000 0.052373 
0.011329 -0.001587 0.002516 
-0.002147 0.056810 0.000000 
-0.024712 -0.014473 0.000000 
0.011164 0.089986 0.016673 
0.031154 0.108687 0.059590 
-0.074157 -0.018206 0.001643 
-0.077616 -0.056085 0.025098 
0.062072 -0.053545 0.021047 
0.037595 0.092912 0.057424 
-0.000168 -0.121849 0.081753 
0.029262 -0.090418 0.026889 
-0.056257 -0.058721 0.023020 
0.029378 0.066507 0.000000 
0.112790 -0.039392 0.101880 
0.055889 -0.078793 0.055380 
-0.072516 0.041222 0.007910 
0.035710 0.105911 0.076463 
-0.081872 0.097227 0.105000 
0.004822 0.101732 0.066094 
0.006487 0.106872 0.076473 
0.098336 -0.054329 0.057994 
-0.104937 -0.000000 0.053512 
0.098881 -0.069088 0.093340 
-0.052327 0.040086 0.000000 
0.078752 0.087382 0.069600 
0.061657 0.095565 0.090039 
-0.110369 -0.066088 0.102666 
0.115903 -0.011314 0.067416 
0.007999 0.020861 0.000000 
0.021536 -0.120063 0.083351 
0.018232 0.080174 0.007018 
0.020707 -0.043817 0.000000 
-0.119557 -0.029264 0.086918 
0.089154 0.016767 0.016120 
-0.068850 0.030432 0.011110 
0.127070 0.026419 0.104944 
-0.048512 0.064074 0.005053 
-0.107455 0.019588 0.079183 
-0.044900 -0.099180 0.076257 
-0.074959 0.042105 0.010410 
-0.069161 0.092499 0.093741 
0.070826 0.008033 0.000000 
-0.062261 0.037461 0.000000 
-0.124718 -0.008018 0.091682 
-0.028910 0.016269 0.002378 
-0.019868 0.097562 0.030769 
-0.060758 0.107920 0.088996 
-0.058508 -0.100165 0.066187 
0.055626 -0.008156 0.000000 
0.033122 0.062376 0.001988 
-0.088176 -0.012102 0.013806 
-0.041167 0.092168 0.033220 
-0.077147 0.035482 0.030292 
0.091060 -0.047422 0.064637 
-0.103532 0.027105 0.076232 
-0.030042 0.055654 0.000000 
0.006858 -0.028401 0.000000 
0.050330 -0.033203 0.003000 
-0.021089 0.112534 0.062887 
0.055481 0.053500 0.013396 
-0.102786 -0.064230 0.081108 
-0.092367 0.034229 0.058956 
0.012335 -0.082228 0.026711 
-0.059368 0.061514 0.030990 
-0.023000 -0.059337 0.000000 
-0.059099 0.089493 0.045822 
0.038127 0.009049 0.000000 
-0.016524 0.113917 0.090698 
-0.080174 -0.021385 0.027487 
-0.092835 0.011773 0.020956 
-0.011460 0.072102 0.006264 
-0.102790 -0.042648 0.084552 
-0.012051 -0.072545 0.000000 
0.012010 0.107438 0.047774 
-0.094290 0.084382 0.096126 
-0.053402 -0.062909 0.026659 
0.104971 0.070561 0.096323 
-0.072098 0.002456 0.003000 
0.022585 -0.068657 0.000112 
-0.032919 -0.062528 0.002004 
-0.087085 0.093634 0.100199 
-0.082367 0.059539 0.040679 
0.063863 0.077824 0.032805 
0.021716 0.103572 0.043195 
-0.081558 -0.086456 0.073449 
0.023347 -0.026976 0.000000 
0.020355 0.047371 0.000000 
0.001043 -0.119662 0.102297 
-0.076569 0.029103 0.025169 
-0.065934 -0.100075 0.077242 
0.108155 0.006813 0.048314 
-0.091119 0.061337 0.051939 
-0.091895 0.030979 0.026832 
-0.035952 0.089681 0.050057 
-0.110567 -0.014558 0.056089 
0.088474 -0.080964 0.076447 
0.030568 0.094660 0.049727 
0.039858 0.115132 0.083084 
-0.053538 0.036615 0.000000 
-0.022913 -0.097837 0.058229 
0.097308 0.081523 0.097691 
-0.075302 -0.014272 0.013511 
-0.057851 0.044552 0.001223 
-0.087380 0.018827 0.013984 
0.127921 0.001294 0.099367 
-0.097643 -0.007420 0.028154 
0.092630 0.065338 0.078922 
0.028029 0.119343 0.084933 
0.019954 -0.051850 0.002863 
0.075478 -0.014814 0.002141 
-0.057860 0.090044 0.045317 
-0.089305 -0.027106 0.048820 
0.022293 -0.123020 0.091856 
-0.028318 0.046292 0.002335 
0.027030 -0.005639 0.002547 
-0.126615 0.005018 0.096440 
0.120213 -0.040414 0.097770 
0.063554 0.105450 0.086840 
0.068465 0.035757 0.013713 
-0.109115 0.018945 0.054495 
-0.119159 0.001623 0.090764 
0.061873 -0.009790 0.003000 
-0.078185 -0.058374 0.048154 
0.076790 -0.052683 0.020065 
0.013428 -0.078356 0.018893 
-0.096422 -0.007791 0.050475 
0.057438 -0.055468 0.018723 
0.101992 -0.079458 0.104593 
-0.012947 0.000171 0.002494 
-0.093159 0.067456 0.065762 
0.069449 0.097613 0.102545 
-0.106275 0.016520 0.074980 
0.041019 -0.078583 0.037681 
-0.118997 0.028419 0.084719 
0.005762 0.075736 0.013602 
-0.093837 0.083388 0.093210 
0.084748 -0.049174 0.053558 
-0.058315 -0.007961 0.000000 
-0.063700 0.075775 0.059663 
0.023840 0.020398 0.002358 
0.036538 -0.123040 0.105000 
-0.112992 -0.028449 0.095505 
0.037246 0.119800 0.093622 
0.053045 -0.086841 0.033950 
0.021002 -0.087084 0.036516 
0.065401 0.083954 0.075455 
-0.106733 -0.015388 0.047751 
-0.057008 0.115023 0.102491 
-0.005716 -0.095161 0.023513 
0.089955 0.088714 0.105000 
-0.051713 0.109227 0.100650 
0.098100 -0.077734 0.092504 
-0.083013 -0.060413 0.035625 
-0.082708 -0.071213 0.074884 
-0.114550 0.005336 0.062845 
-0.111831 -0.000000 0.066207 
0.091290 -0.017174 0.046249 
-0.002974 -0.083588 0.029456 
0.106464 -0.061001 0.085554 
-0.006153 -0.107793 0.048369 
-0.103385 0.015976 0.040409 
0.090684 0.090858 0.101930 
0.038723 0.073286 0.007329 
0.074475 0.087352 0.062470 
-0.083489 0.014030 0.029125 
0.084375 -0.064396 0.043435 
-0.089442 -0.031901 0.023613 
0.100933 0.043344 0.081283 
0.118062 0.027153 0.081168 
0.107011 0.041154 0.091740 
0.114669 0.035735 0.103259 
-0.012603 -0.001427 0.000000 
-0.089739 0.034889 0.025672 
-0.013298 0.049409 0.002162 
-0.031046 -0.066154 0.005859 
-0.056476 0.064667 0.010448 
-0.105873 0.007906 0.043939 
-0.009581 0.061895 0.002085 
0.080544 -0.066114 0.039631 
-0.052180 -0.081130 0.055300 
0.083989 -0.056951 0.033594 
0.071153 -0.057403 0.038185 
-0.053144 0.048081 0.001586 
-0.063935 0.095708 0.092837 
-0.005771 0.085241 0.032795 
0.086583 -0.062960 0.061725 
-0.076273 -0.050782 0.017829 
0.064519 -0.029564 0.000000 
-0.126704 -0.025809 0.103660 
0.025116 -0.077694 0.008151 
-0.092861 0.088206 0.105000 
-0.039725 -0.074966 0.009260 
-0.016468 0.093745 0.049965 
0.073957 0.103788 0.105000 
0.091443 0.063411 0.054916 
0.089188 0.051622 0.036155 
-0.035314 0.108368 0.066255 
-0.050809 0.067262 0.030387 
0.043661 -0.106460 0.063435 
0.054557 0.049757 0.000000 
-0.014626 -0.082507 0.027274 
0.017086 -0.051130 0.002852 
0.101875 -0.051338 0.061645 
-0.111033 -0.000805 0.074462 
0.085101 -0.085613 0.079134 
0.030927 -0.047690 0.000000 
0.083940 -0.024748 0.012265 
-0.040592 -0.070404 0.005801 
-0.066173 0.062967 0.041460 
-0.033111 -0.012461 0.002582 
0.066110 -0.048039 0.012862 
0.035506 -0.108832 0.065994 
0.067902 -0.061745 0.018380 
-0.014125 0.066079 0.002049 
0.076729 0.017304 0.018065 
0.058979 -0.090448 0.047429 
0.047334 0.031924 0.000000 
-0.042033 0.010050 0.000000 
-0.076678 -0.055801 0.039909 
0.077471 0.096341 0.087825 
-0.026184 -0.108881 0.057204 
0.085320 0.055351 0.033971 
0.082548 0.008935 0.024124 
-0.076696 -0.010212 0.013651 
0.030783 0.046302 0.002165 
-0.108336 0.020734 0.053425 
-0.022403 -0.034997 0.000000 
0.057263 -0.048484 0.002482 
-0.064369 -0.076099 0.031211 
-0.102236 -0.078679 0.105000 
-0.085743 -0.021287 0.012857 
0.025566 0.110600 0.060695 
-0.056682 -0.049181 0.002031 
0.016065 -0.066425 0.002955 
0.021025 -0.086138 0.034605 
0.024979 -0.096351 0.031074 
0.091579 0.037461 0.030055 
0.074133 0.051687 0.034656 
0.127783 -0.007236 0.100192 
-0.033352 0.102966 0.065693 
0.056493 -0.049179 0.000000 
0.074499 0.103694 0.105000 
-0.044203 -0.035627 0.002824 
-0.104438 -0.064995 0.086321 
-0.050806 0.072055 0.038253 
-0.071823 -0.005279 0.001053 
0.088143 -0.085972 0.086295 
-0.043517 0.058407 0.002022 
-0.103257 0.016094 0.068847 
-0.100680 -0.036188 0.076466 
-0.066978 -0.015239 0.000000 
-0.048580 -0.085672 0.058495 
0.079738 0.080917 0.087337 
0.116226 -0.019353 0.096092 
0.074213 0.035058 0.024365 
0.011135 0.065868 0.000000 
0.007778 -0.023893 0.000000 
-0.065880 0.013937 0.000000 
-0.066030 0.053499 0.025666 
-0.000499 -0.067864 0.000000 
0.110258 -0.017693 0.083455 
0.076884 0.009764 0.013627 
-0.016419 -0.016487 0.002672 
-0.058125 -0.098849 0.062955 
-0.033247 -0.065891 0.002986 
0.057136 -0.018885 0.003000 
-0.096724 -0.068176 0.072050 
0.101130 0.010459 0.061205 
-0.065175 0.104322 0.086606 
-0.088883 -0.093340 0.103364 
0.020360 0.069589 0.001190 
-0.029776 0.091696 0.041255 
-0.002854 0.039888 0.000000 
0.037765 0.079628 0.035905 
-0.025471 -0.059660 0.002922 
-0.063502 -0.039248 0.006379 
0.039361 0.103085 0.076132 
-0.067950 -0.081935 0.044426 
0.123169 0.025923 0.105000 
-0.101703 -0.013337 0.035388 
-0.073908 0.089995 0.095239 
-0.042380 -0.120505 0.100585 
0.033463 0.002306 0.000000 
0.053634 0.083310 0.060573 
-0.115901 0.035260 0.081332 
-0.104075 -0.000000 0.054898 
-0.119185 -0.042276 0.096782 
0.084976 -0.026046 0.013987 
-0.007163 0.032146 0.000000 
-0.027546 0.084671 0.022892 
-0.023520 0.124719 0.097211 
0.102622 0.056034 0.069060 
0.027998 -0.125182 0.100949 
-0.094723 0.012881 0.050253 
-0.091972 0.063257 0.076345 
0.020756 -0.122789 0.090543 
-0.066230 -0.097733 0.071762 
-0.069319 -0.011698 0.000000 
-0.072501 0.099857 0.105000 
0.070572 0.093064 0.096427 
0.088775 -0.090451 0.097055 
-0.066416 -0.065596 0.021119 
0.084577 -0.035565 0.018199 
-0.037384 -0.053985 0.000000 
-0.055473 -0.019769 0.000000 
-0.105593 -0.000000 0.043491 
-0.059007 0.066948 0.014184 
0.063702 0.073955 0.027884 
0.089865 0.023181 0.019889 
-0.071876 -0.008746 0.000000 
-0.035699 -0.097018 0.037996 
-0.077254 0.050632 0.040016 
-0.059954 0.066010 0.014116 
-0.069416 0.061907 0.020334 
0.096665 -0.011734 0.053316 
-0.096304 0.072019 0.077688 
0.106766 0.002249 0.067056 
-0.111702 0.022864 0.089481 
-0.033848 -0.068473 0.013015 
-0.038220 -0.116257 0.096329 
-0.119974 0.029192 0.087976 
-0.089712 -0.050007 0.063794 
-0.059053 0.040908 0.003000 
-0.060321 -0.077842 0.059491 
-0.026088 -0.051394 0.000000 
0.024615 0.031908 0.000000 
-0.060266 -0.021769 0.000000 
0.092524 0.037815 0.061493 
0.108110 -0.010500 0.074803 
-0.031423 -0.070169 0.012986 
0.016407 -0.072992 0.008061 
0.055561 0.051490 0.010134 
0.009976 -0.077453 0.017068 
-0.042496 -0.033970 0.002770 
0.097420 0.053104 0.054370 
0.007482 -0.096589 0.026025 
0.080862 0.081826 0.090144 
-0.092315 0.076161 0.076136 
-0.032095 -0.006360 0.000000 
-0.046562 0.076608 0.040833 
-0.106636 0.000784 0.045074 
-0.029983 -0.111941 0.066249 
-0.027023 0.115276 0.093441 
-0.021379 0.123657 0.093361 
-0.047209 -0.077841 0.044081 
0.101707 -0.032313 0.045204 
-0.064946 0.033800 0.005692 
-0.120036 0.037312 0.094612 
0.023800 -0.086424 0.015133 
0.034342 -0.098809 0.063187 
0.024143 -0.075521 0.012848 
-0.087408 0.017144 0.013484 
0.074387 0.053736 0.024577 
0.040040 0.078740 0.037126 
0.058276 -0.098058 0.090003 
-0.076931 -0.029329 0.007014 
0.002540 0.098116 0.028896 
0.015594 0.091146 0.019399 
0.069234 -0.103061 0.105000 
-0.017607 0.075796 0.013723 
0.074169 -0.079317 0.077926 
-0.098027 -0.060835 0.086598 
0.001596 0.081429 0.025096 
-0.013184 -0.018047 0.002619 
0.048171 0.110054 0.077593 
0.120857 0.005128 0.080097 
-0.013128 -0.108452 0.079663 
-0.062472 0.094113 0.058678 
0.008240 0.052246 0.000000 
0.035130 -0.087601 0.045692 
0.072553 -0.010643 0.005824 
-0.030970 -0.040354 0.000000 
-0.108255 -0.060854 0.089987 
0.080197 -0.096222 0.092689 
0.019457 -0.102169 0.039229 
0.064945 -0.076190 0.031945 
-0.062146 -0.072984 0.024984 
0.018083 0.124829 0.095095 
0.111530 0.012305 0.082576 
0.064368 0.087955 0.080782 
0.036808 0.113374 0.083195 
0.049638 -0.093704 0.072571 
0.054187 -0.090380 0.072482 
-0.097603 -0.061254 0.086038 
-0.041502 0.095290 0.039181 
0.101913 -0.056525 0.091391 
-0.054517 0.089907 0.040973 
0.077221 0.055947 0.040282 
-0.033610 0.104481 0.071341 
0.054640 -0.021485 0.003000 
0.009690 0.115355 0.065464 
-0.063486 0.063976 0.039939 
0.104886 0.058381 0.098327 
0.010608 -0.120989 0.081658 
0.106846 -0.000000 0.050178 
0.101648 0.065530 0.096478 
-0.000145 -0.116419 0.066232 
-0.102539 0.025802 0.043356 
-0.056038 -0.081789 0.060912 
0.070383 0.036760 0.018043 
-0.014195 0.056612 0.000000 
0.072597 -0.071872 0.063775 
0.101705 0.000459 0.034536 
-0.082812 0.061067 0.036193 
-0.046489 0.083911 0.052740 
-0.004369 -0.066582 0.000000 
0.002910 0.076877 0.015906 
0.033267 0.035757 0.002246 
-0.034572 -0.107858 0.059611 
0.111256 -0.003662 0.076665 
0.101986 0.057144 0.068979 
-0.031546 -0.085119 0.016952 
0.007983 0.110767 0.084336 
-0.076141 0.023758 0.020985 
0.004232 -0.127588 0.099032 
-0.006867 -0.119284 0.101535 
0.024096 0.003769 0.002475 
0.073580 -0.053149 0.021201 
-0.063874 0.013968 0.000000 
-0.029720 -0.064492 0.002965 
0.034125 -0.118351 0.087520 
0.090006 0.072481 0.085558 
-0.023833 0.091839 0.046117 
0.086843 -0.063350 0.066610 
0.029800 -0.085614 0.016821 
-0.036071 0.051964 0.002102 
-0.119460 -0.022187 0.081986 
0.095108 0.002243 0.023759 
-0.066042 -0.099764 0.076619 
0.059694 -0.086115 0.040348 
-0.059756 0.112107 0.098511 
0.050127 -0.064512 0.006380 
-0.097454 -0.017208 0.058444 
0.023021 0.104928 0.072548 
0.097585 0.029267 0.066015 
0.076177 0.016190 0.016301 
-0.107010 -0.000000 0.059024 
0.065786 0.033304 0.000000 
-0.001996 -0.062059 0.000000 
0.108141 0.026044 0.055514 
-0.112662 -0.051002 0.088164 
0.091172 0.029981 0.025248 
-0.094412 -0.058054 0.054369 
0.115463 0.049228 0.093850 
0.009495 0.084416 0.031129 
0.097352 0.076715 0.088734 
0.077956 -0.066166 0.060715 
0.091607 -0.070604 0.064467 
0.098645 -0.048507 0.080047 
0.028597 0.072121 0.002341 
0.060944 0.095313 0.088789 
0.023034 0.109097 0.080966 
-0.066058 0.094643 0.093598 
-0.082733 0.052450 0.028003 
-0.081136 0.065724 0.063757 
-0.115278 0.020034 0.069513 
-0.039584 0.094697 0.062484 
-0.097161 0.020526 0.059751 
-0.094193 -0.080637 0.088845 
0.090682 -0.051154 0.038721 
0.043361 -0.067206 0.021701 
-0.029358 0.090375 0.037843 
-0.073979 -0.042507 0.028692 
-0.111196 0.007020 0.055959 
0.125803 -0.014092 0.105000 
0.071878 0.019260 0.000000 
0.005100 -0.082421 0.027100 
-0.102592 -0.015319 0.038310 
0.030951 -0.096804 0.034262 
0.079936 0.094746 0.088796 
-0.106849 0.000937 0.045557 
-0.126792 0.020902 0.101830 
0.039553 0.081576 0.041190 
0.109129 0.011961 0.077693 
0.054105 -0.099428 0.087317 
-0.026990 0.035598 0.000000 
-0.051510 0.099546 0.084434 
-0.044853 -0.059686 0.011257 
-0.051918 -0.098832 0.056444 
-0.056287 0.049656 0.000103 
0.037757 0.107714 0.061665 
0.042275 0.097697 0.070747 
-0.096025 0.059897 0.059614 
0.063785 -0.110867 0.100461 
-0.004091 -0.031668 0.000000 
-0.121775 0.023299 0.088972 
0.047378 -0.077670 0.016825 
0.004880 0.109710 0.051522 
0.012728 -0.104149 0.070974 
-0.055443 -0.057438 0.004708 
0.050464 -0.060350 0.003518 
-0.077632 0.075741 0.076134 
-0.099387 -0.046160 0.080139 
0.099627 -0.033815 0.072815 
0.018441 -0.104139 0.070953 
0.119159 -0.040010 0.094441 
-0.022890 0.071031 0.000911 
-0.104110 -0.034428 0.082015 
-0.023021 0.083968 0.030223 
0.036931 0.069684 0.003432 
-0.035761 -0.102590 0.071093 
0.105972 -0.023523 0.049405 
0.086857 -0.010010 0.012058 
-0.069842 -0.085672 0.083482 
-0.107552 0.048001 0.097052 
-0.066439 -0.105799 0.092151 
0.014192 0.041652 0.002218 
-0.009051 0.080555 0.005624 
0.091783 0.018989 0.048339 
0.004538 0.012905 0.000000 
0.064654 0.026521 0.000557 
-0.092352 -0.073717 0.071725 
-0.009795 -0.081903 0.007213 
-0.100020 0.032679 0.041836 
-0.066154 -0.044678 0.014889 
-0.038319 0.117546 0.088365 
0.035728 -0.107627 0.059870 
0.016068 -0.034943 0.000000 
0.064419 -0.058384 0.031817 
0.021313 0.091832 0.022132 
0.068613 -0.074166 0.062837 
-0.093835 0.085330 0.105000 
0.108946 0.039958 0.066067 
-0.092865 0.086713 0.097796 
-0.083011 -0.061035 0.058254 
0.044004 -0.060046 0.010686 
-0.000049 0.046087 0.000000 
0.064202 -0.074876 0.058775 
-0.101510 -0.027963 0.072977 
-0.048987 -0.054336 0.007176 
