
# .PCD v.6 - Point Cloud Data file format
FIELDS x y z 
SIZE 4 4 4 
TYPE F F F 
COUNT 1 1 1 
WIDTH 1648
HEIGHT 1
VIEWPOINT 0.000000 0.000000 0.000000 1.000000 0.000000 0.000000 0.00000
POINTS 1648
DATA ascii
-0.008823 0.048405 0.019550 
-0.039101 -0.023734 0.035810 
-0.020384 0.009832 0.003000 
-0.046780 0.000776 0.026991 
0.031674 -0.010682 0.002922 
0.015000 0.046402 0.022098 
-0.031765 -0.037926 0.041507 
-0.005137 0.048973 0.009725 
-0.049000 -0.004993 0.002064 
-0.044928 -0.006109 0.025079 
0.027996 -0.030756 0.003000 
-0.035074 -0.008266 0.000000 
-0.036245 -0.033755 0.021162 
0.038672 0.030770 0.046384 
0.028272 0.034399 0.028336 
-0.045475 0.005899 0.037465 
0.027364 0.034615 0.014748 
-0.000846 0.044287 0.014938 
-0.012041 -0.047592 0.015359 
0.036891 -0.029006 0.000000 
-0.029422 -0.021964 0.003000 
-0.038176 -0.027984 0.037364 
-0.041830 -0.026560 0.037125 
-0.030310 0.033452 0.045057 
0.014782 0.043717 0.008828 
0.020332 -0.031960 0.000000 
-0.015000 0.045174 0.046405 
0.024518 -0.043193 0.041117 
0.038858 -0.028239 0.011336 
0.019025 0.045390 0.014376 
-0.038281 0.031101 0.015430 
0.029291 0.034156 0.043614 
-0.042933 0.014053 0.050154 
-0.029124 0.026781 0.002096 
0.034262 0.016684 0.000000 
0.018496 -0.040878 0.000000 
-0.028620 -0.036442 0.000000 
0.042752 0.014309 0.046712 
-0.040930 0.027761 0.039620 
-0.038418 0.003031 0.003000 
-0.009025 0.032750 0.002177 
0.043973 -0.021369 0.001587 
0.010917 -0.005025 0.002819 
0.014038 -0.044267 0.013885 
-0.010598 -0.006411 0.003000 
0.006746 -0.044880 0.045759 
0.003104 0.044191 0.009933 
0.043736 0.011698 0.048696 
0.036469 -0.028104 0.021268 
-0.046901 0.016981 0.045872 
-0.012838 -0.048432 0.049031 
0.042682 0.013919 0.038719 
0.042151 -0.026132 0.020440 
0.032836 -0.030837 0.022691 
0.018658 0.041976 0.042440 
-0.041164 -0.027449 0.030349 
-0.010438 0.047831 0.000035 
-0.021855 0.031416 0.000000 
-0.019427 0.026540 0.000000 
0.046893 0.015268 0.026752 
-0.004231 0.017085 0.000000 
-0.046255 -0.016159 0.004312 
-0.047806 0.012443 0.021424 
-0.024446 0.026849 0.002131 
0.019438 0.003676 0.002995 
-0.007938 0.044806 0.000000 
0.011558 0.044794 0.000000 
-0.004009 -0.040899 0.000000 
0.047033 -0.016656 0.045913 
0.043295 -0.009489 0.011896 
0.011714 0.048314 0.033976 
0.042818 0.012405 0.024769 
-0.022089 0.038965 0.028219 
0.038983 -0.028322 0.015550 
0.039046 -0.024745 0.047534 
0.017325 -0.041625 0.002465 
-0.024579 0.043168 0.008825 
0.045631 0.016845 0.000801 
0.042947 0.022369 0.052000 
0.015000 0.045931 0.012400 
-0.005501 -0.049095 0.033896 
-0.040046 0.011568 0.000000 
0.026644 -0.037572 0.000000 
-0.030257 -0.016087 0.000000 
-0.014479 -0.045438 0.008617 
0.027833 0.034131 0.010614 
-0.002927 -0.037827 0.003000 
-0.011883 0.047623 0.003659 
0.029896 -0.005423 0.000000 
0.029019 0.039986 0.042701 
0.011232 -0.018062 0.003000 
0.002396 -0.022283 0.003000 
-0.049895 -0.003510 0.043933 
-0.030095 0.028552 0.002077 
-0.049000 0.001887 0.000347 
-0.032304 -0.031356 0.026450 
-0.014107 0.020723 0.000000 
-0.013241 0.023044 0.002239 
-0.047403 -0.002052 0.052000 
-0.048792 0.010910 0.051484 
0.025399 -0.035649 0.002224 
-0.007582 0.001128 0.003000 
0.007885 0.041985 0.000000 
0.006154 0.048630 0.000000 
0.044927 -0.009782 0.000000 
0.027230 0.026666 0.002246 
0.036965 -0.033035 0.049062 
0.038589 -0.023588 0.014192 
-0.044628 0.005928 0.015701 
0.038379 -0.029828 0.001690 
-0.036223 0.027725 0.004511 
-0.036568 -0.033432 0.017874 
0.024179 -0.036752 0.008236 
0.042723 0.023036 0.001851 
-0.018821 -0.037429 0.003000 
0.016242 0.046503 0.013868 
-0.022591 0.043964 0.028077 
-0.008268 -0.044946 0.049198 
0.010320 0.048030 0.052000 
0.043655 0.009384 0.020372 
-0.026865 0.041601 0.044786 
-0.034285 -0.015802 0.003000 
0.007750 -0.044510 0.026504 
0.038247 -0.025114 0.021958 
-0.017565 0.041566 0.006019 
-0.047062 -0.000374 0.030841 
-0.014987 -0.046962 0.026287 
-0.030555 -0.032337 0.017132 
-0.046072 -0.019327 0.048059 
-0.041718 0.017586 0.051973 
-0.032492 -0.028194 0.000000 
-0.017203 0.043412 0.002259 
0.043875 -0.011481 0.051059 
0.026724 0.031058 0.000000 
-0.038082 0.027799 0.014743 
-0.041618 0.015786 0.023497 
-0.039523 0.021527 0.021775 
-0.038484 0.030764 0.014878 
-0.015620 0.028514 0.000000 
0.004993 0.030970 0.002243 
0.048710 0.001520 0.000000 
-0.005441 0.044692 0.035973 
-0.030133 0.011348 0.000000 
-0.008274 0.038829 0.002866 
0.049000 0.001432 0.019938 
-0.013054 -0.046857 0.002808 
0.018151 0.029150 0.000000 
-0.005146 0.048971 0.000549 
-0.048895 -0.005525 0.010605 
-0.038971 0.020006 0.000000 
-0.026527 -0.015099 0.003000 
0.025868 -0.036583 0.040524 
-0.045277 0.003478 0.003000 
-0.038316 0.026927 0.049441 
-0.004783 0.044245 0.012732 
0.043685 0.011480 0.043781 
0.001988 -0.024783 0.003000 
-0.042497 -0.015120 0.048064 
0.039729 0.029271 0.008130 
-0.040526 0.018541 0.000000 
0.017913 0.003521 0.000000 
0.015341 -0.007681 0.000000 
0.037539 -0.027742 0.003000 
0.048032 -0.012135 0.023877 
-0.039556 0.028728 0.043047 
-0.030489 0.038883 0.026392 
-0.010194 -0.044983 0.051124 
0.005021 0.010380 0.000000 
-0.033129 -0.036871 0.027138 
0.007369 0.009151 0.000000 
-0.037995 0.027691 0.020082 
-0.010322 -0.047871 0.001955 
-0.003808 -0.044809 0.042049 
0.038781 0.028767 0.002011 
-0.045816 -0.011789 0.000000 
-0.042473 -0.014094 0.000000 
0.004665 0.042827 0.002085 
-0.021785 0.039129 0.026399 
-0.022126 -0.025467 0.003000 
0.018061 0.042444 0.043215 
-0.006116 0.048777 0.012033 
0.041929 0.026428 0.035775 
-0.014341 -0.011356 0.003000 
0.035336 -0.034664 0.037259 
0.048339 0.008303 0.012304 
-0.043913 -0.022718 0.034073 
-0.047848 0.008066 0.000000 
-0.046463 0.016342 0.027850 
0.009578 0.015677 0.002980 
-0.040186 -0.021264 0.043596 
-0.009896 0.049000 0.032615 
-0.023784 -0.043635 0.034973 
0.018285 0.043738 0.052000 
0.046402 0.000317 0.013200 
-0.002048 -0.000956 0.000000 
-0.011416 0.021354 0.000000 
0.014792 0.044979 0.031497 
0.025851 -0.042362 0.051871 
-0.045744 -0.016762 0.002690 
0.022282 -0.043289 0.000954 
-0.002285 0.033243 0.002649 
0.013309 0.047964 0.044507 
-0.001152 -0.028976 0.003000 
-0.041555 -0.015612 0.019725 
0.018217 -0.041582 0.000000 
-0.001193 0.044801 0.041669 
-0.048007 -0.009963 0.012768 
0.004363 0.049127 0.021962 
0.004593 0.033000 0.002217 
-0.011573 0.041020 0.002892 
0.042098 -0.015918 0.043691 
-0.019021 -0.013207 0.003000 
0.008288 -0.004499 0.002965 
0.049745 -0.001276 0.033397 
0.016213 -0.044324 0.000000 
-0.047563 -0.006317 0.052000 
-0.019810 -0.041210 0.044980 
-0.028037 0.017185 0.000000 
0.004389 0.042055 0.000000 
0.018409 -0.044282 0.003000 
-0.006692 -0.044881 0.045795 
0.007390 0.049355 0.048649 
-0.002793 0.044001 0.000035 
-0.006777 -0.049286 0.037729 
0.048786 -0.006068 0.010716 
-0.041723 -0.016605 0.038710 
-0.048612 -0.000000 0.050469 
0.011477 -0.047705 0.006703 
0.049522 0.007198 0.051242 
0.013931 0.029670 0.002265 
-0.005029 0.017908 0.000000 
0.005647 -0.003465 0.003000 
0.015770 -0.015344 0.003000 
0.036061 -0.027891 0.005891 
0.001448 0.015164 0.002399 
-0.012867 0.048380 0.042535 
-0.005458 -0.001810 0.003000 
0.025955 0.038258 0.002047 
-0.046686 -0.012534 0.052000 
-0.038886 -0.028443 0.039447 
-0.046410 -0.002356 0.031067 
0.015682 -0.033446 0.000000 
0.025035 0.042974 0.037341 
-0.025118 0.006780 0.000000 
0.011510 -0.023850 0.003000 
-0.006278 -0.000185 0.000000 
-0.015000 0.045985 0.047754 
-0.023744 -0.037722 0.027623 
-0.043023 0.007555 0.003000 
0.027746 -0.011490 0.002800 
-0.000607 -0.034439 0.003000 
0.049430 0.002077 0.029683 
0.025480 0.036733 0.036443 
0.020557 -0.040256 0.032969 
-0.011739 0.031254 0.002173 
0.007954 0.048839 0.029579 
-0.017865 -0.016691 0.000000 
0.038195 -0.031406 0.042974 
-0.034869 -0.035012 0.015688 
-0.017058 -0.045588 0.000418 
-0.017831 0.002210 0.000000 
0.007010 0.049098 0.041990 
-0.014672 0.045836 0.023313 
-0.012968 0.038042 0.000000 
0.026171 0.040288 0.000000 
0.040655 0.028127 0.048274 
-0.005849 -0.044620 0.032230 
0.005231 0.047140 0.000000 
-0.018863 0.042123 0.051350 
0.040168 0.015674 0.000000 
-0.042525 -0.015108 0.048964 
0.014195 -0.027273 0.003000 
0.030189 -0.018839 0.003000 
-0.002202 0.012348 0.002402 
-0.030768 -0.033318 0.051170 
-0.041797 0.013382 0.006702 
-0.024138 0.021235 0.000000 
0.035845 0.034155 0.039101 
0.043474 0.016912 0.000000 
0.038231 0.031359 0.039361 
-0.034678 -0.023096 0.000000 
-0.037907 -0.025383 0.012631 
0.034706 0.032953 0.002026 
-0.038940 0.008144 0.000000 
0.023205 -0.011305 0.000000 
0.045432 -0.017933 0.000109 
-0.040793 -0.009715 0.000000 
0.027133 0.011464 0.000000 
0.014977 -0.027044 0.000000 
0.009281 0.048380 0.052000 
0.032939 -0.037025 0.016771 
0.003123 -0.044580 0.030177 
0.030232 0.033675 0.050022 
0.016651 -0.009779 0.003000 
0.046953 0.012336 0.000000 
0.040390 0.021235 0.051013 
-0.018571 0.022394 0.000000 
0.023854 0.037481 0.022860 
0.043203 0.023609 0.003118 
0.004681 0.036956 0.000000 
0.022433 0.037634 0.000000 
-0.020406 0.030700 0.002127 
0.039555 -0.028704 0.030512 
0.013606 -0.047279 0.011580 
0.042958 0.012050 0.025352 
0.035799 0.034201 0.046491 
-0.038411 -0.023487 0.006237 
0.033989 0.003019 0.000000 
0.010073 0.012376 0.002603 
0.031153 -0.014243 0.000000 
0.038645 -0.028097 0.028090 
-0.044047 0.010494 0.044127 
0.046096 -0.018427 0.041324 
0.003396 -0.048516 0.000000 
0.044952 0.007658 0.040024 
-0.009025 0.048195 0.010233 
0.024846 0.041206 0.052000 
-0.041345 -0.027206 0.037492 
0.042774 -0.025302 0.042276 
-0.006305 0.014375 0.002358 
0.032945 -0.036595 0.012093 
0.032189 -0.031935 0.041223 
-0.002569 0.049000 0.008141 
-0.004306 0.049000 0.003372 
0.032791 -0.012359 0.000000 
0.022004 -0.043497 0.001677 
-0.034805 0.031693 0.052000 
-0.018104 0.045758 0.029461 
-0.038366 0.030334 0.004200 
0.040772 0.017946 0.020625 
0.005266 0.043476 0.002076 
0.032481 0.030478 0.004111 
-0.015148 0.044597 0.043228 
-0.009431 -0.024049 0.000000 
-0.037192 0.026731 0.003656 
0.047850 0.012875 0.023633 
-0.033500 -0.025867 0.003000 
0.048768 -0.011162 0.047421 
0.045994 0.003581 0.030888 
0.002671 0.039740 0.000000 
0.028928 -0.010117 0.000000 
-0.046375 -0.018528 0.047719 
-0.014847 -0.047169 0.044068 
0.018034 -0.045786 0.027125 
0.031920 0.031449 0.020744 
-0.027737 0.040947 0.017495 
0.038832 0.019671 0.000000 
-0.041275 0.018134 0.042476 
-0.008594 0.049000 0.040262 
0.048807 0.005963 0.020186 
0.010268 0.047946 0.008682 
-0.029608 -0.000948 0.003000 
-0.034862 0.028905 0.009697 
0.010763 -0.025631 0.003000 
0.037914 0.025214 0.010599 
-0.049309 0.008452 0.051986 
-0.049000 -0.001631 0.000319 
0.015791 0.001699 0.000000 
-0.011262 0.031039 0.000000 
0.038785 -0.025016 0.041234 
-0.017252 0.018768 0.002244 
-0.047584 -0.000000 0.039800 
-0.041063 -0.017552 0.026385 
0.037342 -0.028954 0.003000 
0.016179 -0.010793 0.003000 
0.022231 0.022824 0.000000 
-0.043334 -0.024165 0.045250 
0.029066 0.039951 0.007956 
0.018529 0.041647 0.029735 
0.030434 0.031875 0.000657 
-0.046407 0.013981 0.002083 
0.043347 -0.024131 0.037357 
-0.028720 0.034746 0.048621 
-0.037288 0.027792 0.000000 
0.048408 -0.000000 0.042554 
0.017789 0.045650 0.052000 
0.018594 0.010070 0.002530 
0.039182 0.030091 0.031436 
0.034697 -0.034903 0.012591 
0.025764 -0.042427 0.023331 
-0.011116 -0.044585 0.030422 
0.003803 -0.021880 0.003000 
-0.039948 -0.019160 0.003000 
0.039704 0.020618 0.016289 
0.012510 0.044345 0.017946 
0.032989 -0.005247 0.002742 
0.004280 0.045225 0.052000 
0.044479 -0.009767 0.050750 
0.040195 -0.028740 0.046774 
-0.046823 0.003194 0.050597 
-0.038150 0.025245 0.020051 
-0.022398 0.044240 0.052000 
0.008439 0.030998 0.000000 
-0.018993 -0.014908 0.000000 
0.017084 0.037892 0.000000 
0.013872 0.006821 0.002551 
0.034932 0.028882 0.010556 
0.038292 0.031277 0.025979 
-0.005154 0.049001 0.032641 
0.033155 0.030069 0.006805 
-0.049000 -0.005927 0.032642 
-0.002635 -0.049000 0.001362 
0.031811 0.032022 0.035485 
-0.038337 -0.026521 0.044667 
0.049000 -0.003986 0.028649 
0.044712 0.020719 0.011915 
0.039624 0.029501 0.030290 
0.008186 -0.044299 0.015536 
0.035641 0.033359 0.005704 
0.045427 0.007588 0.000000 
0.021541 -0.044595 0.042386 
0.033637 0.031063 0.047152 
-0.015000 -0.046244 0.003255 
-0.029700 -0.037296 0.052000 
0.045001 0.007976 0.000000 
-0.045136 -0.007253 0.041507 
0.042471 0.011037 0.003898 
-0.039968 0.019929 0.016972 
0.046819 0.012940 0.052000 
-0.018038 -0.042125 0.033182 
0.039507 -0.020970 0.013539 
0.010491 -0.044957 0.000000 
0.037977 -0.031698 0.041348 
-0.015399 -0.033602 0.003000 
-0.044633 -0.005573 0.012764 
-0.015000 0.047060 0.044654 
-0.025838 0.035715 0.013894 
-0.040327 -0.020969 0.044953 
0.015202 0.024685 0.000000 
-0.031883 -0.031400 0.018473 
-0.006277 0.002148 0.000000 
0.046318 0.016704 0.029115 
-0.013833 0.000573 0.000000 
0.039416 -0.023084 0.038996 
0.000467 -0.033134 0.000000 
0.040289 -0.017456 0.002812 
0.014203 0.044327 0.004159 
-0.046044 0.019319 0.047441 
-0.012723 -0.002701 0.003000 
-0.040143 0.019181 0.000000 
-0.045146 0.013248 0.003000 
0.000943 -0.009882 0.000000 
0.030711 -0.038716 0.033758 
0.008142 -0.044045 0.002363 
0.002509 -0.025351 0.000000 
0.041706 -0.005488 0.002902 
0.043504 0.010630 0.027226 
-0.048414 -0.012451 0.039893 
-0.024986 -0.023786 0.000000 
-0.049977 0.000556 0.051539 
-0.041267 -0.018612 0.048703 
-0.014717 -0.046455 0.037290 
-0.044407 -0.015245 0.052000 
-0.038462 0.024388 0.000000 
-0.048098 0.009509 0.014833 
0.037120 0.011278 0.000000 
0.014726 -0.045123 0.037764 
0.010781 -0.021171 0.000000 
0.005330 -0.044300 0.015581 
0.036495 0.013623 0.000000 
-0.004658 0.049000 0.007420 
-0.033838 0.036162 0.032845 
0.014345 -0.042126 0.000000 
-0.039644 -0.023326 0.051031 
-0.000141 -0.008522 0.003000 
-0.013900 0.048220 0.050346 
-0.012006 0.044684 0.035584 
0.020868 -0.044818 0.038776 
0.029165 0.033234 0.013233 
0.032795 0.031373 0.037837 
-0.014989 0.046955 0.031257 
-0.005059 -0.000164 0.000000 
0.041961 0.026386 0.050700 
0.004783 0.041335 0.000000 
-0.046975 -0.001883 0.041675 
-0.010911 -0.046644 0.000000 
0.029886 -0.033147 0.026578 
0.030774 -0.032144 0.000000 
0.018164 0.017851 0.002427 
0.029079 0.038530 -0.000000 
-0.013358 -0.016277 0.003000 
-0.034656 0.010646 0.003000 
-0.022840 -0.020493 0.003000 
-0.036198 -0.033802 0.019767 
0.017577 -0.042941 0.000000 
-0.027480 -0.035699 0.049687 
0.036042 0.033958 0.034297 
-0.034022 0.029809 0.018170 
-0.043678 0.016826 0.000000 
0.006619 0.003237 0.002536 
-0.048050 -0.000000 0.041773 
0.038743 0.028372 0.041956 
-0.038241 -0.028117 0.003000 
-0.047349 -0.015648 0.044169 
0.028780 0.009173 0.000000 
-0.018434 0.045627 0.009733 
0.023471 0.019247 0.002395 
-0.032253 -0.037561 0.025500 
-0.031404 -0.022104 0.000000 
0.047378 0.015156 0.040804 
0.002764 -0.044725 0.037686 
0.046336 0.004738 0.000000 
0.016235 -0.041186 0.000000 
0.019099 -0.045969 0.052000 
-0.047405 0.012976 0.009212 
0.038993 0.030343 0.048158 
0.035355 0.024162 0.000000 
0.012309 0.048479 0.050817 
0.044725 -0.011684 0.000000 
-0.021592 -0.039593 0.036017 
-0.037409 -0.027880 0.035355 
-0.014168 -0.044433 0.022528 
-0.001462 -0.045520 0.003000 
-0.030911 -0.032017 0.000000 
-0.027087 0.034950 0.018623 
-0.016339 -0.041534 0.003000 
-0.024742 -0.043103 0.006779 
-0.027900 -0.033956 0.006856 
-0.038212 -0.031384 0.017407 
-0.039886 -0.029152 0.045293 
-0.048788 0.006061 0.016665 
-0.031546 -0.032063 0.030853 
0.036376 0.028460 0.029864 
-0.032500 0.031368 0.031145 
-0.027200 -0.035075 0.024844 
-0.038096 -0.002656 0.000000 
0.035885 -0.013983 0.002863 
0.039234 0.028695 0.017248 
0.048863 0.005683 0.011158 
-0.018947 -0.000160 0.003000 
0.014052 -0.047582 0.036060 
-0.024464 0.036426 0.004790 
0.003481 -0.044369 0.019165 
-0.017951 0.024843 0.000000 
-0.001311 0.015943 0.002376 
0.030393 -0.020655 0.003000 
0.034370 0.029044 0.002981 
-0.021056 -0.040200 0.042307 
0.013584 0.044707 -0.000000 
0.005413 0.040312 0.002119 
-0.017509 0.041386 0.002047 
0.006424 0.048784 0.028759 
0.010824 -0.047835 0.012295 
0.045607 -0.018484 0.013885 
-0.035781 0.029732 0.002022 
0.018799 0.044645 -0.000000 
0.024088 0.043509 0.034885 
-0.007065 0.016984 0.000000 
-0.009694 0.048061 0.002160 
-0.031169 0.033010 0.050815 
-0.049000 0.002162 0.004062 
0.033336 0.035753 0.006986 
-0.004656 -0.037138 0.003000 
0.015861 -0.043421 0.023813 
-0.045612 -0.005714 0.003000 
0.042991 0.025012 0.040144 
0.018723 -0.040609 0.003010 
-0.011126 -0.047550 0.000607 
-0.019270 0.041251 0.034265 
-0.025035 -0.036689 0.025284 
0.003467 0.048202 0.000000 
0.020102 0.040594 -0.000000 
0.043979 -0.005001 0.000000 
-0.039207 -0.023959 0.042949 
-0.012879 0.044925 0.048093 
0.042717 -0.009945 0.000831 
0.043434 0.023915 0.012481 
-0.007327 -0.044205 0.010648 
-0.028687 0.039363 0.000771 
0.037287 -0.027204 0.006261 
-0.044243 -0.008589 0.028756 
-0.034707 0.034880 0.052000 
0.026654 -0.004709 0.000000 
0.041751 -0.015360 0.022746 
0.003040 0.032410 0.002221 
0.028443 0.040297 0.005280 
-0.033122 0.035532 -0.000000 
0.026048 0.036823 0.051646 
-0.028332 -0.034588 0.035317 
-0.018375 -0.045583 0.005596 
0.020314 0.030839 0.000000 
0.040678 -0.017293 0.011499 
0.038983 -0.029023 0.002636 
0.016141 -0.030814 0.000000 
0.015067 -0.047566 0.043852 
0.010742 0.044834 0.043389 
0.038946 0.021715 0.004791 
-0.014362 0.001890 0.000000 
0.042916 -0.010182 0.008075 
0.044282 0.006240 0.009401 
-0.005605 0.049154 0.037500 
0.033139 0.007595 0.000000 
0.037472 0.027453 0.022148 
-0.021632 0.042403 0.000000 
-0.034794 0.028648 0.000529 
-0.016758 -0.021984 0.000000 
-0.015477 0.015214 0.000000 
-0.004039 0.048338 0.000000 
0.023012 0.010775 0.000000 
-0.022381 -0.007595 0.000000 
-0.001121 -0.015670 0.003000 
0.010958 -0.044562 0.029212 
0.026374 -0.035053 0.005950 
-0.030345 0.031949 0.002050 
0.037282 0.027925 0.033883 
-0.044492 0.021434 0.033303 
-0.020041 0.039778 0.007267 
0.039786 -0.028857 0.027063 
-0.015478 -0.047062 0.037077 
-0.022529 0.038581 0.026451 
0.016425 -0.043784 0.047115 
-0.044906 0.020126 0.002684 
0.007961 -0.028477 0.003000 
0.016373 -0.039105 0.003000 
0.006481 0.048704 0.026705 
-0.043118 0.009651 0.000000 
-0.022971 -0.006302 0.003000 
0.001996 0.049811 0.048222 
-0.021483 -0.000284 0.003000 
-0.021004 -0.039676 0.025482 
0.044153 0.007039 0.012982 
-0.010479 0.045311 0.000000 
0.001935 0.026408 0.002852 
-0.032714 -0.014260 0.000000 
-0.020904 -0.044639 0.015752 
-0.034616 -0.029334 0.017100 
0.013641 -0.018550 0.003000 
-0.033330 -0.030879 0.034886 
0.043717 -0.010862 0.036519 
0.031053 0.030692 0.002127 
-0.010189 0.048962 0.049596 
-0.007392 0.044056 0.002923 
-0.010843 -0.047663 0.000330 
0.047109 0.000941 0.036972 
0.032873 -0.014162 0.002856 
-0.026605 -0.029008 0.000000 
0.038334 0.025761 0.034164 
-0.018901 0.024573 0.002189 
0.010535 -0.007602 0.003000 
-0.006192 0.044557 0.028986 
0.035743 0.028803 0.026129 
-0.039816 0.028908 0.039697 
0.042607 -0.014995 0.050561 
-0.001111 -0.000037 0.000000 
-0.049000 -0.006780 0.033371 
0.022222 0.037195 0.002114 
-0.045771 0.018071 0.021535 
0.039374 -0.023380 0.041409 
0.047948 0.013044 0.035313 
0.032605 -0.002602 0.000000 
-0.004963 -0.049193 0.035864 
-0.046992 -0.016918 0.047184 
-0.035387 -0.034613 0.048873 
-0.044703 0.020303 0.052000 
0.046230 -0.003543 0.003000 
-0.015448 0.034105 0.000000 
-0.006031 0.008670 0.002399 
0.044869 0.006107 0.000000 
0.048961 -0.000000 0.046626 
-0.029053 0.039960 0.036947 
-0.004675 0.010773 0.002397 
0.021596 -0.045019 0.051529 
-0.044593 0.022344 0.050226 
-0.042146 -0.026138 0.006785 
-0.038202 0.024953 0.000000 
0.006428 -0.049472 0.047158 
-0.048837 -0.000000 0.044109 
-0.022223 0.044111 0.026881 
-0.009869 -0.042668 0.003000 
0.024928 -0.036447 0.015679 
0.015434 -0.022813 0.003000 
-0.022620 0.043952 0.003594 
0.002364 0.022905 0.000000 
-0.005308 -0.049000 0.024414 
-0.021273 0.032063 0.000000 
0.036584 -0.023264 0.000000 
0.042779 0.010952 0.011169 
-0.012771 -0.021906 0.003000 
0.009926 -0.032179 0.000000 
0.017197 -0.005061 0.002676 
-0.029058 0.039957 0.011185 
0.029766 0.039425 0.050806 
0.038509 0.028043 0.008536 
0.011128 -0.044417 0.021691 
-0.032656 0.031863 0.049396 
-0.007186 0.047146 0.000000 
0.015738 0.046705 0.008791 
0.037735 -0.027602 0.024416 
0.006241 0.048752 0.005544 
0.009908 -0.034141 0.000000 
0.023127 -0.026018 0.003000 
-0.000149 0.031471 0.002544 
0.031654 0.020197 0.000000 
0.045468 0.003879 0.019785 
0.015959 0.043417 0.000000 
-0.009802 0.040650 0.000000 
-0.018710 0.045516 0.002538 
-0.035122 -0.034878 0.049028 
-0.041009 0.027654 0.035215 
-0.038811 -0.024045 0.028964 
0.033520 -0.035480 0.001817 
-0.040809 0.020071 0.003000 
-0.039594 -0.029541 0.047404 
-0.029232 0.039826 0.042325 
-0.038675 0.030766 0.048724 
0.020905 0.040499 0.047900 
-0.048375 0.008126 0.005087 
0.046639 -0.015722 0.052000 
0.026756 -0.013290 0.002807 
0.044603 -0.008453 0.037503 
-0.048446 -0.000000 0.007695 
0.038155 0.026168 0.032882 
-0.015000 -0.046383 0.050238 
-0.038818 -0.027575 0.000000 
0.015656 -0.028063 0.000000 
-0.038761 -0.030653 0.025929 
-0.013749 0.046500 0.000770 
-0.046356 0.003544 0.039960 
0.046328 -0.016680 0.027750 
-0.014700 -0.044527 0.031231 
-0.034508 -0.026537 0.003000 
-0.038384 0.028009 0.015711 
-0.015022 -0.044094 0.025396 
0.003267 0.020630 0.000000 
0.045686 -0.016993 0.000510 
-0.043574 0.023930 0.034913 
-0.047413 0.012936 0.011899 
-0.046856 -0.003232 0.003000 
0.017710 0.035865 0.000000 
-0.045981 0.004365 0.037345 
0.030741 0.033148 0.045502 
-0.037015 0.030591 0.052000 
0.044930 -0.020452 0.052000 
0.027482 0.001899 0.002645 
0.010262 0.034114 0.002204 
-0.042743 0.013460 0.034749 
-0.047697 0.010759 0.001741 
0.002973 0.012612 0.000000 
0.027312 -0.008165 0.000000 
0.038739 0.025757 0.049602 
-0.032721 0.037209 0.028833 
0.036534 0.033466 0.050637 
0.044534 -0.010685 0.003000 
-0.018007 -0.038982 0.000000 
0.044405 0.006216 0.012413 
0.015000 0.045490 0.043743 
-0.011392 0.044620 0.032218 
-0.000312 -0.044753 0.039145 
-0.003100 0.026387 0.000000 
0.038190 -0.024113 0.006092 
-0.019283 -0.045602 0.038302 
0.041713 -0.026716 0.008952 
-0.022697 0.004424 0.000000 
0.019436 0.040775 0.023721 
0.027367 0.034417 0.008880 
-0.026563 -0.036162 0.043275 
-0.003384 0.044349 0.018129 
0.039510 -0.020946 0.013327 
-0.043557 -0.011214 0.035235 
-0.049000 -0.002673 0.009206 
-0.049971 0.000145 0.047506 
0.007788 -0.012135 0.000000 
0.029019 -0.039986 0.030577 
0.038536 0.030787 0.015640 
0.048864 0.005679 0.001006 
-0.045042 0.008142 0.050082 
0.009227 0.048155 0.000014 
-0.049511 0.002262 0.031451 
0.032719 -0.014945 0.000000 
-0.017155 0.046126 0.003339 
0.002179 -0.016965 0.000000 
0.024593 0.042544 0.003374 
-0.049000 -0.008433 0.027811 
0.046520 -0.003567 0.044420 
-0.038533 0.023505 0.010900 
-0.006216 -0.019042 0.000000 
-0.017517 0.045980 0.002902 
-0.000548 0.037361 0.002152 
-0.010090 0.031398 0.000000 
0.045973 -0.017568 0.011988 
-0.040368 -0.010892 0.000000 
0.042629 -0.013420 0.029846 
-0.022922 -0.037741 0.010049 
0.014164 -0.048044 0.046185 
0.024265 0.035541 0.002119 
-0.035979 0.034021 0.035418 
-0.008882 0.044747 0.038869 
-0.010542 -0.037720 0.000000 
0.037301 0.027222 0.005837 
0.026398 -0.001983 0.002695 
0.049083 0.007627 0.044171 
0.008638 0.048492 0.024379 
-0.038465 0.028047 0.032755 
-0.013565 -0.048019 0.040894 
0.033677 -0.036323 0.051673 
0.046731 0.000027 0.019242 
-0.044023 0.022442 0.021611 
-0.029376 -0.033587 0.000000 
0.048760 0.011111 0.036087 
-0.027543 -0.034772 0.023379 
-0.011476 0.022469 0.000000 
0.029582 -0.026505 0.003000 
-0.009152 0.044137 0.007138 
-0.002340 0.025198 0.000000 
0.020375 -0.026115 0.003000 
-0.041060 0.017042 0.019293 
0.041028 -0.016747 0.015879 
-0.037287 0.032618 0.038442 
0.048105 0.009476 0.013986 
0.002347 -0.039071 0.000000 
-0.017988 -0.045805 0.029464 
-0.025736 -0.036145 0.024518 
0.023481 -0.033485 0.003000 
0.039285 0.029715 0.007527 
-0.047635 0.000353 0.045573 
-0.023928 0.029263 0.002116 
-0.039623 -0.028811 0.043543 
-0.046638 -0.016388 0.035864 
0.010975 0.048610 0.048012 
-0.021685 -0.044989 0.050485 
-0.008720 -0.044438 0.022771 
-0.045701 0.018248 0.030073 
-0.022425 0.044030 0.010539 
0.018276 -0.009465 0.002854 
0.010833 0.029120 0.000000 
-0.007116 0.044080 0.004163 
0.031193 0.032913 0.048444 
-0.026615 -0.041789 0.039587 
0.049000 0.003221 0.018655 
-0.014618 -0.045399 0.032134 
0.019502 0.041240 0.039064 
0.004901 -0.044480 0.024961 
0.009426 -0.033647 0.000000 
0.048999 0.005005 0.028919 
0.000284 0.037050 0.000000 
0.035812 -0.005492 0.000000 
0.028653 0.040260 0.016181 
0.043008 0.015056 0.003000 
-0.049000 0.004020 0.025160 
-0.047401 -0.000576 0.041407 
0.037255 0.032660 0.036836 
0.025156 0.034784 0.000000 
0.049000 -0.002377 0.017037 
-0.002756 0.038911 0.002128 
-0.048160 -0.000000 0.014462 
0.003786 -0.023024 0.003000 
0.027040 0.031378 0.000000 
0.038453 0.028038 0.013213 
-0.033951 -0.032634 0.000000 
0.013836 -0.047313 0.029708 
0.044094 -0.023051 0.050497 
0.016936 0.043076 0.037273 
0.020463 0.009252 0.002544 
-0.029387 0.005178 0.003000 
-0.027532 -0.041101 0.007348 
-0.008920 0.044737 0.038333 
-0.025992 0.042256 0.050181 
0.024295 -0.036866 0.014231 
0.002658 -0.049821 0.048414 
-0.033329 -0.030039 0.009739 
-0.041461 -0.026812 0.004921 
-0.018954 0.005821 0.003000 
-0.040828 0.013510 0.003000 
0.047575 0.006781 0.000000 
0.045658 -0.018571 0.033738 
-0.021528 -0.038446 0.000292 
-0.006842 0.022053 0.000000 
0.005177 0.039991 0.000000 
-0.014035 0.044635 0.033014 
-0.036644 0.032141 0.001896 
0.024785 -0.037508 0.044232 
-0.048059 -0.014277 0.047400 
-0.037967 0.026777 0.033992 
0.017115 -0.043274 0.047134 
0.010398 0.044851 0.044258 
0.034306 -0.034380 0.003000 
-0.047900 0.012751 0.038069 
0.010650 -0.041731 0.000000 
0.007147 0.025052 0.002320 
0.033291 0.000837 0.002642 
-0.046645 -0.000000 0.016223 
0.014270 0.044953 0.000000 
0.040760 0.016630 0.002587 
0.043110 0.012342 0.033548 
0.024148 0.012448 0.002499 
-0.046999 -0.015003 0.030892 
0.026126 -0.042155 0.051632 
-0.025685 -0.027573 0.000000 
0.038935 -0.022436 0.011693 
-0.005949 -0.049810 0.051023 
0.017671 -0.010721 0.000000 
0.033940 -0.005322 0.000000 
0.003113 0.044068 0.003525 
-0.036591 -0.033409 0.026569 
-0.041198 -0.016019 0.013990 
0.012971 -0.047623 0.029169 
-0.015000 0.046675 0.047600 
0.029802 0.020515 0.002326 
-0.006898 0.000002 0.000000 
-0.020945 -0.026419 0.003000 
0.009509 -0.048098 0.011911 
0.040289 0.007538 0.002430 
0.030968 0.028304 0.000000 
0.008816 -0.044924 0.048042 
-0.014054 0.044134 0.000837 
0.009884 0.048885 0.030280 
-0.027116 0.035909 0.047934 
0.042585 -0.013516 0.029477 
0.048235 0.008826 0.015497 
-0.031445 -0.012947 0.000000 
-0.038042 0.031611 0.032957 
-0.007260 -0.044888 0.046187 
0.042863 -0.025183 0.021566 
-0.004795 -0.048278 0.052000 
-0.007567 -0.001070 0.000000 
0.044390 -0.019317 0.000000 
-0.028727 -0.040032 0.004963 
0.005033 0.048993 0.030221 
-0.043920 0.006673 0.003758 
-0.006261 0.013744 0.000000 
0.016687 0.046756 0.040612 
-0.015879 0.046649 0.015971 
-0.031734 -0.037266 0.007043 
0.038365 0.030578 0.005662 
0.041359 0.018093 0.045134 
0.033780 -0.030630 0.037358 
0.040761 0.016920 0.010417 
0.026232 -0.042076 0.032110 
-0.048596 0.007020 0.013829 
-0.037529 -0.032294 0.037988 
-0.015396 -0.047522 0.045614 
-0.023015 0.018301 0.000000 
-0.039976 -0.029024 0.011241 
-0.028777 0.033766 0.020569 
-0.034696 0.029439 0.021989 
0.026163 -0.042127 0.032611 
-0.019591 -0.045164 0.017950 
-0.039685 0.008785 0.000000 
-0.047773 0.013067 0.030608 
-0.010280 0.000982 0.000000 
-0.004784 0.044270 0.014030 
-0.045168 -0.019161 0.004932 
0.012517 -0.047497 0.009942 
-0.003598 0.045802 0.000000 
-0.048388 -0.000000 0.008182 
0.030423 0.038933 0.026914 
-0.001592 -0.047953 0.000000 
0.003862 -0.049228 0.025149 
-0.037852 -0.027715 0.023793 
0.005797 -0.041650 0.000000 
0.017413 -0.007150 0.000000 
-0.000449 -0.014410 0.000000 
-0.043621 -0.016274 0.052000 
-0.045134 0.007777 0.003000 
0.035730 -0.034219 0.016437 
0.002891 -0.044767 0.039889 
0.023915 0.019200 0.000000 
-0.018097 -0.024704 0.000000 
-0.042610 -0.011673 0.013018 
0.007486 0.000642 0.000000 
0.035835 -0.007640 0.002766 
0.034914 -0.030131 0.047536 
-0.028675 0.012545 0.000000 
-0.021952 -0.039776 0.049461 
-0.020416 -0.021513 0.000000 
0.038338 -0.026332 0.042119 
0.039845 -0.019218 0.006512 
0.014868 -0.045736 0.000002 
0.020156 -0.044883 0.000589 
-0.033890 -0.035215 0.007157 
0.031066 0.038451 0.036840 
-0.023513 0.000792 0.003000 
0.043392 0.024021 0.028253 
-0.023351 0.037938 0.025386 
0.038157 -0.027803 0.023308 
-0.040674 0.020971 0.052000 
0.023405 0.038114 0.031862 
-0.015055 -0.046279 0.001805 
-0.020278 0.002398 0.003000 
-0.032895 0.031651 0.048362 
-0.045597 0.001466 0.002218 
-0.015000 0.046709 0.010044 
-0.039487 -0.006199 0.000000 
0.043135 0.024663 0.007249 
0.007408 -0.039765 0.000000 
0.034019 0.029947 0.022217 
-0.023087 -0.007768 0.003000 
0.044536 -0.012264 0.003000 
0.049391 -0.003901 0.039821 
0.039332 -0.029891 0.043140 
0.012162 0.044931 0.048404 
-0.016567 -0.021260 0.003000 
0.007688 0.044332 0.017264 
-0.048845 0.005774 0.006211 
0.022354 0.044059 0.016496 
0.003755 0.049249 0.035536 
-0.010663 -0.044357 0.018553 
0.012516 0.033174 0.000000 
0.006014 -0.042799 0.003000 
0.014884 0.018495 0.000000 
0.038869 -0.021652 0.002248 
-0.016817 0.046273 0.029990 
-0.009283 0.048653 0.052000 
-0.048028 -0.012429 0.028870 
0.048105 0.010185 0.019128 
-0.033583 -0.009763 0.000000 
-0.017980 -0.028967 0.000000 
0.044806 0.005169 0.013763 
-0.033342 0.014612 0.000000 
0.006069 0.048786 0.017990 
0.037901 -0.027751 0.031251 
-0.047056 -0.015069 0.033666 
-0.015244 0.046380 0.002574 
-0.047954 0.012614 0.036565 
-0.049338 0.007157 0.047385 
0.015125 0.043532 0.010864 
-0.042470 -0.021866 0.003000 
-0.006903 0.049000 0.028373 
0.000062 0.024819 0.000000 
-0.028800 0.040150 0.020187 
-0.012450 0.001397 0.000000 
0.008917 0.044839 0.043639 
-0.036019 0.032974 0.000866 
-0.006791 -0.044128 0.006676 
0.032979 -0.006435 0.002759 
-0.047637 0.010907 0.001570 
-0.031800 0.031203 0.010772 
0.008544 -0.048291 0.004060 
0.030501 -0.038874 0.048273 
0.041427 -0.014513 0.006893 
-0.047285 -0.013831 0.017765 
0.031105 0.014641 0.002420 
-0.014362 0.044633 0.016084 
0.010113 0.036409 0.000000 
0.021429 0.044429 0.009813 
-0.036863 -0.028760 0.000000 
0.028460 0.034133 0.024549 
-0.041830 -0.026560 0.043771 
0.045637 0.017305 0.003356 
0.044946 0.005377 0.019191 
-0.038729 -0.024495 0.031974 
0.034472 0.028876 0.000219 
-0.004897 0.044277 0.014404 
0.039068 0.028534 0.046405 
0.027648 0.034213 0.009000 
0.013533 0.045170 0.000000 
0.031965 0.036776 0.000987 
-0.048876 -0.010622 0.042114 
0.043890 -0.022775 0.030705 
0.021996 0.043873 0.001271 
0.008088 -0.049000 0.040627 
0.009535 0.024069 0.002338 
0.049000 -0.004574 0.021346 
0.041119 0.002370 0.002706 
-0.011517 -0.044971 0.050476 
-0.037572 0.004979 0.003000 
-0.047613 -0.015912 0.051562 
0.027289 0.041283 0.019925 
0.046853 -0.015367 0.016742 
0.037516 -0.026156 0.008227 
-0.045992 -0.001903 0.016269 
0.035545 0.034455 0.028661 
-0.007522 0.044512 0.026606 
-0.044858 -0.020356 0.009348 
0.018044 0.035364 0.002159 
0.044185 0.022037 0.018590 
-0.014743 -0.045188 0.034203 
-0.042198 0.019859 0.052000 
-0.011772 -0.036728 0.003000 
0.034465 -0.014424 0.000000 
-0.023745 0.002012 0.003000 
0.023975 0.043410 0.021643 
0.049421 0.002960 0.040425 
-0.040003 -0.021261 0.036530 
-0.028866 -0.025470 0.003000 
-0.041694 0.005086 0.000000 
0.006422 0.020771 0.002867 
0.044997 0.003641 0.005473 
0.044031 -0.022422 0.010982 
0.016087 0.042773 0.009443 
0.007015 0.049000 0.036301 
0.041841 0.015487 0.027946 
0.029701 0.022574 0.002290 
-0.037963 0.031716 0.034079 
0.015379 0.044392 0.042189 
0.002200 -0.044896 0.046615 
-0.007827 0.006492 0.000000 
0.002479 0.044078 0.004063 
0.000700 -0.003103 0.003000 
0.019668 0.023555 0.000000 
-0.045571 -0.015214 0.000000 
-0.014080 -0.044271 0.014111 
0.034985 -0.028922 0.012936 
0.039437 0.029750 0.051625 
0.003365 -0.015855 0.000000 
0.044999 0.005290 0.019809 
-0.006176 0.045507 0.052000 
0.043150 -0.024626 0.028188 
-0.013029 -0.001919 0.000000 
-0.000673 -0.033644 0.000000 
-0.027333 -0.035776 0.048766 
-0.032830 0.034908 -0.000000 
0.032178 -0.024626 0.003000 
-0.050000 -0.001751 0.045583 
-0.047865 -0.010338 0.001603 
0.041966 -0.026379 0.026856 
0.015407 0.043622 0.019804 
0.022726 -0.038109 0.016705 
-0.042981 0.011006 0.016878 
-0.007464 0.003051 0.003000 
-0.036684 0.033316 0.024551 
-0.038066 -0.023943 0.001235 
0.005550 -0.048890 0.020428 
-0.035568 0.005324 0.000000 
-0.023549 0.043843 0.051439 
0.004696 0.044239 0.012417 
0.028695 0.018779 0.000000 
-0.041734 0.015419 0.022926 
0.025446 -0.035659 0.003566 
0.043398 -0.023211 0.004639 
-0.000109 0.011838 0.002420 
-0.006900 0.033129 0.002591 
-0.030507 0.036090 0.052000 
-0.019190 -0.045162 0.002468 
-0.040142 0.017626 0.000457 
0.020337 -0.040188 0.026060 
-0.014131 -0.002235 0.000000 
-0.048822 -0.010096 0.029624 
-0.039668 0.020024 0.008911 
0.037624 -0.016495 0.000000 
0.048022 -0.009890 0.000019 
0.047677 -0.010712 0.052000 
0.011592 -0.034322 0.000000 
0.007015 0.048597 0.005871 
-0.045934 -0.005504 0.048141 
-0.023824 -0.038289 0.046354 
-0.030791 -0.012765 0.003000 
-0.035889 0.011270 0.003000 
0.030569 -0.032905 0.034439 
0.047786 -0.000000 0.028021 
-0.042657 -0.025458 0.033977 
-0.041360 -0.027187 0.023776 
0.019033 0.006389 0.002732 
0.000674 -0.044298 0.015516 
0.014474 0.010259 0.000000 
0.024385 0.040489 -0.000000 
0.020370 0.039691 0.002081 
0.011460 -0.032829 0.000000 
-0.030505 0.033207 0.042055 
0.004549 -0.049090 0.024957 
0.042967 -0.022337 0.000000 
0.025632 0.038992 0.002037 
0.014554 0.047178 0.032882 
0.045301 0.002209 0.000000 
0.014718 0.045121 0.016399 
-0.037704 0.026856 0.025007 
0.049722 0.000348 0.028876 
-0.019637 0.015304 0.002392 
-0.044330 -0.021675 0.007311 
-0.035546 -0.028192 0.003497 
0.036178 -0.030168 0.052000 
0.024220 0.043312 0.006033 
-0.009498 -0.044156 0.008089 
-0.014244 0.038062 0.000000 
-0.033609 0.036391 0.035578 
-0.010074 -0.044865 0.044995 
-0.012659 0.002062 0.003000 
0.026068 -0.040987 0.000853 
0.036419 0.032441 0.000195 
-0.011701 -0.024752 0.003000 
-0.038419 -0.026244 0.044046 
0.043639 0.011521 0.042558 
-0.015834 -0.043669 0.030650 
-0.015841 0.046664 0.028814 
0.025739 0.042446 0.033242 
-0.024233 0.040550 0.000000 
-0.044219 -0.006929 0.013742 
0.017969 0.012532 0.002498 
-0.031040 -0.024324 0.003000 
0.028118 -0.034993 0.042689 
0.047022 -0.015916 0.039761 
0.010887 0.023421 0.000000 
-0.044688 -0.021342 0.041859 
-0.039549 -0.021126 0.017283 
-0.007588 -0.029697 0.000000 
-0.001516 -0.044091 0.004726 
-0.031954 -0.030897 0.004989 
0.012757 -0.044562 0.029200 
-0.043757 -0.011732 0.003000 
-0.030630 -0.038370 0.010364 
0.018422 0.015882 0.000000 
0.015073 0.014415 0.000000 
-0.038254 -0.011627 0.000000 
0.002614 0.007423 0.000000 
0.011914 0.044584 0.030342 
-0.038247 -0.025083 0.021568 
0.039290 0.026919 0.052000 
0.019139 -0.020787 0.000000 
0.035347 -0.033653 0.000884 
0.038358 0.028235 0.003918 
-0.036720 -0.027823 0.018426 
0.049000 0.003097 0.018536 
0.014848 -0.046545 0.023756 
-0.048627 -0.011865 0.044719 
-0.018239 -0.046328 0.044458 
0.000014 0.021646 0.002332 
-0.040972 0.027704 0.041166 
0.014856 -0.046427 0.022870 
0.042507 -0.002938 0.000000 
0.041102 -0.016976 0.020000 
0.033133 -0.018512 0.002937 
0.029613 0.022651 0.002290 
-0.048570 0.009187 0.023115 
0.018984 -0.045406 0.019097 
0.038250 -0.027833 0.018491 
-0.011611 0.047678 0.009914 
-0.011432 -0.046913 0.003000 
-0.014981 -0.046222 0.051010 
0.000260 0.012452 0.000000 
-0.013994 0.044293 0.015231 
-0.048446 -0.002102 0.003000 
-0.022052 -0.008026 0.003000 
-0.036401 -0.033599 0.040158 
-0.037657 -0.030360 0.052000 
-0.025078 -0.036696 0.026424 
0.048830 -0.010001 0.029457 
-0.018819 -0.045473 0.010776 
-0.027423 -0.041183 0.041086 
0.010406 -0.021696 0.003000 
0.024068 0.037617 0.031670 
0.043779 0.021628 0.002578 
0.019198 -0.040442 0.008487 
0.006606 -0.049000 0.038289 
0.036837 -0.032626 0.012120 
0.039232 0.020465 0.001397 
-0.033265 0.036735 0.036877 
-0.049426 -0.006879 0.048043 
-0.029699 0.001545 0.003000 
-0.011973 -0.020007 0.000000 
-0.041143 -0.014792 0.001904 
0.034141 0.035859 0.035725 
-0.012583 0.010026 0.000000 
0.042239 -0.021242 0.000000 
-0.017037 0.023168 0.000000 
-0.040973 -0.016300 0.010566 
0.049143 0.002506 0.026660 
-0.007494 0.044856 0.044517 
-0.042669 0.013802 0.036597 
-0.042338 0.015812 0.000000 
-0.039746 -0.019706 0.008187 
0.049207 -0.003967 0.033369 
-0.030756 0.038107 0.002544 
-0.016684 0.043040 0.030612 
0.043100 -0.011826 0.027099 
0.023525 0.001412 0.002666 
-0.003348 -0.045316 0.003000 
0.020383 -0.039896 0.018369 
0.045148 -0.004543 0.017236 
0.016710 0.043696 0.050785 
0.042903 -0.010020 0.006330 
-0.048484 0.007581 0.000030 
-0.045583 -0.005167 0.000000 
0.048978 0.010110 0.051285 
-0.030355 -0.033509 0.047773 
-0.042910 -0.014113 0.050103 
-0.024244 0.041854 0.001997 
0.026829 0.037800 0.000000 
0.019486 0.040844 0.026897 
-0.012303 -0.041138 0.000000 
0.016577 0.019221 0.000000 
0.017894 -0.041574 0.013511 
0.017569 -0.041446 0.002506 
0.031040 -0.032415 0.030189 
-0.044874 -0.007780 0.038676 
-0.043865 0.007430 0.008877 
0.034411 0.032891 0.052000 
-0.047038 -0.014809 0.016579 
0.047231 -0.000000 0.028390 
0.008841 -0.048631 0.026458 
0.013078 0.048345 0.051214 
0.003013 -0.041503 0.000000 
-0.021404 -0.039489 0.028749 
0.007136 0.031254 0.002243 
0.043654 0.011536 0.043345 
0.041318 -0.027243 0.050226 
-0.013225 0.047355 0.005780 
-0.038225 -0.030676 0.005406 
0.028003 -0.000353 0.002676 
-0.040210 -0.021368 0.045925 
0.005564 0.038244 0.000000 
0.042787 -0.002385 0.000000 
0.048947 -0.000000 0.044018 
0.022974 0.008668 0.000000 
0.003659 0.045747 0.000000 
0.037262 0.031573 0.005008 
0.021900 -0.043575 0.002107 
0.043503 0.008356 0.007491 
-0.043681 -0.009368 0.020888 
0.047700 -0.011502 0.016264 
0.040682 0.017250 0.011231 
0.043742 0.011869 0.051277 
0.048800 -0.000000 0.034358 
0.006033 0.015180 0.002427 
0.017361 -0.046056 0.021615 
-0.002690 -0.044771 0.040099 
-0.025539 0.036479 0.030131 
0.018757 -0.045497 0.010101 
0.044059 -0.007882 0.017849 
0.022568 -0.038642 0.029135 
-0.016633 -0.039838 0.003000 
0.047379 -0.013105 0.006126 
-0.049314 -0.004135 0.034815 
-0.038769 0.024370 0.031796 
-0.049000 0.005876 0.028452 
0.044452 -0.021370 0.033877 
-0.002411 0.022502 0.002309 
-0.021213 0.042424 0.052000 
-0.046068 -0.001499 0.014746 
0.011047 -0.045995 0.000000 
-0.046475 -0.013811 0.002759 
-0.014864 -0.044026 0.019862 
-0.003641 0.049000 0.000317 
0.035432 -0.029007 0.025341 
-0.004795 -0.044487 0.025310 
0.013618 -0.026738 0.000000 
-0.050000 -0.001915 0.047082 
-0.039449 -0.023379 0.044275 
-0.000598 -0.049880 0.036027 
0.003219 0.022056 0.000000 
0.013086 -0.034396 0.000000 
0.034540 -0.035460 0.039240 
-0.014282 -0.044846 0.007288 
-0.007359 -0.048879 0.022255 
-0.020141 -0.018882 0.003000 
-0.041822 -0.026560 0.005952 
0.035903 0.034097 0.020127 
-0.015905 -0.035741 0.003000 
-0.037346 -0.027741 0.029806 
0.042467 0.014679 0.040868 
0.039191 -0.028461 0.014115 
0.049237 -0.000000 0.028660 
0.022124 0.038271 0.008242 
-0.038275 0.024462 0.014136 
-0.011023 0.048211 0.026301 
0.013916 0.044355 0.018440 
-0.029146 -0.031231 0.003000 
-0.033747 -0.031094 0.050518 
0.046748 -0.015630 0.021641 
-0.003513 -0.040413 0.003000 
0.049000 -0.007058 0.039665 
0.040392 -0.007673 0.000000 
0.037082 0.003213 0.000000 
0.044922 0.020195 0.006966 
0.013008 -0.047398 0.019217 
0.037880 0.026167 0.022314 
0.034656 -0.024921 0.003000 
0.040574 0.008656 0.000000 
-0.039128 0.024162 0.042708 
-0.019902 -0.045039 0.021016 
-0.040782 0.016471 0.000000 
-0.032691 0.020879 0.000000 
-0.047036 -0.014819 0.007532 
0.045860 0.013735 0.000000 
0.021931 -0.039399 0.037701 
0.024747 0.037036 0.029270 
-0.033633 0.030700 0.036216 
-0.002810 0.044953 0.049570 
-0.014240 0.044104 0.008417 
0.013290 0.044465 0.024174 
0.027462 -0.035433 0.003000 
0.035400 0.034600 0.025606 
-0.047155 -0.014224 0.011786 
0.013366 0.047327 0.019094 
0.027543 0.041093 0.039956 
-0.045780 0.003643 0.025847 
-0.038686 -0.025411 0.042866 
0.042162 0.015048 0.034256 
0.043864 0.008766 0.020448 
0.022778 0.004473 0.002608 
-0.025838 0.036505 0.037517 
0.001184 -0.044381 0.019795 
0.043085 -0.013083 0.042693 
-0.014565 -0.045990 0.052000 
0.019435 0.040432 0.013448 
-0.015289 -0.006854 0.003000 
-0.013743 -0.044956 0.049735 
0.043851 -0.022873 0.023228 
-0.045809 0.017978 0.003129 
-0.045819 0.017953 0.024820 
-0.027129 -0.004781 0.000000 
0.023084 0.043767 0.026072 
0.015706 -0.025910 0.000000 
-0.039538 0.019811 0.003700 
0.037380 -0.032493 0.027628 
0.003683 -0.049263 0.036811 
0.007627 0.027154 0.002296 
-0.016035 -0.046586 0.030865 
0.026427 -0.035283 0.013983 
0.006634 -0.014742 0.000000 
0.015419 0.046832 0.027040 
0.027092 -0.041431 0.018102 
0.043377 -0.008433 0.004893 
0.024388 0.012622 0.000000 
0.047682 -0.000000 0.013095 
0.033554 -0.031155 0.048088 
0.038152 0.025409 0.022365 
0.014702 -0.044708 0.036514 
-0.023021 0.043792 0.015419 
0.031191 -0.031363 0.002070 
-0.045507 -0.006961 0.051724 
-0.018402 -0.042237 0.044572 
0.016537 -0.046385 0.025299 
0.007767 0.049000 0.034309 
0.029286 -0.039785 0.023615 
-0.034097 0.006438 0.000000 
-0.048038 -0.003002 0.000000 
0.011387 0.019271 0.000000 
0.049000 -0.009544 0.045292 
-0.017200 -0.013199 0.000000 
-0.020788 -0.026269 0.000000 
0.039274 0.008412 0.002413 
-0.025855 -0.028408 0.003000 
0.032104 -0.031096 0.014273 
-0.010328 0.044303 0.015742 
0.018868 0.041210 0.024161 
-0.018237 0.005038 0.003000 
-0.008309 0.014379 0.002343 
-0.022732 -0.039041 0.044725 
0.013810 -0.044594 0.030875 
-0.043563 0.008461 0.009968 
-0.042710 0.014780 0.051557 
0.048960 -0.005202 0.001812 
-0.029573 0.025926 0.002097 
0.022744 0.016982 0.000000 
-0.027917 0.040812 0.006125 
0.042493 -0.018004 0.003000 
-0.005640 0.044389 0.020205 
0.047298 0.016534 0.050226 
0.032669 -0.033826 0.000000 
-0.026937 0.035553 0.033330 
0.046003 -0.005564 0.051622 
0.047287 -0.000870 0.041006 
-0.003263 -0.044783 0.040724 
-0.004603 0.024763 0.002275 
-0.033604 -0.030731 0.036499 
-0.033657 0.004203 0.000000 
0.014905 0.044909 0.047292 
0.045257 -0.007461 0.048992 
-0.026612 0.036277 0.047807 
-0.036151 0.018642 0.003000 
-0.039144 -0.019981 0.003000 
0.035738 -0.034262 0.038002 
0.046166 -0.001320 0.015755 
0.043418 0.014680 0.052000 
-0.001579 0.035101 0.002314 
-0.006797 -0.020104 0.000000 
-0.005563 -0.044497 0.025829 
0.023488 -0.037059 0.000000 
0.040350 0.020236 0.035797 
-0.026315 -0.025779 0.000000 
0.017080 0.041533 0.002063 
-0.039721 0.021765 0.032602 
-0.014658 -0.045354 0.034237 
0.033289 -0.029832 0.002659 
0.012616 0.008611 0.000000 
0.015351 0.014785 0.000000 
0.036359 0.028302 0.024762 
0.014222 -0.044806 0.011525 
0.013095 0.047762 0.036546 
-0.017871 -0.044306 0.052000 
-0.007171 -0.044342 0.017778 
0.028784 0.039671 0.052000 
-0.016293 -0.042775 0.014048 
0.000991 -0.049802 0.035327 
-0.011087 -0.044797 0.041457 
0.035070 -0.028661 0.007011 
0.037579 -0.025725 0.004746 
0.036219 0.033781 0.051486 
-0.027512 -0.028563 0.000000 
0.016259 0.046769 0.037464 
0.041689 0.005553 0.000000 
-0.008834 0.044504 0.026224 
0.041821 0.022825 0.052000 
0.043562 -0.010775 0.029985 
0.029716 -0.039284 0.010289 
0.000657 0.024162 0.000000 
0.044617 -0.021135 0.037965 
0.017164 -0.001433 0.000000 
0.027718 -0.030601 0.003000 
-0.043970 -0.022574 0.017066 
0.014416 0.047117 0.007525 
-0.036637 -0.033363 0.028855 
0.024706 -0.030184 0.003000 
-0.009195 0.011012 0.002359 
0.020917 -0.044633 0.011599 
-0.042921 -0.009972 0.003000 
0.008752 -0.024360 0.003000 
-0.002850 0.037840 0.002169 
0.025834 0.020296 0.000000 
0.010432 0.044246 0.012809 
-0.030673 -0.038745 0.030018 
0.037340 0.032547 0.049095 
-0.037768 0.027749 0.037018 
-0.005278 -0.049215 0.036295 
-0.001223 -0.049000 0.012888 
-0.003702 0.044474 0.024633 
0.020560 -0.019079 0.003000 
0.026778 0.041666 0.010379 
0.015401 -0.046839 0.009427 
-0.010077 -0.014838 0.000000 
-0.025725 -0.025073 0.003000 
0.014844 -0.047031 0.015044 
0.047102 0.002076 0.046641 
0.030001 -0.033333 0.003000 
0.002462 -0.013170 0.000000 
0.012378 -0.018567 0.000000 
0.035279 -0.033750 0.006319 
-0.028703 -0.040223 0.035539 
-0.036931 -0.029958 0.003000 
-0.039574 0.028787 0.044774 
-0.008479 0.048304 0.010371 
-0.038092 -0.030908 0.006484 
-0.041879 0.007154 0.000000 
-0.015645 -0.043441 0.019629 
0.007027 0.044562 0.029227 
-0.014453 -0.045130 0.007207 
0.015155 0.018811 0.002414 
0.041101 0.019753 0.000000 
0.028183 -0.033846 0.009857 
-0.031145 -0.031996 0.019984 
0.039777 -0.028851 0.010427 
-0.021416 -0.040208 0.050528 
0.031064 -0.038452 0.021492 
0.031808 0.037705 0.011644 
0.019409 -0.045475 0.036784 
0.048204 -0.008979 0.006841 
0.040475 -0.016817 0.002100 
0.042383 -0.025823 0.015154 
0.015000 0.046381 0.033920 
0.040971 -0.027705 0.017589 
-0.004714 -0.040601 0.000000 
0.048284 -0.000000 0.009529 
0.040616 0.017790 0.014204 
-0.008753 0.044991 0.051520 
0.047804 -0.010982 0.011163 
0.045443 0.006795 0.047007 
-0.038583 0.012853 0.000000 
0.042177 -0.023564 0.000000 
0.026996 0.036377 0.002069 
0.008933 -0.037281 0.003000 
0.014847 -0.046061 0.002923 
-0.039402 -0.020036 0.002103 
0.004384 0.037744 0.000000 
-0.043010 -0.011386 0.020951 
0.028978 -0.012464 0.002817 
0.037995 0.031674 0.030442 
0.003210 -0.013962 0.000000 
0.011617 -0.044777 0.040398 
-0.035307 -0.034693 0.045187 
0.033929 0.036071 0.019917 
0.014945 -0.046371 0.049144 
0.044266 0.020823 0.052000 
0.001602 -0.034876 0.000000 
0.017663 0.032361 0.000000 
-0.026444 -0.041678 0.004565 
-0.037213 -0.028211 0.040913 
-0.019655 0.044379 0.002008 
0.039266 -0.008698 0.000000 
0.022574 0.038317 0.019573 
-0.035373 0.019599 0.000000 
0.009911 -0.008572 0.003000 
-0.033604 0.036396 0.041783 
0.038972 -0.021961 0.007617 
-0.035920 0.001054 0.000000 
-0.010395 -0.032897 0.003000 
-0.009562 -0.040298 0.003000 
0.044147 0.023031 0.039185 
0.048727 -0.000000 0.023950 
-0.024562 -0.038693 0.000000 
0.039442 0.020067 0.003393 
0.040512 0.018708 0.021102 
0.016054 0.046578 0.027684 
0.018908 0.041114 0.022178 
0.015935 0.047363 0.046734 
-0.046903 -0.000659 0.029189 
-0.042546 0.023271 0.002446 
-0.000111 -0.043467 0.000000 
0.026377 -0.039530 0.003000 
0.045795 0.016124 0.052000 
0.045948 -0.017631 0.003367 
-0.041982 0.014159 0.018253 
0.003660 -0.009507 0.000000 
-0.015445 0.035444 0.000000 
0.042607 0.009389 0.003000 
0.015000 0.046229 0.014701 
0.009578 -0.034541 0.003000 
-0.043801 -0.010484 0.034591 
0.041938 0.001291 0.002979 
-0.026803 0.035197 0.002047 
-0.039033 -0.028431 0.015334 
-0.046193 -0.017018 0.019147 
0.038391 0.031145 0.028982 
-0.011075 0.044497 0.025821 
-0.022774 0.041435 0.002013 
-0.022513 -0.009759 0.000000 
0.039310 0.021786 0.017163 
0.037532 0.031468 0.009175 
0.008142 -0.044194 0.010063 
-0.044833 -0.005265 0.015278 
-0.034881 -0.029305 0.022080 
-0.011878 -0.047938 0.021707 
-0.002526 -0.047499 0.003000 
0.014046 -0.044112 0.000656 
-0.034881 0.029480 0.027314 
-0.000062 -0.031160 0.003000 
-0.003056 0.049590 0.036016 
0.025955 -0.042284 0.040558 
0.009278 0.048144 0.014854 
-0.021846 -0.044261 0.016889 
0.016392 0.036854 0.002145 
0.003329 -0.049073 0.018095 
0.048394 0.011201 0.052000 
0.033254 0.036746 0.022047 
0.022902 0.037962 0.016198 
0.003710 -0.044594 0.030892 
-0.014195 -0.044727 0.009090 
0.011034 -0.032152 0.000000 
0.019418 0.043039 0.052000 
-0.027114 -0.031421 0.003000 
-0.027654 0.040388 0.002269 
-0.046214 0.018566 0.044814 
-0.012415 -0.047034 0.002733 
-0.047825 -0.011565 0.019075 
-0.002697 0.050000 0.045519 
0.045931 0.002558 0.020371 
0.018832 0.045467 0.031279 
0.016898 -0.042604 0.022306 
0.004896 0.049611 0.044212 
0.001943 -0.049664 0.045285 
-0.049052 -0.006105 0.037458 
0.037118 0.028325 0.042233 
0.030861 -0.032932 0.041706 
-0.036907 0.028624 0.046481 
0.049972 -0.000141 0.038468 
0.017360 0.004804 0.002796 
-0.031030 -0.032772 0.040666 
0.039147 -0.028848 0.001795 
-0.009823 0.044956 0.049721 
