
# .PCD v.6 - Point Cloud Data file format
FIELDS x y z 
SIZE 4 4 4 
TYPE F F F 
COUNT 1 1 1 
WIDTH 1646
HEIGHT 1
VIEWPOINT 0.000000 0.000000 0.000000 1.000000 0.000000 0.000000 0.00000
POINTS 1646
DATA ascii
-0.058550 -0.021797 0.023252 
-0.023529 -0.024424 0.003000 
0.037282 -0.025435 0.003000 
0.018415 -0.055553 0.019801 
0.053446 0.013790 0.029855 
-0.035028 -0.042645 0.028969 
0.048628 0.016925 0.005656 
-0.007780 0.048939 0.015074 
-0.019612 0.061352 0.029055 
-0.012185 -0.062730 0.027098 
0.056806 -0.000000 0.014922 
0.047390 -0.027190 0.008788 
-0.061052 -0.031831 0.039333 
-0.067892 0.009262 0.038169 
-0.062661 -0.019211 0.052285 
0.035600 -0.050739 0.043398 
0.016549 -0.057571 0.018134 
0.013509 -0.062026 0.043504 
-0.020815 0.071987 0.057632 
-0.010585 0.009273 0.002369 
-0.022417 -0.059833 0.026681 
-0.048349 -0.048017 0.038794 
0.043494 0.031418 0.007316 
0.022562 -0.063787 0.036268 
0.029163 -0.031662 0.002065 
0.055126 -0.039593 0.036373 
-0.027016 0.011563 0.000000 
0.014962 -0.067365 0.039096 
-0.031217 -0.067137 0.063000 
0.012388 -0.059189 0.037342 
-0.062276 0.033918 0.045031 
0.013967 0.062672 0.044909 
-0.048261 0.037292 0.020082 
-0.060563 -0.000000 0.024547 
0.063124 0.031291 0.044049 
-0.010927 0.057397 0.033448 
0.020161 -0.024699 0.003000 
-0.054070 -0.000096 0.008113 
-0.036199 -0.058525 0.038672 
0.054557 0.040072 0.048365 
0.039298 0.006711 0.000000 
-0.003331 -0.004501 0.002898 
0.020403 0.068045 0.056580 
-0.020954 0.013520 0.002262 
0.060850 0.012651 0.044292 
-0.053288 0.000946 0.007288 
0.073077 -0.009123 0.052371 
-0.014781 -0.054642 0.012922 
0.028894 -0.069179 0.058215 
0.036611 -0.062392 0.048314 
-0.025140 0.022541 0.002148 
-0.000982 -0.042077 0.000000 
0.032660 0.016791 0.003000 
-0.026018 0.061868 0.050954 
0.033031 -0.027883 0.000650 
-0.006422 0.055855 0.030099 
-0.026602 0.021869 0.002142 
0.035326 -0.036029 0.017478 
0.042065 -0.024140 0.012954 
-0.043804 -0.005338 0.003469 
0.059362 -0.029567 0.033197 
0.023337 0.058339 0.024370 
-0.039208 -0.027914 0.009876 
-0.063831 -0.006216 0.027723 
-0.035238 0.022184 0.000000 
0.061436 0.013210 0.045859 
-0.062914 -0.039599 0.055017 
0.055269 0.047453 0.051866 
-0.015424 -0.008332 0.002765 
0.060712 0.002139 0.019270 
-0.070273 -0.027721 0.059857 
-0.016118 -0.056285 0.031033 
0.044448 0.032236 0.023440 
-0.058848 -0.000000 0.023829 
-0.031480 -0.065427 0.050876 
-0.014734 -0.030553 0.000000 
-0.041750 0.027068 0.003573 
-0.044059 0.013763 0.001333 
0.008688 -0.017234 0.002677 
-0.067573 0.006884 0.054314 
0.063115 0.020361 0.053966 
-0.019310 -0.068468 0.045811 
0.032166 -0.033580 0.009218 
-0.045944 0.058062 0.054526 
0.063382 -0.037787 0.063000 
0.052692 -0.012751 0.026773 
0.033141 0.023770 0.002486 
-0.029190 -0.056914 0.027726 
-0.057886 -0.039673 0.042656 
-0.053946 0.050496 0.054264 
-0.028989 -0.002280 0.000000 
-0.005473 0.060218 0.019385 
0.040150 0.059423 0.047579 
-0.051481 -0.037791 0.041482 
-0.069147 -0.018788 0.047363 
-0.060801 -0.000932 0.035960 
0.002474 -0.064928 0.049809 
0.069069 0.021318 0.049344 
0.013301 0.065313 0.050645 
-0.048413 -0.042810 0.029151 
0.071932 -0.020976 0.063000 
-0.041448 0.003497 0.003000 
0.049434 0.013456 0.021193 
0.013546 -0.027252 0.003000 
-0.054085 0.036685 0.046100 
0.012394 -0.067566 0.055540 
-0.016680 -0.050781 0.017860 
-0.006337 0.059279 0.037538 
0.016378 0.050786 0.010998 
-0.022754 0.069475 0.055772 
-0.040826 -0.029911 0.011438 
0.055976 -0.033508 0.047555 
-0.026534 -0.067513 0.050784 
0.056576 -0.051697 0.063000 
0.015248 -0.051386 0.020390 
0.048857 -0.058956 0.062249 
-0.036318 0.058806 0.039381 
0.023501 -0.024845 0.003000 
-0.022269 -0.046498 0.005663 
-0.020998 -0.065117 0.045446 
-0.019957 -0.028561 0.003000 
-0.011887 -0.047266 0.002779 
0.063318 0.027722 0.059183 
0.063265 -0.030864 0.044142 
-0.055815 0.030401 0.026311 
0.076732 -0.004996 0.062229 
-0.039648 -0.016077 0.002548 
0.065239 -0.000145 0.029792 
-0.009480 0.033666 0.002445 
0.056142 0.019678 0.017179 
-0.001398 0.010033 0.002390 
0.008152 -0.045846 0.008355 
0.038872 -0.049524 0.024846 
0.051761 0.033402 0.039194 
-0.043366 -0.061628 0.063000 
0.066394 -0.003215 0.032926 
-0.056443 0.041202 0.048986 
0.003679 0.003746 0.000000 
-0.006720 -0.050544 0.018562 
0.026411 -0.064221 0.041498 
-0.021946 0.024832 0.000000 
-0.061912 0.000994 0.021180 
-0.026515 -0.044233 0.005397 
0.025099 0.059313 0.045276 
0.055281 0.020819 0.016704 
0.027476 0.011837 0.002395 
-0.024613 0.066798 0.046515 
0.064867 0.031826 0.063000 
0.035595 0.037219 0.005684 
-0.025613 -0.070800 0.058812 
0.043022 -0.057721 0.048219 
-0.046750 -0.052969 0.061784 
0.042057 0.028240 0.004640 
-0.026172 0.027949 0.000000 
0.051203 -0.043915 0.036749 
-0.064592 0.039578 0.059673 
0.051211 -0.006546 0.005386 
0.041265 0.064540 0.062678 
-0.019736 -0.027919 0.000000 
-0.055889 -0.040600 0.047454 
0.042985 0.030325 0.019194 
-0.007355 0.057420 0.014712 
-0.024376 -0.065794 0.043444 
-0.031093 -0.066448 0.053251 
0.055506 0.009536 0.012098 
0.027697 0.003454 0.003000 
-0.032809 -0.004772 0.003000 
0.010061 -0.070333 0.045588 
0.024254 0.054263 0.035272 
0.040065 0.057267 0.041709 
0.042864 0.033235 0.022551 
0.028909 0.035493 0.000000 
-0.044549 0.053973 0.042917 
0.004859 0.055928 0.030258 
0.035736 0.024372 0.002976 
-0.019734 -0.067188 0.042420 
-0.010571 0.075246 0.059902 
0.022290 -0.063768 0.035938 
-0.067598 -0.015856 0.060218 
0.024741 0.034027 0.000000 
-0.076386 -0.009713 0.062483 
0.012370 0.056338 0.014322 
0.024580 0.055067 0.019252 
0.062702 -0.007635 0.044377 
0.033077 0.017567 0.003000 
0.054984 0.012609 0.032233 
0.038177 0.057446 0.058692 
-0.026474 -0.047501 0.026363 
0.071331 -0.004448 0.046702 
0.005213 -0.000932 0.000000 
-0.051583 0.003686 0.005583 
-0.043066 0.031700 0.017040 
-0.016704 -0.037832 0.003000 
0.051819 -0.051609 0.052321 
0.060422 0.026046 0.032168 
-0.049097 0.012953 0.004878 
0.046000 0.001559 0.000377 
0.042016 -0.050611 0.032446 
-0.012702 -0.060075 0.039267 
0.019372 0.058992 0.035781 
-0.056107 0.031265 0.046710 
0.054011 0.044052 0.042445 
-0.039358 0.024205 0.007764 
0.071651 -0.007339 0.047624 
0.033877 0.049974 0.018989 
-0.021825 0.054196 0.031903 
0.037718 0.035564 0.006023 
-0.009837 0.071818 0.049832 
0.042167 -0.055370 0.060089 
-0.041035 -0.029894 0.007446 
-0.025510 0.065238 0.043251 
0.020582 -0.063013 0.045726 
-0.039144 0.002187 0.003000 
0.013060 0.067652 0.038875 
-0.053054 -0.021214 0.033893 
-0.007909 0.037856 0.000000 
-0.050342 -0.035242 0.037484 
0.032747 0.057448 0.032329 
-0.009694 0.040014 0.000000 
-0.071880 0.009620 0.063000 
-0.049005 -0.035518 0.021736 
0.030820 0.039827 0.018698 
0.056161 -0.026665 0.043355 
-0.009724 0.042847 0.000000 
-0.003861 -0.068493 0.038797 
-0.066115 -0.027600 0.048171 
-0.051812 -0.021613 0.012005 
0.059971 -0.012203 0.041693 
0.055846 0.040934 0.044423 
-0.027494 0.031359 0.000000 
0.050643 0.005342 0.017834 
0.001474 -0.072804 0.063000 
0.049678 -0.021432 0.026419 
-0.002776 -0.075398 0.058394 
-0.008569 -0.056390 0.031261 
-0.050278 -0.050224 0.046711 
0.066887 -0.019313 0.060967 
-0.026816 -0.037138 0.001859 
-0.048226 0.000454 0.009204 
-0.065782 -0.001339 0.031870 
0.043853 0.010583 0.000000 
0.054326 0.021188 0.036485 
-0.042358 -0.050175 0.051356 
-0.035891 0.048585 0.040388 
0.036586 -0.036095 0.019221 
-0.047967 -0.008453 0.002593 
-0.054820 0.053391 0.061487 
0.010641 0.075677 0.063000 
0.026349 0.050187 0.030914 
0.031158 -0.017467 0.000000 
0.018655 0.002594 0.002409 
0.061140 -0.025416 0.052977 
0.050093 0.000877 0.013433 
-0.000269 0.001659 0.000000 
-0.041486 -0.049807 0.029157 
-0.017416 0.054614 0.018220 
-0.062937 -0.003241 0.025010 
-0.060242 -0.040677 0.061329 
-0.062551 0.042211 0.059256 
-0.004643 0.052590 0.023005 
0.029971 0.052470 0.039633 
0.053148 0.019899 0.033228 
0.041830 0.030475 0.011448 
-0.020247 0.041830 0.008064 
0.002493 0.073268 0.052271 
0.007923 0.057106 0.014278 
-0.014711 0.058341 0.018565 
-0.041088 0.036239 0.025521 
0.026215 -0.040706 0.013626 
-0.042298 0.055163 0.059950 
0.016874 0.005422 0.002394 
0.050732 -0.039454 0.028230 
0.065924 -0.025260 0.044856 
-0.044352 -0.030017 0.021795 
0.042964 -0.018134 0.010573 
0.047484 0.052470 0.045661 
-0.005787 0.043518 0.000000 
-0.042621 -0.051296 0.053637 
0.020514 0.033584 0.002081 
-0.073367 -0.010012 0.054274 
0.068556 0.004926 0.055051 
0.045180 -0.005066 0.005918 
-0.026634 0.001931 0.003000 
0.041981 -0.030810 0.017441 
0.058604 -0.041185 0.047239 
0.063959 0.038853 0.055959 
0.051176 -0.000000 0.005633 
0.059175 -0.028041 0.031270 
-0.054898 -0.005072 0.026572 
-0.005785 -0.062753 0.045083 
0.012315 0.049985 0.005526 
0.008715 0.067265 0.036523 
0.008906 -0.048852 0.014885 
0.006027 0.032442 0.002145 
-0.037603 -0.030952 0.011910 
-0.009678 -0.023530 0.000000 
-0.036905 0.026279 0.000000 
-0.047854 -0.026147 0.026450 
0.063010 0.022255 0.054986 
0.070148 -0.021145 0.052418 
-0.020395 -0.070896 0.062775 
0.065035 0.022460 0.039223 
0.023916 -0.064192 0.038650 
-0.060264 0.017572 0.023659 
0.014862 -0.057515 0.017608 
-0.046729 0.014664 0.016391 
-0.055302 0.042520 0.041891 
-0.009515 0.059346 0.037682 
0.067492 -0.019634 0.062453 
0.044499 0.032397 0.018461 
0.013702 0.018833 0.002270 
0.013991 0.052460 0.008685 
0.039818 0.049911 0.047674 
0.049191 -0.046681 0.037857 
0.047680 -0.048923 0.055796 
-0.013494 -0.050701 0.006591 
0.017180 0.072953 0.057627 
0.046784 0.050018 0.039624 
-0.065487 0.002380 0.046852 
-0.043009 -0.047464 0.047468 
0.058351 -0.038903 0.056131 
0.004392 -0.062765 0.025064 
-0.061754 0.036267 0.046641 
-0.059591 0.035783 0.040290 
0.048164 0.050749 0.059717 
0.011309 0.067348 0.055067 
-0.026809 -0.064367 0.056302 
0.012257 -0.054410 0.011101 
-0.044285 0.032288 0.011254 
0.034160 -0.030786 0.000913 
0.034244 -0.034735 0.002894 
0.006789 0.052232 0.022227 
0.031221 -0.025705 0.003000 
-0.066199 0.033006 0.063000 
-0.004005 0.005613 0.002551 
-0.046193 -0.040750 0.039836 
-0.063470 -0.025086 0.038214 
0.043847 -0.002563 0.001481 
-0.065980 -0.000244 0.046335 
-0.043413 0.045248 0.044130 
0.012700 0.032326 0.002130 
0.068374 0.019128 0.045588 
-0.057550 -0.000000 0.020685 
-0.012598 0.064519 0.048921 
0.031660 -0.052890 0.042116 
0.050619 0.029885 0.034558 
0.041713 -0.034886 0.023809 
0.038692 0.050884 0.026772 
0.012595 -0.012280 0.000000 
-0.040451 -0.016807 0.004764 
0.033988 0.044292 0.030512 
-0.019740 -0.059861 0.031130 
0.034336 -0.029357 0.000000 
-0.073049 0.014454 0.055830 
0.072626 0.006838 0.050425 
0.000118 -0.001598 0.000000 
-0.020114 0.058299 0.036822 
-0.047861 -0.015921 0.019682 
0.017465 -0.060144 0.039415 
-0.008349 -0.047197 0.011290 
-0.022436 0.037480 0.000000 
-0.062234 0.018040 0.028965 
-0.032775 0.048734 0.016047 
-0.057060 0.031754 0.048984 
-0.033544 -0.056237 0.050713 
0.032481 0.046921 0.012967 
0.024173 -0.055583 0.037208 
0.007565 0.056507 0.013071 
0.037575 0.036383 0.021314 
0.037250 -0.042803 0.031489 
-0.030038 -0.059660 0.034621 
-0.029389 -0.007163 0.000000 
-0.020064 -0.061091 0.039881 
-0.041454 -0.050092 0.050065 
-0.032116 0.041230 0.006230 
-0.046123 0.033556 0.019974 
0.037975 -0.036965 0.022501 
0.009078 -0.008967 0.002587 
-0.052954 -0.038589 0.031758 
-0.009978 0.075758 0.060915 
0.066574 -0.010138 0.035386 
-0.035475 -0.051118 0.044264 
-0.014771 -0.056165 0.015478 
-0.049838 0.020700 0.026965 
0.019749 -0.066552 0.040570 
-0.032224 0.036204 0.002562 
-0.032494 -0.029304 0.002450 
-0.053263 -0.026999 0.018177 
0.040921 0.051039 0.051036 
-0.068607 0.011626 0.040757 
0.017531 0.053671 0.022878 
-0.058488 -0.025149 0.026853 
-0.060717 -0.036010 0.059258 
0.044746 -0.042974 0.022368 
0.025702 0.044610 0.005303 
0.036349 0.026811 0.001213 
0.005288 -0.061443 0.021881 
-0.060532 -0.028939 0.035497 
-0.062289 -0.036709 0.048266 
0.044060 -0.013761 0.001082 
0.015095 0.051151 0.019880 
0.011055 -0.052191 0.022140 
-0.057886 0.042465 0.057282 
-0.006799 -0.062412 0.044343 
-0.034027 -0.054077 0.047570 
-0.056030 0.034703 0.031807 
0.062197 0.018055 0.050580 
0.031256 0.056450 0.028762 
0.022629 -0.008722 0.000000 
-0.017288 0.061369 0.042079 
-0.017320 0.051503 0.021140 
0.043256 0.037073 0.013349 
-0.049242 -0.023672 0.027681 
0.068431 0.023277 0.049458 
0.023646 -0.051139 0.028656 
-0.047866 -0.017903 0.021096 
0.010282 0.052807 0.023478 
-0.043121 0.007966 0.003945 
0.040745 -0.029769 0.014222 
-0.041311 -0.037867 0.028633 
0.051380 -0.037494 0.037850 
0.022972 -0.041160 0.010197 
0.060546 -0.044251 0.062749 
0.035813 -0.030746 0.009124 
0.067256 -0.033836 0.063000 
0.071350 -0.000000 0.056001 
-0.008648 -0.058196 0.035185 
-0.052252 0.040452 0.047004 
-0.031058 -0.047672 0.012809 
-0.008874 -0.061561 0.023267 
-0.030205 -0.025079 0.003000 
-0.073513 0.011334 0.054863 
0.049904 -0.000000 0.005260 
-0.045417 -0.028760 0.023158 
-0.070206 0.013961 0.046735 
-0.000416 0.031115 0.002162 
-0.043364 0.025060 0.016536 
0.002725 0.022788 0.002252 
0.049860 -0.014086 0.021718 
-0.025172 0.047983 0.025468 
-0.002980 0.053689 0.025394 
0.049057 0.028237 0.012347 
-0.047729 -0.000000 0.006246 
0.028612 0.048867 0.012385 
0.053987 0.050540 0.054427 
-0.056273 0.044426 0.059013 
0.054616 -0.039676 0.042468 
0.043957 0.044574 0.043649 
-0.017761 -0.055730 0.021491 
0.049153 -0.000000 0.003783 
-0.026684 -0.009662 0.000000 
0.038258 0.031946 0.014468 
-0.063937 -0.013337 0.051068 
0.019461 -0.035150 0.000000 
-0.055302 -0.041769 0.053162 
-0.028482 -0.067292 0.052486 
0.007323 -0.062461 0.024849 
-0.027525 0.032182 0.000854 
-0.041855 0.030735 0.011162 
-0.022538 -0.068444 0.051452 
-0.065277 0.025604 0.043471 
0.037119 0.053656 0.029962 
-0.042431 -0.060653 0.054880 
0.030944 -0.045207 0.027580 
0.053160 0.000578 0.019655 
-0.028740 0.064924 0.046220 
0.072075 -0.006113 0.048841 
0.041309 0.025683 0.012728 
0.058084 -0.034362 0.035398 
0.021166 -0.064913 0.046699 
-0.000450 0.005960 0.002435 
-0.052606 0.022713 0.033952 
0.007989 0.061331 0.041996 
-0.056012 -0.030467 0.027069 
0.021502 0.025309 0.000000 
0.038555 0.026458 0.000919 
0.051878 0.027693 0.016490 
-0.045494 -0.007532 0.002665 
0.017530 0.046516 0.003832 
-0.025396 0.013248 0.000000 
0.005860 0.060065 0.039244 
0.041720 -0.017509 0.000000 
-0.009346 0.068215 0.056951 
-0.041388 -0.022630 0.010899 
-0.030404 -0.014605 0.003000 
-0.007825 0.028030 0.002334 
0.067707 -0.000000 0.045054 
0.006174 -0.004944 0.000000 
-0.039873 -0.003409 0.003000 
0.051136 0.014646 0.025633 
0.004251 -0.044912 0.006326 
0.026273 0.051105 0.032426 
0.020104 -0.062673 0.032646 
0.028712 0.001462 0.000000 
0.004075 0.017281 0.002312 
0.050821 -0.007563 0.005203 
0.058059 -0.010528 0.036557 
0.013621 0.009823 0.000000 
0.019282 -0.054523 0.029008 
-0.051510 0.040647 0.031634 
0.011272 -0.056704 0.031943 
-0.030730 -0.060278 0.036616 
0.053408 -0.037866 0.030559 
0.013712 0.064450 0.031628 
-0.033220 -0.022647 0.003000 
0.017371 -0.011653 0.002559 
0.057785 -0.025325 0.045870 
0.039502 -0.028801 0.006300 
0.041358 -0.030136 0.010699 
-0.036190 -0.026545 0.000000 
-0.068423 -0.011321 0.058950 
0.048157 0.042293 0.027736 
0.025832 0.037059 0.007158 
-0.014195 0.036557 0.002674 
-0.013923 -0.071743 0.063000 
0.058017 0.014664 0.039796 
0.019293 -0.028872 0.003000 
-0.054074 -0.016196 0.012210 
0.013369 0.069888 0.060584 
0.029593 -0.061210 0.037586 
0.032213 0.030850 0.004790 
0.022265 -0.016331 0.000000 
0.046000 -0.003580 0.002325 
-0.057472 -0.021265 0.042986 
-0.043171 0.028410 0.018324 
-0.069074 0.030217 0.059499 
-0.017145 0.053409 0.013149 
-0.015960 -0.014735 0.000000 
-0.006858 -0.073733 0.053607 
-0.037768 -0.054676 0.033111 
0.030754 -0.069227 0.060551 
-0.043964 -0.041608 0.038501 
0.028635 0.063770 0.057579 
0.040501 0.007917 0.000000 
0.050262 -0.029844 0.015689 
-0.022656 0.040999 0.000735 
0.017565 0.044443 0.009065 
-0.018144 0.065867 0.037824 
-0.047817 0.053961 0.063000 
0.044269 0.034643 0.026782 
0.011450 0.044247 0.004882 
0.036199 0.062566 0.048608 
0.072249 -0.005820 0.049341 
0.067182 0.016403 0.059722 
-0.013185 0.060313 0.021839 
-0.011955 -0.044230 0.000000 
0.052512 -0.000000 0.007958 
0.018913 -0.039039 0.001329 
-0.041063 0.048809 0.047338 
-0.024821 0.014838 0.002218 
-0.016842 -0.056837 0.017064 
-0.040318 0.056260 0.039617 
-0.021484 -0.055552 0.017627 
-0.039400 0.029027 0.006781 
-0.021349 0.065571 0.051252 
0.051845 0.048341 0.060201 
0.066346 -0.003794 0.049461 
0.043525 -0.013821 0.008694 
-0.013454 -0.044136 0.001109 
-0.038114 0.003237 0.003000 
0.031166 0.007765 0.000000 
-0.040432 0.058584 0.045248 
-0.034347 0.060449 0.059053 
-0.067240 -0.027313 0.050951 
0.010498 -0.034272 0.000000 
0.005324 0.045354 0.000000 
0.040753 -0.025644 0.011356 
-0.058704 0.045144 0.055750 
-0.038447 0.051813 0.049242 
-0.004726 -0.064574 0.029489 
-0.020560 -0.063755 0.042080 
0.029000 -0.044688 0.007110 
0.001150 0.063306 0.025065 
-0.065820 -0.018208 0.037547 
-0.047296 -0.028222 0.009593 
-0.053013 -0.018387 0.011794 
0.027043 -0.036968 0.001250 
0.061496 -0.004205 0.039552 
-0.046781 0.050966 0.041431 
-0.040596 0.029582 0.007448 
0.054116 -0.000000 0.019378 
0.003517 0.049973 0.017321 
-0.024598 -0.007983 0.000000 
0.027457 -0.026455 0.000000 
0.068183 -0.018883 0.044794 
0.023453 0.062700 0.034563 
0.058676 -0.046841 0.063000 
0.021112 0.056217 0.018358 
-0.070061 0.018215 0.049918 
-0.031061 0.040984 0.005364 
0.046336 -0.018795 0.004150 
-0.050746 -0.010457 0.021768 
-0.051785 -0.003948 0.019218 
0.002431 0.075877 0.059772 
-0.030977 0.008945 0.003000 
0.058158 -0.018629 0.042180 
-0.002737 -0.068077 0.037807 
-0.046206 0.057636 0.063000 
-0.044624 0.039984 0.018172 
0.044131 -0.051043 0.036846 
-0.046638 -0.005351 0.009429 
0.008440 -0.058197 0.035188 
0.020020 -0.038404 0.001685 
-0.000347 -0.060724 0.040677 
-0.019842 0.069438 0.059606 
-0.049247 0.001559 0.012153 
0.062794 -0.000000 0.037958 
0.055055 0.036396 0.031828 
0.046788 -0.053835 0.046943 
-0.056255 -0.036440 0.034331 
-0.048543 -0.017932 0.005967 
0.059198 -0.000000 0.019790 
0.012785 0.040227 0.000000 
0.032547 -0.046655 0.032218 
0.015633 -0.047029 0.006886 
0.044446 0.042610 0.021106 
-0.015264 0.046757 0.008847 
0.055098 0.053222 0.061696 
0.038232 0.021968 0.000000 
0.023208 -0.035598 0.001044 
-0.040360 0.021641 0.000000 
-0.047556 -0.019855 0.005754 
-0.002005 0.016767 0.000000 
0.006541 -0.071679 0.063000 
0.065357 -0.017123 0.056292 
0.044717 -0.005360 0.000000 
-0.021731 -0.035330 0.000000 
0.033245 0.032095 0.008360 
0.052154 -0.037978 0.042968 
0.022173 -0.058415 0.023239 
-0.035208 0.026856 0.000000 
-0.024500 -0.047287 0.007304 
0.061652 0.022535 0.052384 
0.057390 -0.051007 0.062172 
-0.058695 -0.024122 0.047357 
0.066566 0.008724 0.034896 
0.034902 -0.006614 0.000000 
-0.014783 0.012493 0.002315 
0.007235 -0.057475 0.033617 
0.041719 0.014134 0.005484 
0.040770 -0.062743 0.063000 
-0.076172 -0.000454 0.060619 
-0.051504 0.028373 0.035386 
0.043707 -0.017277 0.000993 
0.056466 -0.040789 0.040865 
-0.050991 -0.021539 0.010693 
-0.016315 0.043429 0.000346 
-0.003203 0.071437 0.047006 
0.043988 0.029515 0.020721 
0.052046 -0.045375 0.055154 
-0.076279 0.006224 0.063000 
0.044902 -0.002286 0.003000 
-0.037902 0.035530 0.006132 
-0.047813 0.050145 0.041836 
-0.006533 -0.051943 0.006098 
0.066544 0.025092 0.046379 
-0.022179 0.068064 0.050694 
-0.049717 0.027365 0.031066 
0.068849 -0.004531 0.055211 
-0.040306 -0.025194 0.010353 
0.059038 0.000641 0.032046 
0.019426 -0.058702 0.027598 
-0.007295 -0.070568 0.044577 
0.062961 -0.027706 0.039622 
-0.019015 0.033766 0.000000 
-0.019065 -0.042052 0.000076 
0.068083 0.017723 0.043485 
-0.033794 0.011709 0.000000 
0.013153 -0.072145 0.052703 
0.028748 0.042373 0.020399 
0.066825 0.007111 0.052928 
-0.049232 0.033608 0.017591 
0.038771 -0.026511 0.001045 
-0.019043 -0.062378 0.029507 
-0.015720 -0.020505 0.003000 
-0.072345 -0.024123 0.063000 
-0.056616 0.010200 0.033907 
-0.069051 0.018146 0.046791 
0.063995 -0.031425 0.046836 
-0.008865 -0.036733 0.000000 
0.034882 -0.032591 0.001798 
-0.032304 -0.015531 0.000000 
0.024368 -0.060852 0.046794 
0.053272 0.003428 0.021963 
0.069068 -0.017555 0.063000 
0.059503 -0.043251 0.057265 
-0.047367 -0.029309 0.027515 
-0.055120 -0.048087 0.052547 
-0.063289 -0.000000 0.029951 
-0.007505 -0.065143 0.031168 
0.016629 -0.002890 0.002479 
0.017516 -0.054753 0.027705 
-0.037897 -0.013210 0.003000 
-0.040537 -0.063178 0.057944 
0.021311 -0.000732 0.000000 
-0.025115 0.006477 0.000000 
0.043402 -0.016982 0.010652 
0.027847 -0.035693 0.003000 
-0.016709 -0.023315 0.000000 
0.015179 0.000740 0.000000 
-0.069259 0.014895 0.062996 
0.016813 -0.051418 0.020460 
-0.013599 0.059009 0.036950 
-0.061636 -0.004450 0.040271 
0.017605 -0.072449 0.056407 
-0.046154 0.015677 0.015920 
-0.023368 -0.039389 0.007954 
-0.006607 -0.052069 0.006235 
-0.056910 -0.023952 0.043586 
0.002112 0.003486 0.000000 
-0.064683 0.030907 0.048132 
0.004015 -0.045351 0.007280 
-0.030356 -0.065756 0.050453 
0.036743 -0.027186 0.003607 
-0.037935 -0.027695 0.002606 
-0.052448 0.018293 0.030745 
-0.016555 0.050913 0.017886 
-0.069444 0.003443 0.041276 
-0.053118 0.038812 0.038983 
0.043022 -0.016151 0.000000 
0.022084 -0.067176 0.047990 
-0.011892 0.009707 0.000000 
0.020382 -0.062504 0.040207 
0.038057 -0.035010 0.019282 
-0.033739 -0.065537 0.053869 
0.039980 0.050763 0.028500 
-0.074079 0.013421 0.058197 
-0.072889 -0.000000 0.058190 
0.047232 0.022084 0.022524 
-0.023821 0.068899 0.060389 
0.067260 0.019294 0.061767 
-0.019634 -0.060994 0.034210 
-0.039290 -0.013780 0.000000 
0.011763 0.046323 0.009392 
0.025437 0.016795 0.000000 
0.044369 -0.023874 0.017414 
0.033743 -0.029855 0.003000 
0.025080 -0.043968 0.017808 
-0.043626 0.014073 0.009444 
-0.017146 0.014937 0.002275 
0.010394 -0.037794 0.000000 
0.038259 0.028647 0.001856 
-0.001559 -0.050896 0.019326 
-0.058359 -0.024490 0.025909 
0.036864 0.033086 0.014683 
0.025321 0.039249 0.010321 
-0.060842 0.002702 0.019687 
-0.049651 -0.008368 0.004219 
0.046469 -0.036711 0.033074 
0.061205 0.000426 0.036441 
0.019590 -0.046220 0.014701 
-0.022121 0.061820 0.031405 
0.003391 0.066680 0.034491 
0.046625 0.034335 0.028896 
0.056228 -0.027863 0.024502 
-0.045674 0.045119 0.028206 
-0.013299 0.064086 0.030634 
0.000043 -0.005565 0.002559 
-0.056595 -0.003299 0.028847 
0.007889 0.004730 0.002442 
-0.033666 0.032209 0.009101 
0.003838 -0.063297 0.026256 
-0.045855 -0.018255 0.003471 
0.059204 0.024660 0.048752 
-0.056284 0.041671 0.054237 
-0.006589 -0.072130 0.049000 
-0.018732 0.043482 0.008938 
0.057635 -0.034974 0.035318 
0.007359 0.048855 0.014891 
-0.019364 -0.060100 0.025499 
0.029717 0.062812 0.057287 
-0.016302 -0.001974 0.000000 
-0.008429 0.064671 0.030374 
0.015033 -0.056372 0.031223 
-0.051034 0.005086 0.018469 
0.047082 -0.037153 0.018181 
-0.015277 0.034508 0.000000 
-0.043686 0.041334 0.018659 
-0.057890 -0.042098 0.051231 
0.021651 0.039867 0.000000 
-0.004420 0.058795 0.016415 
0.012229 0.070361 0.046655 
0.032718 -0.042114 0.024444 
0.039815 0.065070 0.063000 
-0.035692 0.059779 0.040572 
0.045522 -0.035882 0.030436 
0.034816 -0.051033 0.021682 
-0.007919 -0.063900 0.047575 
-0.057132 -0.034231 0.050748 
0.021711 -0.066611 0.045207 
0.066060 0.017811 0.037865 
0.053013 -0.030640 0.020729 
-0.054146 -0.044684 0.056763 
-0.056213 -0.003678 0.011596 
-0.042354 -0.002028 0.003000 
0.054983 -0.000000 0.015666 
-0.019869 0.061413 0.041081 
0.031293 0.019569 0.000000 
0.062808 0.010575 0.026744 
0.009672 -0.068733 0.040361 
0.012037 -0.043738 0.003775 
-0.070938 0.007323 0.061500 
-0.073543 -0.016567 0.063000 
-0.001050 -0.044773 0.000000 
-0.050497 -0.042968 0.033817 
-0.019906 -0.062938 0.031533 
-0.043001 -0.017512 0.000396 
-0.018057 -0.051884 0.022797 
0.060304 0.025863 0.031718 
0.069837 0.001490 0.055341 
0.049982 -0.036143 0.023448 
0.019431 0.065389 0.050810 
-0.023546 0.071706 0.060297 
0.066625 -0.009611 0.053933 
0.044160 0.028715 0.020552 
0.008487 0.063556 0.046828 
0.013293 0.063899 0.030194 
0.036082 0.004400 0.000000 
-0.017063 -0.059465 0.021331 
0.068788 -0.031193 0.059866 
-0.055212 0.039757 0.050416 
0.064704 0.024042 0.059624 
-0.013597 0.074555 0.063000 
-0.013890 -0.027275 0.000000 
0.043284 0.020955 0.013693 
0.058914 0.023831 0.047615 
-0.046915 -0.038797 0.037357 
0.036759 -0.004096 0.000000 
-0.075909 0.012244 0.063000 
0.048987 -0.021051 0.007617 
-0.065152 0.015379 0.054891 
-0.000455 0.055035 0.028318 
-0.047581 -0.001246 0.008426 
-0.034921 -0.060331 0.059576 
0.027288 -0.015232 0.003000 
-0.076722 -0.004198 0.062199 
0.046335 -0.010259 0.011874 
-0.004894 -0.074920 0.063000 
-0.023192 0.071881 0.059079 
-0.052128 -0.029566 0.037443 
0.025014 0.058339 0.043450 
-0.005314 -0.018029 0.000000 
0.044268 -0.059509 0.055175 
0.054885 -0.029971 0.023893 
0.051942 -0.016463 0.027678 
0.011013 0.076230 0.063000 
0.033831 0.056174 0.050968 
0.042429 -0.043938 0.020252 
-0.073231 0.010808 0.053595 
-0.061325 0.004609 0.021216 
-0.076584 0.008429 0.063000 
-0.069480 0.000759 0.054059 
-0.056523 -0.035350 0.050228 
-0.018151 0.065108 0.036088 
0.044288 -0.007138 0.000000 
-0.035496 0.020511 0.000000 
-0.027885 -0.059695 0.049546 
-0.063486 -0.040822 0.058559 
-0.037909 -0.038254 0.024991 
-0.045555 -0.004285 0.003000 
-0.026915 0.033343 0.002079 
0.022338 0.068058 0.047305 
-0.066796 -0.014326 0.057575 
-0.063796 0.026157 0.040018 
0.060412 0.029988 0.054704 
0.024951 0.029342 0.000000 
-0.034829 -0.054729 0.029415 
0.040506 -0.059688 0.048913 
0.065585 -0.000000 0.032715 
-0.047390 0.051545 0.060120 
0.038105 0.019205 0.003000 
-0.018412 0.057325 0.026512 
0.048868 0.045403 0.034814 
-0.003796 -0.049379 0.016030 
-0.030610 0.016115 0.000000 
-0.023417 0.012258 0.002253 
0.052691 0.045473 0.056290 
-0.045504 -0.012378 0.012157 
-0.043896 0.053662 0.059368 
0.045353 -0.050102 0.037066 
0.026588 0.028807 0.000000 
-0.016722 0.034717 0.000000 
-0.001949 -0.062352 0.022838 
0.032985 -0.068011 0.059477 
0.021154 -0.044153 0.013060 
0.030804 0.068716 0.059203 
0.054687 -0.041899 0.039285 
-0.068612 -0.008537 0.039606 
-0.048430 -0.017925 0.022267 
-0.001273 -0.012971 0.002834 
-0.057899 -0.042346 0.056087 
-0.006250 0.045490 0.007581 
0.019162 0.051179 0.023037 
-0.005754 -0.064695 0.029777 
0.023946 -0.060750 0.046068 
0.019872 -0.060240 0.037208 
-0.024135 -0.043482 0.003600 
0.043243 0.015893 0.001870 
-0.051237 0.024405 0.032250 
0.050630 -0.033798 0.036976 
0.045385 0.033060 0.012628 
0.045848 0.029538 0.024550 
0.022894 -0.073113 0.063000 
-0.047734 -0.034735 0.026878 
-0.052843 0.051402 0.053887 
0.001558 -0.045823 0.008306 
-0.055734 0.039501 0.037513 
-0.027958 -0.028805 0.000000 
-0.028718 -0.000481 0.003000 
-0.031967 0.036505 0.002650 
0.015877 -0.013998 0.000000 
-0.004833 -0.055577 0.029495 
0.044794 0.020932 0.016775 
0.007362 0.008032 0.000000 
-0.020482 0.063306 0.039613 
-0.036159 -0.060379 0.061229 
-0.015008 0.046062 0.002405 
0.050329 0.050852 0.062643 
-0.036450 0.016185 0.000000 
-0.005496 0.058474 0.035789 
-0.038486 -0.014962 0.000000 
0.057591 0.003876 0.031359 
-0.031395 0.041346 0.022104 
-0.026663 0.049156 0.029525 
-0.010592 0.069743 0.060270 
0.070309 0.006151 0.043763 
0.013677 -0.064259 0.048356 
-0.053231 -0.008146 0.025307 
0.042957 0.031320 0.009599 
0.054622 -0.005591 0.026042 
-0.057808 0.010542 0.016286 
0.061966 -0.035721 0.046316 
0.021564 0.066824 0.050125 
-0.026375 -0.040472 0.002235 
-0.015368 -0.046931 0.007815 
0.012536 0.069584 0.044341 
0.048268 -0.019290 0.006228 
0.061313 0.005038 0.040019 
-0.004422 0.040384 0.002061 
0.047603 0.014935 0.018422 
-0.052561 0.007524 0.023447 
0.071335 -0.026430 0.061268 
0.051803 0.037747 0.028176 
0.073779 0.000411 0.062815 
-0.018680 -0.072592 0.057671 
-0.002504 -0.018792 0.002690 
0.036049 -0.062178 0.046935 
0.024848 0.062744 0.050968 
0.020692 -0.063400 0.037193 
0.009323 -0.062323 0.044150 
-0.055685 -0.014759 0.035078 
0.067869 0.033350 0.059463 
-0.023594 -0.041643 0.012215 
-0.014138 0.043945 0.002841 
0.000207 0.076881 0.063000 
-0.020234 -0.060388 0.040654 
-0.027710 -0.057116 0.026525 
0.034119 -0.018603 0.003000 
-0.026048 0.047033 0.007660 
-0.038659 -0.051887 0.028626 
-0.022618 -0.068841 0.051855 
0.076376 0.001290 0.061206 
-0.019083 -0.060984 0.041242 
0.042788 -0.036635 0.012046 
-0.029353 0.053679 0.040950 
-0.031901 -0.026060 0.003000 
0.043122 0.052617 0.037605 
-0.042476 -0.005983 0.001149 
0.022870 0.012014 0.002282 
0.036420 0.061165 0.045482 
0.066309 -0.023125 0.043385 
0.051071 -0.055037 0.057458 
0.008459 0.007232 0.002414 
0.050702 -0.019028 0.008814 
0.035828 -0.050697 0.043619 
0.024812 0.063829 0.038702 
-0.000707 0.016705 0.000000 
-0.004200 0.012108 0.000000 
-0.059987 -0.043976 0.062958 
-0.036481 0.049328 0.042427 
-0.050702 -0.021029 0.009941 
-0.009065 0.037996 0.000000 
0.026669 -0.042655 0.004325 
0.000898 -0.023370 0.000000 
0.021041 0.056325 0.018470 
-0.055511 0.021266 0.038965 
-0.035280 -0.034102 0.003187 
0.021669 -0.002242 0.000000 
-0.014308 -0.072243 0.053533 
0.002658 -0.061439 0.042229 
-0.061752 0.017038 0.049002 
0.007384 -0.025704 0.002773 
-0.015372 0.029998 0.000000 
-0.040705 -0.030032 0.013507 
0.058513 0.043802 0.052223 
-0.054505 -0.039678 0.042278 
0.063099 -0.017425 0.030939 
0.049584 -0.015724 0.006159 
0.067221 -0.000146 0.035172 
0.037404 0.064709 0.063000 
0.005827 -0.014999 0.002661 
-0.040059 0.029691 0.012834 
0.028512 -0.018473 0.000000 
0.064506 0.017992 0.055271 
0.043514 -0.045254 0.043912 
-0.029827 -0.008771 0.003000 
0.019129 -0.020282 0.003000 
0.012823 -0.005766 0.000000 
0.007198 -0.032289 0.000000 
0.004243 -0.070084 0.043117 
0.042277 -0.013138 0.005699 
-0.074127 0.015956 0.063000 
-0.036391 -0.059167 0.040251 
-0.052278 -0.009692 0.007040 
-0.003692 -0.062783 0.045150 
0.002042 -0.073579 0.053165 
-0.032912 0.068111 0.059682 
0.054180 -0.035301 0.045187 
0.048751 -0.000717 0.010456 
0.043750 -0.013503 0.003000 
0.064106 0.025649 0.059447 
0.058661 -0.000000 0.027843 
-0.008806 -0.070843 0.062660 
0.024363 0.004961 0.000000 
-0.045054 0.033065 0.020009 
0.020246 0.072665 0.063000 
-0.043078 0.053307 0.057712 
0.039529 -0.042224 0.033457 
0.040328 -0.054305 0.035913 
0.044255 0.009226 0.007242 
-0.018612 0.063559 0.046835 
-0.059746 -0.037172 0.043171 
-0.021167 0.065896 0.039926 
-0.022439 0.055191 0.034472 
0.006822 0.023262 0.002243 
-0.038936 -0.056677 0.038626 
0.064277 -0.036450 0.053597 
0.049765 -0.004411 0.015055 
-0.044511 0.049880 0.053573 
-0.055453 -0.008336 0.030111 
-0.001508 0.047292 0.001292 
-0.045123 -0.056650 0.050978 
0.047897 0.035136 0.032402 
0.054743 -0.035672 0.046579 
-0.031218 -0.035467 0.011571 
-0.068557 -0.021597 0.047985 
-0.060103 0.043651 0.056911 
-0.060721 -0.019539 0.025727 
-0.035486 -0.028643 0.000000 
-0.075186 0.007497 0.057785 
0.015910 0.043603 0.005374 
-0.037080 0.026894 0.000821 
-0.041699 0.026702 0.014194 
0.030962 0.021642 0.002224 
-0.027964 0.031872 0.002041 
-0.065861 -0.020305 0.059558 
0.007981 0.064412 0.029622 
-0.016462 0.062152 0.043779 
0.001211 -0.052684 0.006684 
-0.018017 -0.058541 0.035935 
0.045009 0.046152 0.028906 
-0.073742 0.001665 0.053634 
-0.028382 0.067420 0.052724 
-0.042150 0.030883 0.009934 
-0.033139 -0.057187 0.032128 
-0.021685 -0.048147 0.021088 
-0.044863 0.010549 0.001631 
0.016627 0.063630 0.046989 
-0.037968 0.032465 0.015003 
0.015195 0.066118 0.052394 
0.034175 -0.028152 0.002591 
-0.049796 0.011082 0.020226 
0.044695 -0.011221 0.002838 
0.003523 -0.042432 0.000939 
-0.045343 0.049346 0.053701 
0.027908 0.053998 0.039672 
0.017019 0.074128 0.061108 
-0.060087 0.016854 0.022889 
0.069786 -0.008528 0.059849 
0.061866 -0.042296 0.063000 
0.036968 -0.046652 0.037927 
0.025978 -0.055707 0.021438 
-0.030679 -0.032567 0.000000 
0.011089 -0.068733 0.041001 
0.020813 0.049406 0.007933 
-0.020090 -0.061878 0.030435 
0.044083 0.029562 0.020947 
-0.042641 -0.031227 0.016106 
-0.028241 0.065112 0.046149 
0.063310 0.035425 0.049216 
0.056943 -0.041532 0.052241 
0.043549 0.049291 0.032097 
0.031982 -0.028674 0.000637 
-0.067739 0.034273 0.063000 
0.013179 0.013928 0.000000 
-0.009293 0.074293 0.056356 
0.064747 0.014649 0.032684 
0.015662 -0.066022 0.036228 
0.001513 -0.059482 0.037977 
0.045795 -0.008777 0.000537 
-0.021715 -0.062597 0.046516 
-0.064898 -0.013827 0.032716 
0.028074 0.032986 0.003003 
0.033704 -0.044802 0.030431 
0.052770 -0.038366 0.039871 
0.057268 -0.005862 0.014069 
-0.050424 0.055914 0.057897 
0.041311 0.032839 0.006655 
-0.041971 -0.041699 0.036131 
0.014740 0.046052 0.008803 
0.049062 -0.010924 0.017930 
0.004799 -0.023278 0.000000 
0.067697 -0.000144 0.036463 
0.024736 0.047127 0.023379 
0.034730 0.043394 0.029893 
-0.044736 -0.032558 0.016615 
0.060841 -0.029812 0.055286 
-0.032527 -0.051086 0.040470 
0.065789 -0.011761 0.034096 
0.038565 0.021492 0.004209 
-0.013865 0.073083 0.063000 
0.007839 -0.051007 0.019567 
0.004930 -0.046334 0.000334 
0.038800 -0.019786 0.003000 
0.009090 -0.023786 0.000000 
0.043816 0.038545 0.015608 
0.043568 -0.025749 0.017109 
0.044685 -0.032960 0.024252 
0.019936 -0.060920 0.029973 
-0.061186 0.044409 0.059788 
0.017904 0.015192 0.002288 
0.028832 -0.001175 0.003000 
0.046517 0.022798 0.021525 
-0.018112 -0.068495 0.044889 
-0.041275 0.030079 0.005023 
-0.070426 -0.011882 0.046705 
0.035075 -0.005675 0.003000 
0.061806 -0.027772 0.055951 
0.037546 -0.022210 0.003000 
0.017670 0.067507 0.041628 
0.053377 0.038859 0.042045 
-0.009755 0.061622 0.023703 
0.020936 -0.037312 0.001015 
-0.028094 -0.051043 0.034755 
-0.040856 0.039101 0.030200 
0.035328 0.050721 0.021642 
-0.026075 -0.052831 0.016724 
0.003144 -0.052845 0.006845 
0.005013 0.043784 0.003875 
-0.046584 0.008800 0.001311 
-0.019111 0.046544 0.014825 
0.017825 -0.064211 0.048251 
-0.012692 0.027055 0.000000 
0.001754 -0.012440 0.000000 
-0.040344 0.029779 0.011363 
0.034942 -0.063604 0.049446 
0.060237 -0.012269 0.042296 
0.026301 0.035962 0.000000 
-0.021368 -0.064999 0.046415 
-0.050723 0.045626 0.038784 
-0.067568 0.027452 0.052029 
-0.045918 -0.000000 0.001990 
-0.019945 -0.062047 0.029349 
-0.018434 0.057225 0.027056 
0.038704 0.036986 0.023796 
-0.049831 0.002704 0.014211 
0.020087 -0.013536 0.000000 
-0.016110 -0.014416 0.003000 
0.054803 -0.001311 0.009491 
-0.013089 -0.058915 0.036746 
-0.013773 0.052688 0.008918 
-0.009250 0.003846 0.000000 
-0.034365 0.034243 0.013524 
-0.045802 -0.054680 0.047912 
0.037355 0.042901 0.013181 
0.056618 -0.000000 0.012381 
0.055078 -0.009076 0.011145 
0.007765 -0.076594 0.061833 
0.012180 0.050445 0.005925 
-0.033553 -0.015973 0.003000 
0.054216 0.035663 0.045702 
0.034574 -0.045124 0.012498 
0.044658 0.000360 0.001643 
-0.071723 0.024698 0.063000 
-0.061661 -0.044250 0.060774 
0.002886 0.074300 0.055239 
0.075388 0.013614 0.062418 
0.029432 -0.060597 0.036100 
-0.038802 0.038689 0.009762 
-0.031402 -0.000201 0.000000 
0.030546 -0.029654 0.000000 
0.019739 -0.026337 0.000000 
-0.048063 -0.035261 0.031262 
0.049535 -0.054914 0.054277 
-0.057491 -0.041748 0.050258 
0.070058 0.014469 0.046710 
-0.071533 -0.006482 0.062170 
-0.043202 0.012559 0.000000 
-0.027504 0.047407 0.009098 
0.007107 -0.066120 0.033316 
0.034752 0.056810 0.033250 
0.056900 -0.004876 0.013385 
-0.072979 0.018360 0.058755 
0.050786 -0.039086 0.042706 
-0.065902 -0.038086 0.059069 
-0.032227 0.016703 0.003000 
0.070462 -0.009550 0.061951 
-0.058850 0.010836 0.039006 
0.009584 -0.016556 0.002666 
-0.050739 0.039708 0.028681 
-0.006846 -0.049047 0.015309 
0.023836 -0.064431 0.039146 
-0.045844 0.028851 0.007962 
-0.017298 0.009464 0.002325 
0.070786 0.015312 0.063000 
0.036275 -0.042845 0.011687 
0.025446 -0.058320 0.026684 
0.004322 0.047796 0.001796 
-0.035566 0.007952 0.003000 
-0.069278 -0.006743 0.057717 
0.042326 0.005645 0.000000 
0.041803 -0.050548 0.051077 
0.050252 -0.036515 0.027131 
0.036180 0.026823 0.002672 
0.040543 -0.006315 0.003000 
0.021759 0.066325 0.048882 
-0.038269 -0.055983 0.036388 
0.037644 -0.040605 0.010658 
-0.004482 -0.025310 0.002740 
0.056520 0.011439 0.014393 
0.009956 0.068676 0.040310 
-0.033621 0.029663 0.000000 
0.021521 0.065681 0.049481 
0.013815 0.055496 0.029319 
-0.057993 -0.034242 0.035025 
-0.052432 -0.030201 0.019427 
0.063622 0.026026 0.039486 
0.066382 -0.017443 0.038546 
0.000799 0.068665 0.039206 
-0.017199 -0.062787 0.029211 
-0.045258 0.011023 0.010653 
-0.013196 0.021210 0.000000 
-0.014002 -0.065859 0.035020 
-0.027271 -0.036213 0.007598 
0.040360 0.029834 0.010761 
-0.060969 0.027904 0.054485 
-0.012330 0.068891 0.058419 
0.013639 0.056646 0.031818 
0.054521 0.036950 0.031493 
0.033836 -0.028194 0.000000 
0.057631 0.021692 0.020965 
-0.012587 -0.052494 0.022796 
0.028769 0.043930 0.023161 
0.022392 -0.069204 0.050603 
-0.040596 0.049525 0.027760 
-0.019440 0.006265 0.000000 
0.067057 -0.024017 0.046525 
-0.017958 -0.004073 0.000000 
-0.026478 0.053045 0.017400 
0.032675 -0.053490 0.044490 
-0.014300 0.046858 0.010553 
-0.062682 -0.043141 0.061070 
0.003091 0.051369 0.005369 
0.052613 0.038198 0.033959 
0.028261 -0.049871 0.013774 
-0.010474 -0.032920 0.000000 
-0.067536 -0.013716 0.038824 
-0.000460 -0.003696 0.002538 
-0.035708 0.053243 0.027476 
-0.004849 0.015493 0.000000 
-0.022335 0.058192 0.039606 
0.043816 0.028680 0.019824 
0.039150 0.028569 0.005656 
-0.041570 -0.046360 0.022768 
-0.063548 -0.038158 0.053755 
0.018453 0.066817 0.040262 
-0.007270 0.028456 0.002182 
0.049048 0.058955 0.062656 
0.041559 0.016100 0.000000 
0.040362 -0.021446 0.007636 
0.023092 0.067083 0.045495 
0.047922 0.036400 0.018715 
-0.006334 -0.058481 0.016446 
0.073294 0.001880 0.062779 
-0.037432 0.057823 0.038907 
0.034913 -0.048979 0.039393 
0.008471 -0.060996 0.021814 
0.024045 0.039381 0.000122 
0.055645 0.005599 0.028525 
-0.024795 -0.031115 0.000000 
0.044593 0.007288 0.006543 
-0.015473 0.073410 0.057742 
-0.036463 0.066159 0.057925 
0.014933 0.066957 0.038052 
-0.060601 -0.009952 0.021388 
0.002116 0.048877 0.002877 
0.036823 -0.024781 0.002826 
0.055820 -0.050371 0.057617 
-0.011603 -0.068667 0.041023 
0.061410 -0.033804 0.059149 
-0.047649 0.044858 0.031464 
0.012906 0.066725 0.053713 
-0.038696 -0.006562 0.003000 
-0.043662 0.040213 0.035693 
0.061830 0.032037 0.041478 
0.055193 -0.031737 0.044740 
-0.043705 -0.032343 0.022068 
0.031617 -0.023021 0.000000 
0.022897 -0.069800 0.056170 
0.037960 -0.055790 0.035603 
-0.026850 0.052765 0.017245 
-0.062071 0.028250 0.056971 
0.037529 -0.057442 0.057765 
0.036715 -0.062580 0.048923 
0.018784 -0.055172 0.015218 
-0.037802 0.058733 0.041430 
-0.022333 -0.053956 0.032162 
-0.058041 -0.045741 0.055331 
-0.026493 0.052413 0.035019 
-0.020560 -0.061184 0.042488 
-0.037470 0.050078 0.023648 
-0.001544 -0.063811 0.026614 
0.016499 -0.002684 0.002478 
0.028415 0.036157 0.000162 
0.072415 0.010544 0.051991 
0.022470 -0.072707 0.060927 
-0.063382 -0.000000 0.031721 
0.025623 0.059560 0.046411 
0.043200 0.055146 0.043095 
-0.024664 0.051815 0.031519 
0.026531 -0.060068 0.031804 
-0.054992 0.001882 0.009612 
-0.017630 0.003580 0.002377 
0.006540 0.030323 0.002167 
0.006177 0.004387 0.000000 
0.010138 0.020859 0.000000 
0.015786 0.033063 0.000000 
0.002796 0.014508 0.000000 
0.053760 -0.028631 0.039680 
0.030710 -0.055203 0.044986 
0.019273 0.058396 0.025463 
0.023092 0.050657 0.027382 
-0.054569 -0.010363 0.010637 
0.058194 0.042377 0.054753 
-0.074984 -0.010943 0.059431 
-0.036008 -0.062315 0.047634 
0.025257 0.010702 0.000000 
0.051483 -0.049269 0.061324 
0.047150 -0.047524 0.035580 
-0.036548 0.045743 0.036281 
-0.071739 -0.003470 0.060627 
-0.039078 -0.057682 0.060244 
-0.042124 0.030671 0.008435 
0.043494 -0.050038 0.033738 
-0.023030 -0.037294 0.003000 
-0.003473 0.015096 0.000000 
-0.034449 -0.017139 0.003000 
-0.001463 -0.038332 0.000000 
0.018945 0.062823 0.030553 
-0.021539 0.052471 0.028489 
0.062985 -0.003281 0.042061 
-0.049831 0.027804 0.013254 
0.005889 0.047460 0.001598 
0.013033 0.048276 0.013633 
0.052474 0.019771 0.031763 
0.067909 -0.016884 0.042226 
-0.057647 -0.041858 0.050234 
-0.043325 0.006514 0.003318 
-0.064648 -0.005482 0.029664 
-0.065360 0.039686 0.063000 
0.063895 -0.009465 0.048105 
0.051546 0.024183 0.013420 
0.046555 0.015041 0.016298 
0.053406 0.032169 0.041762 
0.014046 0.054798 0.027802 
0.007741 -0.064830 0.049596 
0.066621 -0.000000 0.039093 
-0.047625 0.051172 0.059769 
-0.023669 0.034231 0.000000 
-0.061692 -0.002051 0.021091 
-0.060463 -0.009960 0.041743 
0.016543 0.070140 0.048511 
0.074772 -0.000000 0.062106 
-0.062521 -0.030587 0.059418 
-0.049026 0.048722 0.041434 
0.019320 0.059704 0.023990 
-0.048391 -0.020973 0.024175 
0.039780 0.036579 0.024453 
0.023577 -0.063427 0.036449 
-0.016841 -0.013337 0.000000 
0.040545 0.048009 0.045290 
-0.021503 -0.005645 0.003000 
-0.020862 -0.059276 0.023698 
0.021253 -0.031896 0.003000 
-0.043728 -0.044716 0.023745 
-0.045567 0.007165 0.000295 
0.042853 0.045654 0.044125 
0.064226 -0.012519 0.050839 
0.018516 0.057436 0.026115 
-0.052530 0.019025 0.011673 
-0.025783 0.012514 0.000000 
0.037714 0.001722 0.000000 
0.053995 0.037848 0.046675 
0.025779 0.066485 0.058678 
0.024986 0.028776 0.000000 
0.046824 0.057977 0.056917 
-0.070081 0.000096 0.043108 
0.039730 -0.065792 0.063000 
0.068427 -0.007024 0.055990 
-0.011173 0.057477 0.033622 
-0.022304 0.070944 0.062878 
0.019071 -0.068564 0.057707 
-0.024466 0.008754 0.002616 
0.021593 0.043234 0.002382 
-0.047544 -0.047682 0.036631 
0.048968 -0.035452 0.021004 
-0.020634 -0.062406 0.030930 
0.015614 0.043014 0.002004 
0.064089 0.028068 0.043104 
0.002652 -0.072842 0.051045 
0.065436 -0.028698 0.063000 
-0.002653 0.011640 0.000000 
-0.063101 -0.027925 0.040192 
0.045718 0.004141 0.006617 
-0.033718 0.054593 0.048075 
-0.044575 -0.020025 0.015734 
0.028880 0.026124 0.002094 
-0.062912 -0.016583 0.051085 
-0.071174 -0.006490 0.061440 
0.022111 -0.015751 0.003000 
0.016135 -0.074081 0.060286 
-0.015540 -0.026312 0.003000 
-0.051425 0.011447 0.006631 
0.034787 -0.046954 0.015324 
-0.053751 0.004647 0.023855 
-0.038374 -0.029485 0.010338 
-0.040932 -0.007684 0.000000 
0.012717 -0.007129 0.000000 
0.034921 -0.059344 0.057762 
-0.010204 -0.032683 0.003000 
0.041674 -0.002558 0.000000 
-0.050243 -0.024212 0.011373 
0.006885 -0.069044 0.058751 
-0.002518 -0.062715 0.045001 
0.071809 0.014703 0.052341 
0.013809 -0.071096 0.049688 
-0.004169 0.070792 0.045151 
0.061418 0.036077 0.045153 
0.055348 -0.047192 0.050617 
0.004248 -0.049202 0.015645 
0.056403 0.041309 0.043053 
0.014968 -0.069933 0.060683 
0.010401 -0.062796 0.045177 
0.052620 -0.045927 0.056873 
-0.058704 -0.035639 0.038228 
-0.054441 0.010573 0.029612 
0.011180 0.028784 0.002173 
0.051317 -0.029124 0.016741 
-0.016285 -0.057128 0.032865 
-0.066620 -0.004895 0.051061 
-0.063138 -0.010411 0.047521 
0.057252 -0.042996 0.046954 
0.066770 -0.019824 0.061064 
0.028085 -0.021248 0.000000 
-0.053553 -0.010230 0.008740 
-0.051178 0.037563 0.039797 
0.009457 0.038866 0.002068 
0.005436 -0.061846 0.023009 
-0.004251 0.037748 0.000000 
-0.027152 0.066972 0.061264 
0.043743 0.003934 0.000000 
-0.019878 -0.062120 0.033787 
0.060551 -0.029257 0.035621 
0.015921 -0.065528 0.035173 
-0.055670 0.005981 0.028854 
-0.054042 -0.035203 0.028204 
-0.023550 -0.027837 0.003000 
-0.051499 0.048363 0.045485 
-0.037644 -0.030504 0.011183 
0.042907 0.042243 0.018814 
0.015459 0.047753 0.005205 
0.019491 -0.066008 0.052155 
-0.016316 0.050835 0.016209 
-0.003352 -0.046579 0.009947 
-0.008608 -0.052527 0.022869 
-0.029810 0.041551 0.020375 
0.019614 0.023611 0.000000 
-0.048101 -0.046469 0.052198 
0.030386 0.037221 0.002054 
-0.040368 0.011501 0.000733 
-0.005176 -0.050094 0.004094 
-0.071069 -0.023441 0.056975 
0.032204 -0.012356 0.000000 
0.059081 -0.045277 0.055934 
0.039977 -0.062314 0.054380 
0.003457 0.074550 0.055956 
0.048708 0.035402 0.022805 
-0.046764 0.004725 0.009238 
-0.043687 -0.058995 0.053067 
0.011088 0.042760 0.002021 
0.017455 0.039619 0.002032 
-0.024596 0.059548 0.028739 
0.027659 0.038279 0.001320 
-0.054872 -0.039918 0.043793 
0.057061 -0.042784 0.046064 
0.050389 -0.048828 0.059129 
0.060775 -0.001253 0.036066 
-0.056278 0.017933 0.038364 
0.006902 0.038278 0.002080 
-0.020403 -0.068904 0.058446 
-0.054092 0.044268 0.055972 
-0.065058 -0.013070 0.032824 
-0.027677 0.025018 0.002106 
0.019160 0.021904 0.002211 
-0.055058 -0.029063 0.043124 
-0.012741 0.044907 0.006315 
0.061838 -0.039766 0.053187 
0.050094 0.034852 0.020079 
0.025083 -0.024868 0.000000 
-0.071623 0.021733 0.057232 
-0.048432 -0.018167 0.022430 
-0.008437 -0.048835 0.014849 
-0.062051 -0.030189 0.058196 
-0.070827 -0.002782 0.045253 
0.022610 0.041975 0.011482 
-0.036973 -0.039595 0.026135 
0.043077 -0.016888 0.000227 
0.018151 -0.055269 0.027000 
0.048658 -0.046423 0.036353 
-0.021168 -0.069627 0.060017 
0.035461 -0.049494 0.041014 
0.041061 0.028176 0.003813 
-0.002258 0.029727 0.002177 
0.014979 0.002570 0.000000 
-0.020053 -0.045891 0.014939 
-0.001198 -0.063762 0.026325 
-0.025207 0.000415 0.003000 
0.050585 0.057479 0.063000 
0.037459 -0.055756 0.054688 
-0.031331 0.030627 0.000000 
-0.017345 0.060674 0.040567 
0.054373 0.036749 0.046734 
0.069944 -0.028296 0.059628 
-0.052706 0.036095 0.026834 
-0.054605 -0.038116 0.048099 
-0.010590 -0.054749 0.011016 
-0.037156 -0.057648 0.057747 
-0.037372 -0.023114 0.003000 
-0.032591 -0.056551 0.030229 
-0.048953 -0.041160 0.027504 
0.022878 -0.034627 0.003000 
-0.018389 -0.073076 0.058931 
0.006725 0.064785 0.030073 
0.007827 0.024868 0.000000 
0.052066 -0.032230 0.038776 
0.049416 0.008516 0.017564 
0.073434 -0.008181 0.053001 
-0.019986 0.064280 0.035106 
0.010525 0.059119 0.037190 
0.006597 -0.046339 0.000642 
0.026010 -0.017578 0.000000 
0.009351 -0.066211 0.034276 
-0.028778 -0.068268 0.055548 
-0.068189 -0.022209 0.047516 
-0.071466 -0.010161 0.049079 
-0.059162 0.038847 0.057921 
0.021537 -0.038667 0.000000 
-0.065242 -0.034110 0.063000 
-0.054470 -0.037758 0.047591 
0.011493 -0.066504 0.053232 
-0.018898 0.032500 0.000000 
-0.025654 0.013551 0.002319 
0.020370 -0.063651 0.034874 
-0.039968 0.060265 0.063000 
-0.021150 -0.059781 0.025149 
-0.041810 -0.032249 0.019501 
0.053625 -0.042511 0.052209 
-0.053995 0.007439 0.026396 
0.043162 -0.016540 0.009859 
0.048226 0.031222 0.013817 
-0.052713 0.028976 0.018889 
-0.011410 -0.066394 0.035389 
0.018906 0.003207 0.000000 
-0.021145 -0.035837 0.003000 
-0.058780 -0.032853 0.035334 
0.016143 -0.068953 0.044580 
-0.018255 -0.021806 0.000000 
0.037254 0.018593 0.003000 
-0.027939 -0.048700 0.011526 
0.013567 -0.031693 0.000000 
0.039396 0.057617 0.041454 
-0.017404 -0.046262 0.003535 
0.019376 0.006901 0.000000 
-0.068994 -0.015317 0.044058 
-0.032889 -0.059437 0.036800 
-0.056038 0.009353 0.012758 
-0.037536 -0.063176 0.052548 
-0.029951 -0.056966 0.047423 
0.064722 0.007355 0.030137 
-0.006976 -0.038700 0.000000 
0.075346 -0.014126 0.063000 
0.067677 0.033921 0.063000 
-0.029868 -0.055824 0.045331 
-0.042135 -0.001419 0.003000 
-0.010180 -0.069317 0.059344 
-0.018631 -0.024045 0.003000 
0.054465 0.026646 0.040330 
0.026764 -0.023392 0.000000 
0.016581 -0.050091 0.016263 
0.030492 0.062558 0.057828 
0.033922 -0.056920 0.032535 
-0.052127 -0.037864 0.028744 
0.060564 0.030218 0.055166 
-0.056912 -0.041348 0.050309 
0.057984 0.047833 0.058544 
-0.035916 -0.030709 0.001263 
-0.060167 -0.036066 0.042330 
0.041648 -0.013672 0.003000 
-0.022725 -0.038022 0.000000 
-0.042729 0.023294 0.014082 
-0.026944 -0.025564 0.000000 
0.054495 0.001126 0.008805 
0.019659 0.061045 0.041374 
0.060332 -0.025482 0.031409 
0.021102 0.061774 0.029888 
-0.021541 -0.066836 0.049430 
0.018934 0.057846 0.021974 
-0.019338 0.065914 0.038715 
0.050571 -0.003661 0.004571 
0.033484 -0.059512 0.056203 
0.046203 0.002236 0.006253 
0.044186 0.032160 0.014782 
-0.038344 0.038496 0.008993 
-0.062148 -0.029158 0.039225 
-0.023695 -0.057165 0.039623 
0.047243 -0.053689 0.047537 
0.028949 0.034834 0.000000 
-0.005127 -0.022237 0.000000 
-0.035517 -0.028977 0.001025 
-0.049806 0.019239 0.007709 
-0.063007 -0.000000 0.023871 
0.047676 -0.007478 0.012715 
0.040586 0.052007 0.052293 
-0.054074 -0.037453 0.031265 
-0.056172 0.039375 0.038209 
-0.020123 -0.068554 0.046744 
